# .PCD v0.7 - Point Cloud Data file format
VERSION 0.7
FIELDS x y z
SIZE 4 4 4
TYPE F F F
COUNT 1 1 1
WIDTH 1532
HEIGHT 1
VIEWPOINT 0 0 0 1 0 0 0
POINTS 1532
DATA ascii
73.90831 -18.214457 0.234493
74.051193 -18.174772 0.135737
74.504585 -18.21055 0.125348
80.398964 -18.448359 0.085615002
80.500778 -18.230268 0.178056
85.916298 -18.074213 0.31717199
86.263519 -18.336546 0.25538373
86.574829 -18.385626 0.20455098
87.101105 -18.435333 0.282763
89.424904 -18.173206 0.239326
89.677902 -18.313015 0.10017
91.816528 -18.192167 0.28245801
97.57309 -18.169849 0.1627225
97.684776 -18.172344 0.039166
100.04396 -18.332037 0.19880557
100.39765 -18.277838 0.22971889
100.86902 -18.211746 0.068680003
104.92657 -18.376213 0.053613
106.85605 -18.241186 0.15462799
13.050309 -17.718283 0.24972899
23.851851 -17.753914 0.131621
24.38825 -17.867823 0.240036
27.559217 -17.739244 0.190111
41.417969 -17.845932 0.21977
47.445332 -17.639578 0.05525
48.827656 -17.82638 0.26735666
49.39613 -17.778175 0.225113
49.864388 -17.744186 0.22515699
49.895699 -18.029631 0.29070601
51.343464 -17.805405 0.232108
51.991791 -18.020058 0.239783
52.693279 -17.806654 0.3135975
53.359001 -17.895205 0.30493301
74.131203 -17.848249 0.169156
74.623497 -17.835098 0.229068
80.720497 -17.846718 0.20395026
85.116425 -17.641138 0.26384601
85.442947 -17.858692 0.19578379
85.709213 -17.95409 0.16190401
88.840248 -17.784891 0.19458275
89.162598 -18.022995 0.19892099
89.668037 -17.969761 0.39761201
91.534546 -17.799797 0.23087867
91.766754 -17.910439 0.19970332
97.133606 -17.755928 0.385418
97.268311 -17.753311 0.161476
99.669579 -17.781107 0.16065499
99.832573 -17.77564 0.075021997
107.49627 -17.964458 0.26638699
107.63106 -17.866257 0.25548649
108.20039 -17.692579 0.33065051
13.128906 -17.292566 0.26161799
23.92766 -17.449858 0.018424001
24.472229 -17.464909 0.24706601
27.549143 -17.476131 0.111612
41.605049 -17.365246 0.16613349
47.47789 -17.268421 0.209529
47.924519 -17.426863 0.33043233
48.297287 -17.493383 0.258183
48.868355 -17.432713 0.14891499
49.393326 -17.391857 0.147035
50.056046 -17.268261 0.229947
51.46254 -17.567837 0.30047601
51.940948 -17.24934 0.234174
52.648266 -17.222372 0.337919
52.993824 -17.317804 0.234721
53.945862 -17.59833 0.28445101
74.239388 -17.502617 0.19005267
74.745132 -17.460257 0.15063
80.787003 -17.571781 0.16752499
80.893387 -17.354151 0.23072702
84.491699 -17.283415 0.23375002
84.965485 -17.510792 0.274427
87.829483 -17.225023 0.29754201
88.342979 -17.462133 0.16001798
89.080818 -17.452957 0.42743301
89.516731 -17.242279 0.392454
90.728638 -17.220789 0.064537004
91.019447 -17.338146 0.23404202
91.380554 -17.514151 0.12981166
91.618195 -17.582117 0.077434003
97.100967 -17.513781 0.258762
97.202507 -17.517982 0.089442
99.17527 -17.227329 0.229736
99.508438 -17.396465 0.21139601
106.05827 -17.475372 0.093799002
9.8362694 -16.805679 0.051174998
13.186451 -16.894344 0.2203445
23.996471 -17.076519 0.050992001
24.54487 -17.0196 0.250792
27.598221 -17.132156 0.27940398
41.732483 -16.997549 0.18663201
47.496742 -17.049805 0.183769
48.561031 -16.838284 0.096973002
49.078125 -16.853374 0.25996801
49.524925 -17.060246 0.150611
50.008305 -16.940855 0.23795134
52.380001 -16.774893 0.340992
52.65871 -17.057673 0.243672
53.465271 -16.879488 0.23277301
54.427872 -16.981808 0.33707899
74.357147 -17.120129 0.179299
74.44603 -16.839304 0.118214
74.872932 -16.979298 0.14630599
81.034012 -16.980139 0.24290839
83.584198 -16.866566 0.303482
84.038765 -17.015448 0.17149334
84.441742 -17.186106 0.188228
86.477013 -17.003838 0.31761599
87.937927 -16.964851 0.31303
88.836639 -17.084093 0.385196
90.124207 -16.840696 0.173684
90.494453 -17.01804 0.20141962
90.943169 -17.152914 0.26632532
96.619331 -17.009514 0.22578099
99.17173 -16.916048 0.167127
102.1624 -17.143534 0.034584001
109.13292 -17.055973 0.377435
9.8997679 -16.5762 0.24916101
13.26035 -16.53788 0.20082299
24.065504 -16.659477 0.058136001
24.599512 -16.706091 0.28617501
27.790804 -16.47554 0.26347899
41.882099 -16.607691 0.169359
47.588364 -16.479958 0.1702815
48.776505 -16.658951 0.094954997
49.160801 -16.466473 0.091462001
49.77887 -16.470905 0.16860899
50.114761 -16.494682 0.30918151
50.440281 -16.593782 0.41174099
50.886108 -16.68816 0.230702
51.450027 -16.488398 0.23827399
51.843796 -16.626328 0.23724
53.105091 -16.726162 0.25764501
53.747002 -16.389311 0.34708199
67.432953 -16.669319 0.14407
67.64389 -16.366737 0.31792349
74.5662 -16.573841 0.16416501
75.003975 -16.596748 0.27208325
81.197845 -16.526459 0.191762
83.215714 -16.566113 0.1577846
86.215073 -16.438698 0.32723799
86.533997 -16.405119 0.1042015
87.081764 -16.608194 0.187244
87.388885 -16.584385 0.25627449
88.284462 -16.562115 0.29592359
89.637787 -16.519962 0.19175647
90.037407 -16.635653 0.21226116
90.334061 -16.765215 0.329173
96.239258 -16.521448 0.107907
96.45549 -16.692154 0.25477099
98.806152 -16.506348 0.29952151
98.984245 -16.512253 0.18020575
106.92853 -16.639536 0.171914
107.3927 -16.432861 0.24827565
107.78863 -16.425816 0.200435
9.957078 -16.1619 0.279717
13.337741 -16.159 0.225779
24.125978 -16.266848 0.246673
24.702265 -16.200537 0.249759
27.842072 -16.166447 0.27858448
42.048393 -16.177078 0.169384
47.690002 -16.189157 0.15030301
47.97327 -16.07251 0.28046101
49.229012 -16.141052 0.089653999
49.989056 -16.169407 0.23579949
50.825577 -16.155952 0.27114299
51.523537 -16.02993 0.20629799
51.901012 -16.226831 0.249641
52.309143 -16.221775 0.32907
53.170322 -16.24888 0.29980999
53.44009 -16.293072 0.32192799
55.135273 -16.043659 0.264622
67.65538 -16.035067 0.18688001
74.640274 -16.164644 0.30352449
75.148582 -16.146746 0.17444067
81.420486 -16.112553 0.27648321
82.269501 -15.985591 0.184669
82.664108 -16.229254 0.175281
85.357635 -16.021133 0.36081499
85.815514 -15.992705 0.196687
86.188606 -16.179171 0.14377366
87.496872 -16.134136 0.30957499
88.443657 -16.231277 0.25521851
88.838867 -16.032133 0.22032249
89.231369 -16.193443 0.24370898
89.461304 -16.302341 0.29927501
95.74514 -16.133438 0.105987
96.057594 -16.160652 0.36414
98.306297 -16.029902 0.212678
98.695969 -16.167072 0.27637738
107.73636 -16.179354 0.26191601
108.76607 -16.265963 0.258701
109.39404 -15.988359 0.2580255
9.4528866 -15.829994 0.237257
9.5060358 -15.786435 0.018398
10.00785 -15.756983 0.33340201
13.402138 -15.826218 0.18286151
24.23077 -15.876724 0.027455
24.758432 -15.873133 0.28027901
27.967024 -15.652716 0.241292
42.188183 -15.779817 0.14946
47.911781 -15.756565 0.184163
49.335503 -15.657082 0.1586815
49.603992 -15.718102 0.18635499
50.223804 -15.705361 0.240402
50.718834 -15.78848 0.207816
51.84911 -15.811942 0.248227
52.096634 -15.810104 0.21636
52.786438 -15.816931 0.32215649
74.755203 -15.825626 0.212101
74.96624 -15.706777 0.19736166
81.201729 -15.541121 0.131988
81.39299 -15.769756 0.17681237
81.822548 -15.773244 0.1427426
84.971626 -15.649661 0.26738667
85.356575 -15.736645 0.203265
85.618607 -15.860242 0.056524999
87.465073 -15.79215 0.34275299
87.992851 -15.655548 0.25619119
88.736656 -15.886827 0.1680565
95.442871 -15.644087 0.15983599
95.742371 -15.855516 0.15911201
97.962845 -15.666103 0.17344899
98.207489 -15.630772 0.175319
98.520889 -15.514048 0.126136
106.4335 -15.704462 0.046491001
108.04893 -15.892971 0.33503801
9.5679102 -15.276337 0.24898833
10.061105 -15.452794 0.269223
13.501221 -15.211517 0.29017401
24.308853 -15.242849 0.21837848
24.882351 -15.265987 0.23251399
28.052588 -15.239314 0.16516867
42.343636 -15.318279 0.125686
47.813107 -15.236058 0.15229367
48.706676 -15.273335 0.059450001
49.083405 -15.097926 0.048466001
49.565498 -15.373339 0.14081651
50.216389 -15.397201 0.23174
50.65374 -15.258245 0.23852
50.872772 -15.357073 0.34550199
51.573063 -15.151155 0.14696601
51.780441 -15.29706 0.28633499
52.184219 -15.394442 0.172912
52.577023 -15.33518 0.18159699
53.404785 -15.336244 0.336007
74.97422 -15.199507 0.21010201
75.392586 -15.434555 0.066202998
81.958694 -15.433706 0.2109285
84.215271 -15.152562 0.21748349
84.656006 -15.334682 0.168083
85.913315 -15.276547 0.323769
87.483688 -15.082999 0.063965999
87.88398 -15.265229 0.20749335
95.014465 -15.350615 0.115044
95.23349 -15.4629 0.13239799
97.474121 -15.142962 0.24393326
97.829475 -15.32852 0.25075278
98.158615 -15.377071 0.33799401
106.80173 -15.246891 0.20865449
107.10181 -15.441906 0.30195701
107.72034 -15.09415 0.31769499
9.6809387 -14.68318 0.019337
10.114079 -15.017364 0.25890899
13.54881 -14.914184 0.149232
24.437849 -14.66038 0.24828801
24.528633 -14.989305 0.15888099
24.980219 -14.695436 0.31734699
28.13772 -14.826256 0.20897335
42.475758 -14.871221 0.123946
47.90332 -14.876408 0.101404
48.17305 -14.680613 0.227512
49.285854 -14.899723 0.048576999
49.659107 -14.799208 0.075439997
50.30645 -14.828822 0.227423
50.646088 -14.954071 0.26960799
50.894791 -14.935106 0.186161
51.313179 -14.685889 0.23954
52.133053 -15.012276 0.22755
68.666855 -14.679588 0.266954
75.067055 -14.79527 0.18486601
75.512787 -14.819795 0.17368084
81.610809 -14.869763 0.052841
83.146049 -14.852343 0.32175449
83.642265 -14.741178 0.28119767
84.036972 -14.674989 0.3484875
84.609497 -14.634204 0.34009001
85.002693 -14.66842 0.34603199
85.433304 -14.788323 0.32881451
85.771233 -15.040141 0.33697799
87.11927 -14.76913 0.19678862
87.517189 -14.932503 0.28279427
94.661423 -14.954305 0.210382
96.680824 -14.850696 0.243929
97.0047 -14.729997 0.23025814
97.399368 -14.836117 0.22800313
97.732635 -14.799425 0.13132174
107.63951 -14.767657 0.337064
9.6657791 -14.338205 0.164065
10.199332 -14.415442 0.19726649
13.626334 -14.430984 0.16342133
24.513702 -14.272761 0.204634
25.056435 -14.276707 0.33312801
28.219841 -14.443078 0.17025866
48.022686 -14.460874 0.13584167
48.994358 -14.468946 0.022438001
49.642303 -14.442775 0.043378003
50.164249 -14.388132 0.15927151
50.639759 -14.567521 0.224334
50.898544 -14.566105 0.170958
51.86615 -14.436264 0.167853
52.758724 -14.51405 0.413762
53.583725 -14.439474 0.18357649
68.733139 -14.550118 0.24166401
68.884644 -14.536122 0.133239
73.813293 -14.254792 0.23043565
74.17112 -14.346929 0.19102061
74.597527 -14.485477 0.16126333
74.995827 -14.384783 0.1869165
75.372627 -14.363938 0.26405299
82.551895 -14.312804 0.30201101
82.69532 -14.343498 0.22297557
83.238716 -14.438497 0.24648066
83.554214 -14.340494 0.2201605
83.944756 -14.273333 0.247091
85.230148 -14.283932 0.22994849
86.251259 -14.247188 0.19813633
86.638748 -14.448117 0.19323862
93.942291 -14.41024 0.28691399
94.271439 -14.555576 0.25422299
96.255974 -14.37396 0.19133516
96.577072 -14.480067 0.23817921
96.995117 -14.510221 0.21136439
97.23349 -14.305496 0.136076
9.7897949 -13.996585 0.13641751
10.296238 -13.861428 0.232706
13.732827 -13.821463 0.108052
24.600004 -13.817217 0.151171
25.123442 -13.917291 0.31849301
28.303774 -14.109447 0.27207899
42.753384 -14.040663 0.20358101
48.040855 -14.051311 0.076631002
49.692558 -13.818748 0.123954
50.005131 -14.00042 0.19874734
50.543716 -13.980804 0.1491915
51.450508 -13.817738 0.102304
53.54406 -13.772526 0.30806401
68.835251 -14.159648 0.30575299
72.521019 -13.915919 0.21809539
72.910255 -13.959551 0.22772598
73.288185 -14.102758 0.1347646
73.656715 -14.171318 0.054062001
74.182877 -13.898777 0.27769148
74.619209 -14.0302 0.22173861
75.025551 -14.02746 0.27403998
82.797722 -14.071361 0.19637175
83.283821 -14.018497 0.21626101
84.019844 -13.911224 0.16509399
85.518646 -13.812366 0.14664476
85.793274 -13.971989 0.14906533
86.136414 -14.154985 0.32983199
93.556847 -13.908395 0.28519765
93.742195 -14.127582 0.13430101
95.441055 -13.864118 0.052581999
95.704285 -13.943521 0.25807202
96.165733 -13.964499 0.1606801
96.570877 -14.092945 0.33151501
96.974014 -14.028357 0.065056503
97.261871 -14.108212 0.069908999
9.8539658 -13.341846 0.259895
10.373109 -13.403152 0.218567
13.711037 -13.66107 0.19358949
13.788337 -13.361234 0.12807301
19.022053 -13.485507 0.21832401
19.586178 -13.593385 0.23905949
19.994745 -13.529705 0.1915915
20.370821 -13.582652 0.18225533
20.878313 -13.598205 0.15553834
21.34601 -13.621695 0.18498901
21.65452 -13.481688 0.25321251
24.623571 -13.400611 0.184241
28.356575 -13.723122 0.311508
28.398323 -13.603853 0.29899549
42.938759 -13.53292 0.18002701
48.375496 -13.564291 0.16687399
49.830078 -13.721881 0.097074002
50.534153 -13.454951 0.083230004
50.97274 -13.553409 0.092794001
53.843193 -13.502623 0.211619
55.513256 -13.366715 0.140425
68.743889 -13.539672 0.36487001
68.947151 -13.500543 0.37693501
71.202553 -13.389218 0.19979641
71.610008 -13.508066 0.2210066
72.121407 -13.596481 0.21367812
72.522003 -13.528923 0.19850166
72.719612 -13.659236 0.033932999
74.617401 -13.733388 0.35165951
82.95002 -13.496821 0.11161301
83.128273 -13.438325 0.32631952
84.843353 -13.479826 0.22603275
85.222572 -13.691539 0.177212
92.116692 -13.356295 0.237883
92.543991 -13.3312 0.26099801
92.943184 -13.62898 0.186184
93.396027 -13.445554 0.137825
94.923073 -13.481186 0.19484282
95.268539 -13.634196 0.25651971
95.698875 -13.6353 0.095916502
96.051666 -13.737215 0.094535999
9.9338017 -12.973598 0.181071
10.436078 -13.030514 0.217006
16.762947 -13.076987 0.40224901
17.034725 -12.905778 0.17372601
17.412544 -13.189764 0.22386199
17.874609 -13.199057 0.214991
18.130508 -13.215292 0.24951699
18.673639 -13.251948 0.241156
19.186331 -13.172718 0.213946
19.522474 -12.945234 0.03052
19.942465 -12.968111 0.064267002
20.34271 -13.151283 0.067645997
21.304092 -13.045436 0.104521
21.66671 -12.931487 0.215689
24.202919 -12.911142 0.080934003
24.773758 -13.040616 0.1978838
25.346287 -13.107691 0.22300899
28.312298 -13.128883 0.297153
28.507744 -13.122467 0.20245901
43.076935 -13.155338 0.1533905
48.243103 -13.318821 0.124302
50.108326 -13.281475 0.0089140004
50.453888 -12.999865 0.094445504
50.982101 -13.056579 0.19823
51.338737 -12.994877 0.370673
52.281593 -13.241192 0.28395098
52.621422 -12.914881 0.118616
53.567261 -13.175001 0.1676695
54.085129 -13.294698 0.33149001
56.312386 -13.165731 0.190295
69.087921 -12.964303 0.179197
69.438484 -13.208243 0.330203
69.924469 -12.959768 0.21453644
70.277603 -13.113855 0.24973026
70.737549 -13.232559 0.17123199
71.771637 -13.264895 0.014454
71.976479 -13.168027 0.19000459
72.258568 -13.301607 0.011248
81.943657 -13.161821 0.131881
82.343872 -13.085017 0.1029405
83.236473 -13.173361 0.1869376
83.503143 -13.017093 0.086214997
84.050766 -13.00644 0.20076601
84.471123 -13.219654 0.19749801
91.527962 -12.979514 0.40547699
91.770157 -13.227161 0.30239099
92.288345 -13.033535 0.1574595
92.634598 -13.11086 0.18431601
92.9636 -13.134209 0.17699599
93.393509 -13.033892 0.085222997
93.835693 -12.95479 0.086887002
94.351471 -12.987355 0.17412265
94.793037 -13.074473 0.1902267
95.423759 -13.223818 0.077949002
9.9878235 -12.529587 0.21204834
10.508367 -12.579217 0.187948
13.922337 -12.667835 0.12541001
17.064838 -12.578885 0.192155
19.281345 -12.722867 0.022901
20.179047 -12.496828 0.057367001
20.574396 -12.563776 0.064493001
21.670286 -12.724993 0.14895
23.054502 -12.521132 0.150912
23.412878 -12.693508 0.114126
23.683266 -12.718323 0.19742751
24.080399 -12.692307 0.19029801
24.592093 -12.723868 0.32529399
25.132483 -12.731519 0.31483164
28.557652 -12.71152 0.34479398
43.253933 -12.695209 0.094773002
48.403988 -12.632358 0.074821003
48.612198 -12.581507 0.130294
50.44109 -12.64846 0.18961732
50.914337 -12.740042 0.1777
51.401279 -12.659804 0.313173
51.736298 -12.540745 0.18817
52.762299 -12.493749 0.101291
53.544624 -12.581233 0.14358149
54.592186 -12.698281 0.116496
68.214066 -12.725695 0.238822
68.726578 -12.881337 0.32037899
69.029671 -12.813622 0.25573552
69.487305 -12.72122 0.24194638
69.814339 -12.504762 0.22197901
83.240059 -12.580342 0.15890017
83.605118 -12.775384 0.21193814
91.080238 -12.581154 0.32217199
91.364784 -12.647092 0.34766468
91.762329 -12.75282 0.25709224
92.196106 -12.520036 0.1204
92.492989 -12.733875 0.130575
92.963928 -12.659376 0.089541003
93.444275 -12.581738 0.206617
94.029358 -12.600586 0.21772549
94.322929 -12.729224 0.1883629
94.750015 -12.70669 0.24493301
95.27951 -12.532401 0.195159
9.9804087 -12.17859 0.16032049
10.56897 -12.208904 0.20213699
13.99947 -12.129782 0.105831
17.145332 -12.160111 0.14956
17.376877 -12.175136 0.104796
17.76767 -12.161363 0.065370999
18.22521 -12.215944 0.026637999
18.715675 -12.331834 0.038419001
19.04446 -12.218286 0.030595001
19.43454 -12.217066 0.003488
19.90645 -12.30823 0.041692663
20.485083 -12.203724 0.0341065
20.821507 -12.434258 0.025857
21.183821 -12.125468 0.19821133
21.642569 -12.267294 0.25780222
22.176004 -12.382458 0.26942
22.595196 -12.412563 0.1447425
22.942455 -12.255601 0.22851899
23.911909 -12.399422 0.325982
24.116243 -12.351026 0.39092901
24.855373 -12.260917 0.247355
25.450346 -12.240732 0.340139
28.668163 -12.11916 0.26473701
43.385159 -12.293293 0.16687649
48.536335 -12.103734 0.065716997
48.64127 -12.311213 0.13028701
50.056324 -12.128979 0.031564999
50.500202 -12.236263 0.28518301
50.914673 -12.177185 0.194232
51.430645 -12.135547 0.31687099
51.749771 -12.257145 0.22969501
52.084618 -12.286169 0.134479
53.470974 -12.202128 0.12211
53.776817 -12.371735 0.19369
54.466354 -12.379484 0.089361995
55.122574 -12.187026 0.125018
67.18119 -12.210481 0.27961999
67.670059 -12.340681 0.316773
68.230942 -12.361359 0.38655251
68.980804 -12.107966 0.18924101
69.518127 -12.277699 0.1736815
69.861763 -12.137146 0.20907383
70.13559 -12.102297 0.291915
90.989281 -12.261359 0.22781524
91.246262 -12.256613 0.21411701
91.768379 -12.344069 0.26378551
92.293869 -12.086216 0.091300003
92.530014 -12.060164 0.110842
93.125931 -12.137868 0.29495847
93.512383 -12.217151 0.18814044
94.323479 -12.240533 0.28845525
95.527893 -12.281913 0.233413
96.383369 -12.193718 0.011044
10.087856 -11.811859 0.21388599
10.63178 -11.829726 0.154357
14.077781 -11.748392 0.16771699
17.173433 -11.89076 0.199045
17.315384 -11.728653 0.17433999
17.77284 -11.810997 0.193856
18.29528 -11.860314 0.011235001
19.543774 -11.916299 0.016008999
19.934345 -11.962684 0.034506001
20.593573 -11.637288 0.018991999
21.179417 -11.683702 0.04913
24.93428 -11.945762 0.32865801
25.521828 -11.885297 0.216189
28.746529 -11.856829 0.2618455
28.880974 -11.809083 0.23075265
43.587933 -11.717173 0.167614
48.446644 -11.821382 0.054189499
48.789948 -11.661885 0.1100645
50.12648 -11.968066 0.035268001
50.937511 -11.816372 0.066412002
51.440224 -11.810306 0.14914501
51.793892 -11.937638 0.234302
52.469208 -11.983595 0.036316998
53.067249 -12.034322 0.056915
53.447563 -11.735582 0.0282325
53.82766 -11.677193 0.13512
54.863693 -11.874441 0.0812985
57.841431 -11.652085 0.26244199
66.928886 -11.639453 0.28843701
67.833435 -11.63617 0.1656715
68.182907 -11.684319 0.2133735
68.703583 -11.630666 0.21617898
69.022018 -11.723058 0.26600567
69.469025 -11.780232 0.18991148
69.681358 -11.877879 0.117271
70.185051 -11.968461 0.20141099
74.005028 -11.64438 0.02324
74.512642 -11.629984 0.058127999
90.246117 -11.758312 0.27282402
90.561928 -11.862965 0.27785
91.068268 -11.789174 0.34873199
91.384666 -11.866278 0.137848
91.781082 -11.827237 0.21004499
92.202583 -11.8017 0.18536568
92.726601 -11.84553 0.21155278
93.088951 -11.827418 0.16387101
93.52095 -11.902742 0.19578999
94.154816 -11.710076 0.072547004
94.478844 -11.800465 0.2293895
96.060631 -11.754265 0.15640351
10.24682 -11.445059 0.16066849
10.688725 -11.463292 0.211576
14.121346 -11.357318 0.131731
14.89572 -11.234982 0.223162
15.446223 -11.228621 0.15009999
15.833062 -11.248557 0.259644
16.153435 -11.283645 0.203153
16.603527 -11.337149 0.169982
17.07547 -11.331038 0.26323199
17.374241 -11.332981 0.2793895
17.76862 -11.373569 0.25849533
19.196663 -11.328397 0.005351
19.546698 -11.392426 0.011765
20.152891 -11.538231 0.019408001
20.816172 -11.292525 0.30069351
21.364845 -11.301043 0.15708099
21.708656 -11.251699 0.35289699
23.5844 -11.286036 0.30146399
23.702177 -11.271786 0.211091
24.158968 -11.303875 0.182201
24.520838 -11.255175 0.170129
25.096006 -11.406988 0.2336845
25.6269 -11.495933 0.22000299
28.783432 -11.50246 0.279443
28.842102 -11.410378 0.3261205
43.687687 -11.459843 0.14506035
48.775696 -11.37551 0.087235332
50.608631 -11.497959 0.0064679999
51.461792 -11.529899 0.109066
52.49688 -11.597583 0.0098590003
53.466621 -11.556255 0.017331
53.889301 -11.480733 0.016554
54.509865 -11.430352 0.029643999
55.041454 -11.374874 0.069211997
55.687515 -11.243399 0.078321502
56.529297 -11.491502 0.12983
57.049019 -11.211318 0.16362301
57.513138 -11.507363 0.29659
57.813663 -11.549544 0.19638
66.378853 -11.228966 0.25300676
66.919632 -11.356178 0.16123819
67.327934 -11.465419 0.25194919
67.733002 -11.467984 0.17571999
68.120491 -11.409039 0.23162
68.634712 -11.466442 0.232674
69.013786 -11.272217 0.24986298
69.420296 -11.39521 0.20786099
73.005615 -11.290976 0.2251
73.432541 -11.368889 0.27621135
73.777939 -11.309716 0.36853668
74.22686 -11.408628 0.18114756
74.588425 -11.438945 0.22483099
74.929077 -11.330315 0.18566877
83.483467 -11.451547 0.026136
89.73111 -11.356068 0.19328232
90.003738 -11.457129 0.1193345
90.996552 -11.296945 0.172372
91.453789 -11.28173 0.22043501
91.730064 -11.457003 0.24134842
92.271179 -11.448532 0.17898199
92.669769 -11.574958 0.23019399
93.039276 -11.27966 0.30627
93.922318 -11.540962 0.101808
94.57132 -11.548732 0.42793101
10.326792 -10.996878 0.173933
10.757439 -11.011711 0.21225201
13.915025 -10.844869 0.26609775
14.510005 -11.029862 0.168696
14.96206 -11.048053 0.207238
15.322909 -11.112464 0.30229601
15.654821 -11.100603 0.32013053
16.073303 -11.177052 0.19712
16.48782 -11.171046 0.19642299
17.38529 -11.154211 0.225802
17.875149 -10.877687 0.103612
18.06407 -10.80516 0.35201299
18.567015 -10.868175 0.233759
19.072128 -10.833101 0.19259849
19.737623 -11.033147 0.007214
20.134567 -10.933185 0.34430599
20.630238 -11.094877 0.27624401
20.955311 -10.938383 0.17089599
21.266457 -10.905145 0.28502601
23.29772 -11.075827 0.222124
23.796177 -10.975023 0.166023
24.175835 -11.125509 0.20086899
24.802055 -11.003598 0.26333749
25.197647 -10.988941 0.26258901
25.625719 -10.882032 0.29577601
28.731371 -10.965886 0.19281434
28.942131 -10.880582 0.17225051
43.816193 -10.992167 0.080528006
48.584599 -10.77659 0.029107001
48.765907 -10.959852 0.067911997
51.422447 -10.973921 0.011276
53.261616 -10.853165 0.189454
53.932533 -11.046881 0.0091209998
54.28923 -10.798664 0.027356001
55.778561 -10.950134 0.103255
56.559563 -11.061373 0.105969
56.810295 -11.090913 0.085288003
57.32151 -10.923568 0.117404
57.801758 -10.862199 0.164754
58.234291 -11.084615 0.158411
65.271835 -10.854301 0.1975925
65.630997 -10.928767 0.23147157
66.015587 -11.111182 0.26463601
68.340263 -10.987773 0.14536934
68.625 -11.090107 0.24175031
68.967789 -11.144063 0.2575095
72.213295 -10.835805 0.2992155
72.53817 -10.887871 0.19579449
72.907173 -10.888336 0.14436601
73.279182 -11.09493 0.19482049
73.744522 -11.032131 0.32929599
74.148773 -10.969896 0.334656
74.623703 -11.006459 0.20940182
75.03495 -10.980306 0.17825074
75.279785 -10.992332 0.056274999
88.73925 -10.967969 0.16290599
89.18322 -10.949737 0.17830075
89.676338 -11.09506 0.20833951
90.558777 -10.889525 0.27270001
91.017418 -11.01231 0.21018541
91.355919 -10.98785 0.16664401
91.720894 -11.138506 0.19097701
93.201126 -10.983117 0.17735359
93.322983 -10.863988 0.35211599
96.09523 -10.754417 0.001301
104.39049 -10.912317 0.1674635
104.72817 -10.907904 0.202646
10.406145 -10.59448 0.228506
10.815272 -10.638711 0.13774399
14.172462 -10.691772 0.201547
14.576221 -10.674066 0.22927
17.719156 -10.623416 0.28285801
18.272701 -10.713664 0.34521401
18.639492 -10.671234 0.24704149
19.26685 -10.602972 0.174219
19.96221 -10.573238 0.019912001
20.219915 -10.55544 0.27402201
20.707287 -10.493299 0.31049851
21.267374 -10.495562 0.26467583
21.814198 -10.505511 0.33733383
21.989117 -10.433522 0.1655845
23.006508 -10.509865 0.28544
23.3873 -10.408922 0.21129501
23.710562 -10.492941 0.260667
24.197758 -10.44013 0.23908901
24.786247 -10.449111 0.23497002
25.279959 -10.538549 0.26257059
25.749804 -10.455688 0.20078425
25.858288 -10.416583 0.19854499
29.042698 -10.462346 0.210548
44.000629 -10.577438 0.1232915
48.851929 -10.494526 0.060217001
50.276554 -10.711747 0.18994799
55.362972 -10.718062 0.063963003
56.518478 -10.481835 0.107278
57.349525 -10.642149 0.1155855
57.803596 -10.561402 0.124764
58.249317 -10.592014 0.129302
63.929474 -10.375758 0.259
64.228905 -10.455588 0.17516583
64.730469 -10.598003 0.2197355
65.16861 -10.715458 0.25116798
70.691681 -10.409384 0.032613501
71.197739 -10.447571 0.16379851
71.668037 -10.384911 0.41937301
72.024841 -10.536231 0.114529
72.443359 -10.609369 0.19186375
72.848015 -10.538322 0.24425232
73.137115 -10.403554 0.26297501
73.935852 -10.64138 0.372857
74.103523 -10.520431 0.34578267
74.577614 -10.494895 0.20393033
75.057045 -10.584405 0.1435515
75.309135 -10.619455 0.087725997
88.025688 -10.347327 0.31436098
88.42881 -10.462474 0.22626449
88.754372 -10.596719 0.189218
89.4058 -10.635427 0.22385
89.827759 -10.333193 0.31686899
90.118492 -10.552745 0.229581
90.534943 -10.651641 0.19098401
90.911423 -10.668866 0.156299
92.769913 -10.719559 0.207991
93.068466 -10.626418 0.26298499
93.592682 -10.543177 0.0971535
95.435814 -10.448707 0.120147
95.610596 -10.491488 0.29642498
10.418521 -10.222422 0.27035701
10.870278 -10.235848 0.15832999
13.821482 -10.179577 0.38900399
14.325608 -10.152583 0.100019
16.157671 -9.8961382 0.416363
17.867315 -10.035255 0.25321701
18.35957 -10.052324 0.22523116
18.720129 -10.149982 0.23630135
19.380733 -10.078592 0.1362485
20.218525 -10.281725 0.27708599
20.813663 -10.21746 0.2483844
21.730871 -10.265439 0.1934936
22.775188 -10.200914 0.32039201
23.069668 -10.051737 0.20513558
23.422716 -10.093626 0.24510939
23.842949 -10.030176 0.140137
24.751591 -10.049434 0.313936
25.251747 -10.114832 0.27228999
25.934328 -10.204359 0.165849
29.087957 -10.180187 0.2237255
44.17807 -10.165161 0.1059755
44.401093 -9.9043083 0.104396
48.560604 -10.034773 0.23715299
48.656502 -10.136194 0.152384
54.563892 -10.302005 0.0060640001
56.307785 -10.200027 0.079847999
56.62973 -10.270071 0.097778
57.017094 -10.215725 0.103604
57.833431 -10.24487 0.109116
58.305573 -10.142017 0.19263601
61.853233 -9.9732056 0.25881749
62.252304 -9.9846926 0.1807255
62.574108 -10.051649 0.2033278
63.052776 -10.189589 0.25630999
63.381935 -10.250784 0.16683476
63.721066 -10.306661 0.106483
70.254631 -10.091223 0.13997
71.086792 -10.126302 0.21741702
71.691078 -10.176022 0.170195
71.8871 -9.9539423 0.2808305
72.489891 -10.127487 0.29383349
72.876862 -10.067735 0.27425474
73.227371 -10.057276 0.279879
73.876564 -10.1227 0.34787601
74.217392 -10.14136 0.3256976
74.593903 -10.051276 0.23097999
75.063835 -10.140015 0.14220382
87.932854 -10.059845 0.29823866
88.334534 -10.285699 0.20454451
89.258652 -10.004061 0.19018501
89.641838 -10.123821 0.18226431
90.159439 -10.187022 0.28368449
90.590546 -10.318847 0.28738299
93.159096 -10.23581 0.198644
93.602112 -10.287031 0.2829445
93.931389 -10.117353 0.25248581
95.363281 -10.118931 0.18247901
95.693047 -10.086703 0.196015
97.172646 -10.240171 0.266754
97.3274 -10.039364 0.17705101
10.302981 -9.8840017 0.213543
10.53008 -9.7597151 0.22581901
10.930753 -9.7820234 0.221605
13.921948 -9.6203499 0.172849
14.336294 -9.7860565 0.25144649
16.939718 -9.7084665 0.108665
17.347429 -9.8065958 0.0056039998
18.181261 -9.8556566 0.24182101
18.640402 -9.6598206 0.22924301
19.447422 -9.8589926 0.220852
20.390577 -9.6294289 0.20815052
21.008076 -9.6410275 0.20777249
23.326931 -9.8502111 0.427077
23.906633 -9.6793833 0.25812164
24.250418 -9.6416349 0.26895049
24.567558 -9.8787708 0.15493499
25.97364 -9.733345 0.278642
29.198162 -9.6399422 0.29541999
44.411854 -9.6490889 0.12614167
48.789543 -9.6584749 0.19119844
49.952782 -9.5584555 0.146356
51.004379 -9.706234 0.234203
51.422009 -9.5568447 0.156159
51.823143 -9.6570148 0.109515
52.09391 -9.6986618 0.26018
52.641312 -9.6640844 0.25917801
53.182877 -9.628397 0.28176501
53.399296 -9.7529163 0.25708699
54.129566 -9.6994152 0.16748901
54.814342 -9.7551174 0.2619065
55.608704 -9.7505646 0.233447
56.983658 -9.5984879 0.28700501
57.443909 -9.7502499 0.113596
57.81369 -9.595933 0.22996433
58.476639 -9.8020124 0.344978
60.032669 -9.6310682 0.22239067
60.503822 -9.5517788 0.2828792
60.925507 -9.6362495 0.29592568
61.306488 -9.7438288 0.18682216
61.748993 -9.8383493 0.18813999
62.079929 -9.8824682 0.17568401
69.23188 -9.6264849 0.26754001
69.778008 -9.6896906 0.079639003
71.206352 -9.6454811 0.147654
71.996147 -9.5649948 0.29505199
72.600342 -9.6056805 0.3298445
72.725479 -9.7702808 0.36052701
73.425034 -9.5671616 0.25361988
73.79763 -9.6014643 0.22363335
74.138878 -9.7611961 0.23777875
86.788216 -9.5683517 0.27247897
87.090065 -9.6018782 0.24167632
87.385948 -9.6660795 0.32554901
88.453224 -9.5605354 0.21395068
88.769234 -9.611371 0.16931467
89.208488 -9.7769575 0.21813075
94.151123 -9.858036 0.21669748
94.322289 -9.5912991 0.129628
96.107674 -9.5697718 0.020406
9.3212023 -9.3769255 0.33598101
10.293898 -9.4350023 0.064152002
10.516151 -9.3538074 0.31752402
10.994972 -9.2501659 0.1043585
14.084393 -9.167655 0.17940199
14.483753 -9.1815834 0.18270199
18.918385 -9.4171562 0.12248
18.955673 -9.1404753 0.170699
19.464212 -9.2143412 0.29260051
25.435471 -9.4523726 0.212826
26.059013 -9.2754326 0.235717
29.288599 -9.3173809 0.166805
44.421776 -9.189003 0.34252697
48.862091 -9.2669764 0.25106275
49.343983 -9.2279558 0.15136801
50.669708 -9.3429842 0.161735
50.90099 -9.2790871 0.114313
51.512783 -9.0498152 0.028031999
51.938423 -9.2762127 0.26290849
52.154312 -9.3109465 0.18961699
52.709198 -9.204216 0.19794999
53.012981 -9.1794691 0.29588076
53.490559 -9.1976986 0.25218901
53.936726 -9.20996 0.27840135
54.310974 -9.2683449 0.2404585
54.825485 -9.1374445 0.25351033
55.276222 -9.1754236 0.2483896
55.762218 -9.2065229 0.21370299
56.152458 -9.1710815 0.273458
56.593502 -9.2744169 0.22335452
56.960464 -9.1947699 0.19560149
57.375507 -9.2487803 0.20013471
57.832443 -9.2085228 0.26057166
58.167271 -9.3534222 0.20537001
58.612831 -9.1670427 0.17024401
59.181931 -9.2279625 0.23838733
59.659775 -9.3146944 0.2172745
59.821114 -9.3462906 0.14391699
61.320869 -9.3681726 0.026904
67.750336 -9.1095238 0.163091
68.195724 -9.0514526 0.00072399998
71.36985 -9.2324247 0.23347402
71.597672 -9.1442499 0.21179466
72.026947 -9.1335735 0.24355879
72.379578 -9.2415791 0.23287311
72.893211 -9.3093634 0.13043967
73.144608 -9.4105225 0.26815349
73.692879 -9.3831587 0.32574001
85.985779 -9.0441837 0.209429
86.290443 -9.1989546 0.1701445
86.636642 -9.2453785 0.22560902
87.593903 -9.0745068 0.1207275
88.038193 -9.2276134 0.2173872
88.331665 -9.2201862 0.32721251
88.663597 -9.355093 0.129198
94.543304 -9.2757568 0.21376733
94.70517 -9.064024 0.19500899
96.313477 -9.1117992 0.18716501
96.426704 -9.1619473 0.26918599
98.004044 -9.3915119 0.294833
98.210754 -9.154274 0.162361
8.8794107 -8.737195 0.034747001
10.503232 -8.9206533 0.30125001
11.070056 -8.6763849 0.094623998
14.044021 -8.8397522 0.129787
14.564295 -8.6002417 0.132714
16.861843 -8.6650877 0.38128999
25.57308 -8.7746382 0.24253666
26.137314 -8.6050701 0.22198699
29.389423 -8.8262177 0.168951
44.555935 -8.8661871 0.23118867
44.891861 -8.8658323 0.19857633
45.595074 -8.6085186 0.253802
48.820057 -8.7914124 0.25242919
49.24102 -8.7891579 0.22937749
49.658783 -8.7025394 0.17883773
50.12178 -8.7472134 0.24570775
50.491463 -8.759161 0.1278002
51.021404 -8.7696848 0.19742633
51.395916 -8.8093271 0.24786276
51.753944 -8.825922 0.17102641
52.2901 -8.7650843 0.25593001
52.68161 -8.856946 0.16281886
53.056995 -8.803215 0.14477625
53.493328 -8.8572903 0.23276116
53.944664 -8.833931 0.16634481
54.411278 -8.8828154 0.17130542
54.824043 -8.9525061 0.3301948
55.220474 -8.903101 0.13893025
55.67997 -8.8655043 0.18905959
56.08194 -8.9201241 0.17245932
56.501995 -8.8933191 0.093465328
56.940125 -8.9316015 0.113938
57.376179 -8.9545088 0.07740166
57.774372 -8.9226856 0.086613998
58.231239 -8.9669294 0.12820549
58.682522 -8.9747934 0.2755895
58.934254 -8.9707909 0.106395
59.53587 -8.9079113 0.2162925
63.127506 -8.6174383 0.299871
63.378288 -8.7814617 0.29249352
64.173683 -8.656538 0.087546498
64.837067 -8.6919727 0.049350001
67.437714 -8.8794155 0.25806499
67.720047 -8.8078804 0.17284301
68.043358 -8.7567062 0.1621684
71.220261 -8.858058 0.15353182
71.581329 -8.9580536 0.19235826
71.942993 -8.9909401 0.1105935
85.418793 -8.7160988 0.142728
85.791977 -8.8823137 0.19796912
86.23288 -8.8435125 0.18842798
87.140297 -8.7636375 0.24124825
87.475479 -8.8109837 0.240695
88.121338 -8.7318144 0.36165601
88.163559 -8.9557467 0.31628799
94.918625 -8.7650681 0.120331
96.272881 -8.9914885 0.298614
98.608681 -8.6528568 0.17829899
8.8654337 -8.5380955 0.31784099
10.603245 -8.4897575 0.239003
11.120982 -8.2672319 0.121065
14.026264 -8.4364681 0.148541
14.497893 -8.4136009 0.135887
16.680058 -8.3518238 0.23636001
16.936943 -8.3775673 0.31077367
17.531563 -8.2995377 0.322689
25.698532 -8.3740053 0.19546133
26.134296 -8.2297039 0.36276352
29.460941 -8.3710909 0.26916379
38.979885 -8.192584 0.15510899
39.325794 -8.2242403 0.34772399
39.758965 -8.2805634 0.17358859
40.287048 -8.2923717 0.20081399
40.598812 -8.3257847 0.20488849
41.131069 -8.3386841 0.15350351
41.381584 -8.3633423 0.21380274
41.8204 -8.3644028 0.28711966
42.305283 -8.3822546 0.24852167
42.80962 -8.400177 0.158224
43.04953 -8.4041939 0.18704724
44.994129 -8.3585711 0.21297121
45.451141 -8.2841082 0.23346549
45.600792 -8.4775238 0.2285105
48.405231 -8.4120855 0.24110343
48.826653 -8.4735966 0.16758449
49.276703 -8.5100269 0.1764396
50.866547 -8.5633364 0.018725
51.280479 -8.5827951 0.401149
51.695831 -8.5752344 0.045007002
62.271145 -8.2038116 0.20737
62.686623 -8.2450666 0.29256099
62.92215 -8.399827 0.012852499
63.400719 -8.4386721 0.25708279
63.811672 -8.4957275 0.17852199
64.303711 -8.3646183 0.12465099
64.780243 -8.3810883 0.065910496
67.639999 -8.3994236 0.18740244
68.008369 -8.4699984 0.14000534
84.1409 -8.2081537 0.26180151
84.446884 -8.285243 0.18278775
84.901627 -8.4488659 0.18462141
85.281746 -8.4279633 0.1980565
85.582855 -8.5337181 0.121751
86.350677 -8.2395649 0.165315
86.605621 -8.3341208 0.22120762
87.010864 -8.4312325 0.20830099
87.352798 -8.466177 0.26473999
87.72863 -8.5490437 0.328183
95.232239 -8.3193321 0.1444585
98.857452 -8.2898922 0.127368
3.264648 -8.03444 0.044307999
10.734676 -8.136322 0.31470701
11.148872 -7.9637413 0.2070705
11.188613 -7.7491131 0.02679
14.146003 -8.0719252 0.172442
14.477578 -7.917027 0.13272734
16.322334 -7.8063102 0.166871
16.351004 -8.0775661 0.28546101
16.958008 -8.0063248 0.2573854
17.433519 -7.8203588 0.33540949
25.602087 -8.008481 0.24975713
26.084383 -8.0204315 0.18833016
26.264572 -8.1506462 0.1727805
29.57523 -7.9731545 0.2318866
36.842361 -7.7665467 0.20820868
37.318771 -7.7695723 0.35713202
37.60413 -7.8212767 0.28763887
38.108135 -7.9427109 0.1776392
38.561279 -7.9732361 0.18378268
38.867851 -8.117384 0.27053648
39.287231 -7.9344082 0.14332999
39.774014 -7.9487643 0.18172415
40.195652 -7.9267273 0.23783402
40.422562 -7.9740849 0.31881601
42.566353 -8.0238142 0.094892003
42.699471 -8.019145 0.19210726
43.162167 -8.0503683 0.17146899
43.577877 -8.0765667 0.264321
44.21764 -8.0995665 0.15674967
44.482647 -8.0143967 0.21032302
44.889652 -8.0101871 0.19878951
45.18845 -8.1082306 0.103591
60.395222 -7.8693695 0.16595566
60.663502 -8.0926447 0.108785
61.203697 -7.9668097 0.30084002
62.290283 -7.9840722 0.235761
63.836498 -7.9571533 0.17742334
64.297829 -8.1617327 0.097971
64.681946 -7.9137359 0.061446335
65.007179 -7.9677758 0.045897502
65.893204 -7.7749338 0.23734701
83.809509 -7.8583193 0.139781
84.444023 -7.8691239 0.15678534
84.95752 -8.1474094 0.097818002
85.917809 -7.9048877 0.18076666
86.197456 -7.9628272 0.20538263
86.581352 -8.0089493 0.29648226
95.580376 -7.8160686 0.103416
99.060425 -8.0007839 0.207863
1.643986 -7.6350932 0.146718
1.75239 -7.5023561 0.25528499
3.3219607 -7.5294671 0.14008234
10.555598 -7.5314455 0.14083999
10.755495 -7.5745826 0.37247899
11.214302 -7.5668521 0.056587502
14.48842 -7.5412841 0.14265126
14.781845 -7.5154319 0.1147956
16.313643 -7.5920434 0.35317335
16.578114 -7.5623384 0.24615124
16.906506 -7.5953898 0.19034
24.607136 -7.3189511 0.119893
25.177729 -7.6232672 0.22821149
25.588011 -7.634851 0.2303154
25.941101 -7.6149359 0.25331861
29.625229 -7.5869074 0.25513098
29.672535 -7.3927512 0.387126
33.934479 -7.327044 0.32402
34.182125 -7.3384104 0.12976
34.631317 -7.3844976 0.18826298
35.009121 -7.4636693 0.20175682
35.489403 -7.5608196 0.1624395
35.923065 -7.5811701 0.16756961
36.296963 -7.658062 0.22282843
36.829945 -7.702332 0.095944002
37.127495 -7.7242746 0.1982885
60.070091 -7.322248 0.164656
60.393215 -7.4884782 0.20485967
60.954765 -7.405395 0.096153997
61.394012 -7.56178 0.160193
61.74839 -7.5354419 0.150592
62.297562 -7.647512 0.21233
63.047836 -7.5024018 0.23817301
63.385292 -7.5441008 0.207302
63.871933 -7.4574838 0.15647198
64.264374 -7.586164 0.126782
64.74556 -7.5647821 0.043212999
82.329666 -7.3900318 0.129637
82.949829 -7.3913941 0.14009599
83.288269 -7.5537181 0.2070635
83.660835 -7.5852776 0.050463002
84.015228 -7.62042 0.404127
85.420464 -7.4661789 0.19377166
85.809891 -7.5309138 0.15069585
86.096184 -7.6131878 0.23752332
95.761597 -7.525414 0.15840501
99.368706 -7.637568 0.065704003
1.754557 -7.0291123 0.23087601
2.1910706 -7.0319886 0.18157633
3.3461101 -7.0600228 0.28538001
10.759533 -6.9183359 0.142858
11.283814 -7.0819149 0.097891003
14.875641 -7.2087836 0.17967899
15.372749 -7.0157619 0.27725798
15.562915 -7.0121093 0.25863734
18.719746 -6.924016 0.36623001
19.202845 -7.1235533 0.31551439
19.64377 -7.0559897 0.30450174
21.280954 -7.1388931 0.215042
21.736483 -6.898345 0.067198001
22.200333 -6.9165492 0.124693
22.511154 -6.9339929 0.100215
23.076477 -6.9105072 0.120955
23.446697 -6.941216 0.099035002
23.836533 -6.9287982 0.29610899
24.2598 -6.9388056 0.1988664
24.764816 -6.9731164 0.14910801
25.152431 -7.0668015 0.18997149
25.451853 -7.0514197 0.21623367
29.845089 -7.0973134 0.21922749
30.473974 -6.9058867 0.207316
30.860218 -6.9054928 0.117932
31.211481 -6.9432688 0.297755
31.667038 -6.9971175 0.19286449
32.039436 -7.0483232 0.16934259
32.489014 -7.1005664 0.24274249
32.934055 -7.1838226 0.18724675
33.353207 -7.2266207 0.20447426
33.658474 -7.2592063 0.12979934
34.085266 -7.2674441 0.33066601
55.324867 -6.9176502 0.024746001
55.726181 -6.9771791 0.1196815
56.125065 -6.9795475 0.27246884
56.558704 -7.0218039 0.22162031
56.949219 -7.0510569 0.27640182
57.39135 -7.1096244 0.19380699
57.824474 -7.1528597 0.16127001
58.161156 -7.209487 0.0182775
60.108456 -7.136826 0.19183999
60.410694 -7.1627707 0.16341467
61.716011 -7.291985 0.113244
62.307537 -7.2579331 0.132245
62.430897 -7.1229568 0.18467601
63.051201 -6.9911299 0.097647004
63.508141 -7.095953 0.242651
63.861504 -7.0279937 0.17787756
64.269485 -7.1145592 0.094292201
66.460373 -7.1100988 0.190218
80.713448 -6.930995 0.168945
81.417763 -7.1025848 0.18990368
81.906013 -6.9559445 0.18091933
82.327774 -7.2745886 0.35340101
82.821556 -7.0568457 0.19076325
83.206253 -7.0632052 0.23377863
83.570435 -6.987021 0.34507132
84.522484 -6.9219141 0.094469003
84.925156 -7.0367675 0.21611688
85.429718 -7.1904416 0.23238525
85.839996 -7.1988468 0.23755701
95.993042 -7.2031121 0.27885902
-24.762115 -6.5370092 0.19901499
-24.267769 -6.5334229 0.26874599
-23.826221 -6.5781808 0.156128
-23.371548 -6.4731951 0.120747
-22.894444 -6.4713311 0.037749
-22.286848 -6.4719238 0.064682998
-21.485619 -6.45188 0.19157401
-19.004953 -6.5324001 0.28427401
-18.678772 -6.4621849 0.272892
1.815039 -6.674334 0.346104
3.371819 -6.6347828 0.25420499
10.877934 -6.7032714 0.17614333
11.353879 -6.648644 0.068489999
15.042682 -6.5172338 0.26225001
15.298729 -6.6419115 0.32583201
15.650394 -6.669065 0.17875899
16.237597 -6.6677871 0.088183001
16.714676 -6.5488472 0.15799651
16.988766 -6.5438099 0.082276501
17.555151 -6.5537491 0.1653315
17.745817 -6.5905709 0.12850134
18.22543 -6.5767546 0.19669861
18.606174 -6.7358322 0.102078
19.150888 -6.7328386 0.21768486
19.507887 -6.6733117 0.121011
20.007179 -6.7162571 0.19216299
20.397221 -6.7464776 0.20299676
20.90299 -6.7252131 0.140818
21.302044 -6.7548399 0.1215305
21.767256 -6.7587485 0.205957
22.143787 -6.7751379 0.23725376
22.586428 -6.7845297 0.16231512
22.94598 -6.8055434 0.189448
23.395664 -6.8148956 0.1781693
23.744627 -6.8417802 0.127547
29.448296 -6.7595611 0.19908933
29.87623 -6.7555771 0.2474125
30.206863 -6.7946525 0.26287001
30.670885 -6.8159108 0.21668465
52.134422 -6.453321 0.042844001
52.634087 -6.4607382 0.097735494
55.273956 -6.8199649 0.018214
55.607533 -6.6237488 0.069752328
56.133236 -6.5648131 0.28387299
56.602139 -6.653656 0.22238426
57.037575 -6.6697564 0.21560821
57.247414 -6.576952 0.30591699
57.646477 -6.6348152 0.31218699
60.529785 -6.8024521 0.075500503
60.723698 -6.5119014 0.22323701
61.804256 -6.4858031 0.189969
62.134647 -6.5670381 0.20092864
62.544701 -6.6522756 0.24293645
63.030895 -6.7276263 0.20918266
63.437958 -6.7134299 0.175485
63.771515 -6.7619567 0.088217668
79.778519 -6.529305 0.20857301
80.26992 -6.5850582 0.140103
80.586128 -6.8080063 0.189584
81.038399 -6.6834049 0.1104
81.317459 -6.66887 0.0053519998
82.009109 -6.5673537 0.31530401
82.983429 -6.6432762 0.3274495
83.219772 -6.5899363 0.17283574
83.602997 -6.6851506 0.1796639
83.987648 -6.7026315 0.21416488
84.41246 -6.7331328 0.34064174
84.95105 -6.7442875 0.27710849
85.353951 -6.7274351 0.318223
96.306 -6.7924309 0.112506
96.516479 -6.5164561 0.083926998
-22.823528 -6.385303 0.040497001
-22.556009 -6.437366 0.1019645
-22.229115 -6.3737669 0.191717
-21.69137 -6.3921103 0.29140797
-21.099537 -6.4378662 0.119554
-20.797602 -6.3787007 0.108452
-20.229425 -6.4247441 0.057252999
-19.972673 -6.3670278 0.11025634
-19.630749 -6.3130283 0.22143799
-19.167665 -6.3602109 0.17784451
-18.580959 -6.2947712 0.077945001
-18.125154 -6.2530532 0.106465
-17.797054 -6.2602282 0.273018
-17.401821 -6.2931161 0.195122
-17.031666 -6.223361 0.19753
-16.654114 -6.2289939 0.28996599
-16.169384 -6.1703448 0.16972101
-15.858107 -6.1721711 0.27804399
-15.35394 -6.1510072 0.22520733
-14.803356 -6.1464052 0.168164
-14.143061 -6.1086001 0.34667599
-13.610647 -6.1132803 0.208747
-13.130057 -6.2504897 0.15341534
-12.57619 -6.3803782 0.18534468
-12.257015 -6.3700504 0.1785605
-11.885449 -6.3759375 0.23434001
-11.492931 -6.3316879 0.36016199
-9.0570383 -6.125277 0.19870099
-8.2011757 -6.0269618 0.153924
-4.3630862 -6.070715 0.38281301
-3.9304111 -6.088366 0.32177201
-0.448017 -6.125999 0.000741
2.0088995 -6.0476885 0.20525199
2.5527699 -6.062161 0.277652
3.228683 -6.1144962 0.1669825
4.6654959 -6.0565729 0.148147
4.927104 -6.1351972 0.14161099
5.2841721 -6.1223879 0.23512299
5.850668 -6.1159582 0.14853001
6.2405291 -6.1762099 0.21533699
6.6348529 -6.2071061 0.063254997
7.0306458 -6.1884718 0.073036999
7.505568 -6.3051109 0.16643199
7.8369846 -6.1099691 0.124856
8.252224 -6.1147914 0.20068933
8.819418 -6.1479568 0.17271285
9.3087978 -6.1949754 0.2562072
9.6037226 -6.1841226 0.22781181
10.132807 -6.1387029 0.15286374
10.620077 -6.2821336 0.25460723
10.986093 -6.1577153 0.16478828
11.360287 -6.2111626 0.15234126
14.716308 -6.1572928 0.239777
15.253263 -6.199162 0.22189145
15.618881 -6.1842461 0.14738125
51.110989 -6.2560883 0.085924335
51.397438 -6.2650685 0.180794
51.811012 -6.1917372 0.21873739
52.167812 -6.1537552 0.20957775
52.661442 -6.0533438 0.086130001
54.9035 -6.3982754 0.024873
55.467758 -6.1839118 0.194001
55.694721 -6.2508006 0.16147199
56.138615 -6.1637225 0.26768401
56.583557 -6.1562867 0.25198743
57.020386 -6.1408048 0.22542876
57.344578 -6.1863275 0.25640899
57.737183 -6.2795334 0.25789234
58.228203 -6.449162 0.026281999
60.408417 -6.2800775 0.067940503
60.854431 -6.3506026 0.15941179
61.161179 -6.3742952 0.2019905
61.568768 -6.4037294 0.1610398
78.611115 -6.0409541 0.346549
78.881165 -6.2369113 0.22233899
79.241493 -6.3023415 0.231913
79.682175 -6.1469092 0.23879801
80.233139 -6.281013 0.134434
82.545845 -6.089294 0.099922001
82.749886 -6.1505337 0.17316
83.183594 -6.3025312 0.2244052
83.751465 -6.1405969 0.34674099
84.224205 -6.3633528 0.320059
96.71048 -6.147871 0.244195
-9.7698269 -5.6415939 0.307641
-9.2151346 -5.711637 0.33543369
-8.8631744 -5.8215599 0.22127675
-8.3951969 -5.97082 0.218955
-7.8885627 -5.9293995 0.13380733
-7.443543 -5.9249358 0.15386051
-6.965178 -5.8738999 0.149922
-6.5376749 -5.8926878 0.25094199
-6.292933 -5.9047308 0.12738299
-5.8820229 -5.8752818 0.2193625
-5.4248147 -5.8614235 0.093981661
-4.8861227 -5.8556118 0.24885201
-4.5397863 -5.8212528 0.1011575
-4.1379991 -5.8214231 0.119486
-3.5960126 -5.8031869 0.2068572
-3.225276 -5.7744093 0.111338
-2.7549551 -5.7352791 0.17994
-2.4260716 -5.7630787 0.10982001
-1.9345745 -5.6912675 0.21348639
-1.5816265 -5.8438873 0.33782336
-1.0307004 -5.8836465 0.25097901
-0.61341065 -5.885756 0.23532498
-0.256989 -5.8794918 0.16277701
0.29422677 -5.8454027 0.17189476
0.644023 -5.8240094 0.22640102
1.0130601 -5.7661934 0.143143
1.3858386 -5.6285567 0.33336699
2.0041957 -5.8339314 0.20913476
2.4361877 -5.817534 0.26115552
2.8149891 -5.840898 0.22524719
3.2276022 -5.7779899 0.27299145
3.5888145 -5.7294703 0.050333001
4.1268854 -5.8566332 0.2356458
4.6136136 -5.7851272 0.19820434
4.8647356 -5.9059963 0.20077351
5.4249234 -5.8237624 0.26941553
5.7740607 -5.8458014 0.24941261
6.2428365 -5.9261069 0.15358301
6.6074996 -5.9174523 0.17308134
7.1177115 -5.9599419 0.24741262
7.5572391 -5.9751735 0.14792766
7.861371 -5.9736009 0.23335576
8.3452396 -5.9702568 0.13552649
8.8378649 -5.9784651 0.1671775
9.6504145 -5.7912273 0.1674515
10.287291 -5.7754951 0.161966
10.541588 -5.9591379 0.069813997
11.017572 -5.9640913 0.15317249
14.868101 -5.986589 0.39416999
15.173676 -5.9968991 0.35999599
15.63998 -5.9713964 0.33912152
35.103493 -5.6239738 0.079204999
35.278515 -5.643208 0.037207
35.86348 -5.6515131 0.059505001
50.523972 -5.728117 0.0094370004
51.073692 -5.8210645 0.129602
51.401226 -5.7744308 0.18553099
51.810661 -5.8313851 0.20746
52.131676 -5.7688856 0.22057176
52.546516 -5.6557851 0.1210095
55.380341 -5.8071775 0.034799501
55.644844 -5.8901725 0.17164549
56.137981 -5.8249984 0.10644757
56.566219 -5.8137674 0.19134499
56.977276 -5.8350329 0.18783872
57.396217 -5.9382329 0.155249
57.894875 -5.9673319 0.04658775
58.056248 -5.9975839 0.021570001
77.129799 -5.6543403 0.25520435
77.805252 -5.8349361 0.33438599
78.133034 -5.7313938 0.101589
78.816803 -5.7925301 0.22976299
79.567192 -5.8766861 0.199674
81.10759 -5.701849 0.37625849
81.591743 -5.6707416 0.22711524
81.951935 -5.794168 0.29731667
82.305344 -5.9334173 0.20013826
82.838676 -5.8252034 0.25783148
96.917015 -5.801784 0.244342
-9.6959953 -5.3798747 0.16510388
-9.2770996 -5.4469404 0.2372833
-6.6777625 -5.4160862 0.088509999
-6.3144999 -5.4229946 0.09127
-1.326224 -5.563385 0.27974099
1.1444665 -5.5658441 0.219249
1.5297166 -5.5700378 0.35750166
1.725309 -5.5762048 0.33572301
2.1845739 -5.5861359 0.25692701
10.047773 -5.2406588 0.20061222
10.415618 -5.2033381 0.16828418
14.571391 -5.2052255 0.25995201
32.979679 -5.2534428 0.26756501
33.30484 -5.2442985 0.18630783
33.799416 -5.3296599 0.24887498
34.14677 -5.335104 0.26003301
34.592899 -5.3777175 0.21739829
35.0187 -5.4462032 0.17983676
35.409412 -5.3241611 0.21746968
35.770477 -5.5452762 0.099683002
50.948605 -5.3532548 0.078156717
51.430103 -5.4256077 0.1784634
51.811726 -5.4026251 0.1422748
52.242054 -5.4231868 0.12448567
52.513653 -5.2933459 0.033374999
65.243103 -5.5361691 0.33332601
75.727966 -5.2427602 0.191618
76.31385 -5.3950491 0.21333751
76.634155 -5.2844572 0.26799399
77.457504 -5.4445152 0.119523
78.133865 -5.4704752 0.13952
80.388603 -5.215045 0.252763
80.602127 -5.2344899 0.191412
81.082672 -5.3338981 0.20827515
81.368164 -5.4561701 0.32560003
81.760223 -5.4152369 0.32654199
82.162079 -5.5552802 0.34974799
83.172913 -5.5455608 0.391532
97.166916 -5.5191798 0.25745901
97.402985 -5.5127578 0.26633835
10.444126 -5.1375899 0.32718301
17.870441 -4.818656 0.32215399
18.347103 -4.7749462 0.2856015
18.762945 -4.8517103 0.18017015
19.164461 -4.8443546 0.141965
32.937885 -4.9754176 0.1904355
33.282589 -4.8996005 0.16487551
