# .PCD v0.7 - Point Cloud Data file format
VERSION 0.7
FIELDS x y z
SIZE 4 4 4
TYPE F F F
COUNT 1 1 1
WIDTH 1465
HEIGHT 1
VIEWPOINT 0 0 0 1 0 0 0
POINTS 1465
DATA ascii
-21.086645 -254.91 -7.3409209
-29.501844 -254.85657 -7.4538698
-29.125986 -254.87579 -7.4353552
-28.541916 -254.91817 -7.452487
-27.730436 -254.84624 -7.440804
-27.089336 -254.8795 -7.549387
-25.673447 -254.84763 -7.5617371
-26.975224 -254.85643 -7.6410451
-33.016464 -254.8918 -8.030097
-33.012436 -254.96104 -8.3504124
-32.990311 -254.94196 -8.2989063
-32.942387 -254.89987 -8.7339039
-32.960247 -254.94562 -8.9245834
-32.339558 -254.94431 -8.8958454
-33.354286 -254.97955 -9.4711256
-33.235275 -254.92435 -9.7681427
-21.458771 -254.95784 -11.106893
-20.480854 -254.82205 -11.140079
-24.476707 -254.96092 -13.295162
-28.61739 -254.76254 -6.9781022
-24.191742 -254.65077 -6.9332032
-34.584248 -254.62842 -7.0316372
-33.222557 -254.75739 -7.1657772
-32.935322 -254.60078 -7.1407461
-31.317646 -254.65627 -7.0304799
-29.289516 -254.76482 -7.0529552
-28.174469 -254.68079 -7.0722351
-27.864986 -254.67175 -7.1589141
-26.909279 -254.77159 -7.138752
-25.822638 -254.67897 -7.0989351
-25.760651 -254.66058 -7.151391
-29.486156 -254.77977 -7.3110409
-29.307945 -254.77069 -7.2663221
-29.037233 -254.75136 -7.2672839
-28.868013 -254.6658 -7.2731438
-28.567904 -254.74332 -7.271379
-28.052063 -254.70534 -7.2918682
-27.87104 -254.66783 -7.2496848
-27.472256 -254.79413 -7.2851601
-26.843185 -254.73575 -7.2857852
-26.658594 -254.73087 -7.3597169
-25.835253 -254.66934 -7.2853599
-38.213917 -254.65131 -7.4225531
-38.161911 -254.6376 -7.432941
-28.787886 -254.71898 -7.450994
-25.501469 -254.65393 -7.5195818
-25.090254 -254.60324 -7.5646839
-25.423965 -254.72058 -7.611753
-33.899635 -254.7261 -9.1697845
-33.835846 -254.66794 -9.3960094
-32.90873 -254.7103 -9.5333099
-20.049862 -254.78793 -11.131332
-23.388758 -254.68047 -11.497463
-22.851831 -254.66888 -11.658516
-24.75211 -254.68475 -13.373326
-25.398552 -254.55948 -6.925683
-24.964493 -254.51093 -6.974999
-21.770844 -254.55362 -6.9343491
-35.832336 -254.51303 -7.1134
-33.603065 -254.54932 -7.1504698
-33.46957 -254.50076 -7.1072831
-28.926327 -254.59628 -7.069068
-38.094208 -254.57399 -7.2676759
-34.943501 -254.52563 -7.3311791
-25.574566 -254.50096 -7.5182838
-25.063602 -254.41931 -7.5443139
-24.948284 -254.46295 -7.5472779
-24.870043 -254.42914 -7.6229
-33.450851 -254.58463 -8.9453583
-33.252842 -254.58614 -9.4759045
-32.713455 -254.54616 -9.4754333
-20.835754 -254.49554 -11.426416
-21.39563 -254.52161 -12.285851
-28.761 -254.20709 -6.9963322
-27.974369 -254.33472 -6.9786038
-25.073681 -254.27803 -6.9459162
-24.839243 -254.20692 -6.921783
-39.858887 -254.28073 -7.1135001
-38.695404 -254.22392 -7.1080189
-37.145138 -254.25728 -7.1216679
-34.694664 -254.27734 -7.0759292
-34.091362 -254.25203 -7.0654941
-25.312412 -254.36978 -7.0951562
-25.008215 -254.24185 -7.1990352
-38.851318 -254.28487 -7.3422689
-35.411301 -254.20236 -7.298594
-25.387068 -254.37051 -7.2988391
-25.127361 -254.21933 -7.2764211
-24.855658 -254.30356 -7.5090818
-33.653786 -254.20296 -8.8712101
-21.736519 -254.33444 -11.104612
-22.268063 -254.22661 -11.787891
-23.017624 -254.21719 -12.091042
-24.852772 -254.36452 -13.270929
-27.231352 -254.09082 -6.9326682
-26.618713 -254.13586 -6.9276099
-24.651497 -254.06279 -6.9584761
-24.31588 -254.04401 -6.9802098
-23.485214 -254.18074 -6.9329972
-21.719427 -254.19812 -6.929616
-21.054399 -254.04536 -6.992269
-39.393997 -254.00818 -7.118999
-38.945412 -254.13779 -7.1295609
-36.931103 -254.16797 -7.1098108
-35.83744 -254.15369 -7.125926
-35.513657 -254.09619 -7.135613
-35.374054 -254.19263 -7.1117411
-33.326797 -254.14771 -7.054853
-31.427851 -254.09494 -7.0040002
-24.844269 -254.12393 -7.072607
-24.706829 -254.06419 -7.0594201
-38.734627 -254.06842 -7.3488798
-37.649761 -254.1664 -7.2739401
-37.328033 -254.0948 -7.3420782
-24.641556 -254.17987 -7.4696789
-24.22813 -254.0838 -7.525486
-20.675339 -254.0351 -7.4686532
-23.243259 -254.08295 -11.376123
-21.937866 -254.17294 -11.222573
-22.027384 -254.15225 -11.54212
-21.858002 -254.09831 -11.509308
-21.779453 -254.1255 -11.478323
-22.275467 -254.00186 -12.024018
-30.881985 -253.82495 -6.999568
-27.323652 -253.86174 -6.990272
-25.826529 -253.87735 -6.9049692
-24.080183 -253.95364 -6.9345322
-23.477932 -253.88184 -6.9036798
-21.390036 -253.84355 -6.8750701
-20.538826 -253.87036 -6.8745861
-38.569458 -253.8656 -7.1492901
-35.840878 -253.84911 -7.066896
-34.263519 -253.85619 -7.0463729
-30.997253 -253.84378 -7.0110979
-29.817778 -253.87625 -7.0244679
-24.526035 -253.95358 -7.01297
-24.101233 -253.90858 -7.0735931
-22.960838 -253.84581 -7.1084099
-21.94198 -253.88208 -7.0349288
-21.02211 -253.88379 -7.0261121
-37.046242 -253.86992 -7.3170171
-36.809814 -253.91611 -7.3234901
-36.301922 -253.87245 -7.2969131
-35.844292 -253.94797 -7.3450289
-24.44709 -253.88739 -7.3088789
-24.094975 -253.91248 -7.2977719
-23.689651 -253.93794 -7.3433971
-21.538046 -253.89005 -7.2965498
-20.931866 -253.85202 -7.3243451
-20.436676 -253.94328 -7.2476802
-24.077244 -253.83423 -7.4370871
-21.04071 -253.82294 -7.4125009
-24.342796 -253.85892 -11.524609
-24.266758 -253.87216 -11.731487
-22.599936 -253.93233 -12.112436
-31.418123 -253.72675 -6.9945679
-27.337957 -253.76401 -6.950624
-22.989868 -253.78516 -6.883368
-22.179676 -253.71036 -6.9154329
-20.106079 -253.70586 -6.9348588
-36.518749 -253.7634 -7.062191
-36.189945 -253.79332 -7.07408
-34.672478 -253.75606 -7.004859
-36.638184 -253.7841 -7.3222518
-23.289606 -253.70413 -7.2825079
-22.890305 -253.74034 -7.3647442
-20.072037 -253.66623 -7.31004
-22.572002 -253.72862 -7.4289479
-22.389799 -253.79224 -7.4774718
-22.18717 -253.66446 -7.4138508
-24.696064 -253.7421 -11.311661
-21.962936 -253.76999 -11.749619
-23.905008 -253.66605 -12.118296
-20.604137 -253.79163 -12.257463
-21.118767 -253.68491 -12.501129
-22.372578 -253.75204 -15.523638
-32.629982 -253.46017 -6.9997482
-23.759974 -253.43883 -6.8939872
-22.550785 -253.48953 -6.9141378
-22.153709 -253.55214 -6.9415369
-38.987389 -253.42804 -7.1232328
-38.458744 -253.41313 -7.1575961
-34.593872 -253.4873 -7.0103321
-34.232929 -253.40047 -7.0168481
-23.026608 -253.53072 -7.0221529
-22.443199 -253.57576 -7.147871
-38.559959 -253.47195 -7.245008
-22.889473 -253.55005 -7.2979012
-22.097948 -253.5652 -7.2991452
-21.972008 -253.58469 -7.3404441
-20.031712 -253.54857 -7.2918248
-24.721029 -253.46979 -11.466769
-24.605492 -253.54831 -11.718374
-35.802773 -253.45439 -13.864655
-23.957533 -253.24979 -6.8821001
-38.989773 -253.27429 -7.1181059
-38.548481 -253.3392 -7.1666398
-36.91256 -253.38864 -7.0837421
-36.503609 -253.2869 -7.1054091
-30.478462 -253.35175 -7.0315952
-20.121965 -253.23425 -10.997029
-24.56562 -253.23558 -11.715681
-28.533951 -253.063 -6.9845982
-28.075615 -253.06877 -6.9540458
-25.410055 -253.01167 -6.8764648
-39.81934 -253.03116 -7.095263
-38.498375 -253.09795 -7.1633229
-36.210674 -253.02245 -7.0612888
-30.214111 -253.07678 -7.0822439
-28.943995 -253.06487 -7.0100398
-38.448139 -253.15302 -7.3000841
-34.932987 -253.10873 -7.649159
-34.024391 -253.03839 -8.0978889
-25.097111 -253.03587 -10.768691
-24.917063 -253.06374 -10.913253
-24.928204 -253.02052 -11.132835
-20.15662 -253.01419 -11.436335
-34.505615 -253.08769 -12.728807
-36.073841 -253.19977 -13.901941
-22.940228 -253.0434 -14.187034
-25.535843 -252.95052 -6.8822889
-22.965742 -252.80974 -6.848875
-39.364418 -252.92651 -7.028059
-38.18914 -252.92096 -7.12255
-37.983345 -252.90996 -7.0735631
-37.421886 -252.97478 -7.067728
-35.01965 -252.98994 -7.0493941
-30.601151 -252.96101 -7.0211978
-38.361206 -252.92648 -7.290494
-35.323757 -252.82965 -7.5089612
-34.847885 -252.96638 -7.4896579
-33.296146 -252.93495 -7.7181888
-34.067955 -252.87878 -7.9520521
-33.911812 -252.99529 -7.8038821
-25.364494 -252.92885 -10.722799
-25.296871 -252.89465 -10.908236
-36.355988 -252.83533 -12.08513
-20.989714 -252.9731 -12.698773
-34.977787 -252.8571 -13.567732
-23.083551 -252.95801 -13.865801
-22.511459 -252.87903 -13.841316
-31.386892 -252.74646 -6.9828062
-27.742727 -252.66846 -6.96207
-27.266111 -252.62991 -6.9337158
-24.507418 -252.71216 -6.887917
-23.533424 -252.62053 -6.8798342
-38.710461 -252.68082 -7.086884
-38.425064 -252.73579 -7.174541
-38.258106 -252.64293 -7.1748538
-37.817085 -252.6189 -7.0745759
-37.524124 -252.64618 -7.077632
-34.964062 -252.60541 -7.0579739
-34.633774 -252.62506 -7.1794672
-33.279091 -252.63779 -7.0688472
-30.653976 -252.71422 -7.0258632
-35.253353 -252.70795 -7.3981342
-34.984192 -252.63953 -7.243319
-35.302361 -252.70627 -7.5128951
-34.676949 -252.72925 -7.8579049
-34.141205 -252.61108 -7.9266739
-33.936371 -252.60709 -7.8282828
-33.386333 -252.67288 -7.894629
-25.86561 -252.6145 -8.4762468
-25.425356 -252.75513 -10.889756
-24.799301 -252.61124 -11.837095
-20.183811 -252.7486 -11.938724
-20.131195 -252.62558 -12.12501
-24.20693 -252.63139 -12.250166
-24.524336 -252.65825 -12.483725
-23.889345 -252.67886 -12.550305
-37.084694 -252.65152 -13.86198
-20.77338 -252.57828 -6.7927608
-20.505209 -252.49303 -6.7757969
-31.069387 -252.54106 -6.9599671
-23.522301 -252.50383 -6.8506432
-22.313686 -252.47934 -6.8331771
-34.604626 -252.44965 -7.106729
-38.273151 -252.52463 -7.2195721
-34.732567 -252.55667 -7.404706
-34.291077 -252.4451 -7.5556979
-33.813416 -252.46786 -7.4947381
-33.560966 -252.45169 -7.496037
-25.921974 -252.54312 -8.1981888
-34.314236 -252.4272 -8.2089148
-33.369995 -252.4529 -8.2614965
-25.945988 -252.43649 -8.2597189
-36.513119 -252.59163 -11.091583
-34.783165 -252.42792 -11.025036
-24.890858 -252.4971 -11.758396
-36.249115 -252.55191 -12.181932
-24.549065 -252.54889 -12.083858
-20.228741 -252.57281 -12.339562
-33.938915 -252.46062 -13.629179
-22.151087 -252.48721 -15.653205
-31.366608 -252.20944 -6.982152
-29.319136 -252.24612 -6.926353
-26.236309 -252.34473 -6.8774948
-25.206963 -252.22815 -6.818398
-23.309713 -252.23117 -6.877409
-37.403309 -252.20703 -7.074132
-35.902237 -252.31445 -7.0375462
-34.568943 -252.22418 -7.1350389
-34.242825 -252.20003 -7.0613332
-33.171265 -252.35434 -7.0795569
-30.906612 -252.33514 -7.068718
-34.642754 -252.31488 -7.2395778
-33.829304 -252.21631 -7.3644242
-33.448872 -252.20331 -7.3492608
-34.111359 -252.26431 -7.4929199
-33.797234 -252.23941 -7.6902752
-26.115068 -252.23026 -7.9441161
-33.297962 -252.36482 -8.3139267
-25.33522 -252.30968 -8.9633884
-36.646622 -252.22638 -10.187128
-36.511253 -252.21448 -11.117235
-39.122589 -252.30737 -11.744682
-36.438232 -252.25337 -11.906186
-25.696527 -252.31621 -11.853608
-25.480793 -252.28352 -12.241342
-25.0993 -252.20598 -12.712999
-37.830292 -252.21033 -13.285031
-34.522194 -252.22307 -13.516089
-36.874264 -252.23015 -13.776955
-22.872349 -252.34346 -13.692202
-23.716236 -252.37746 -14.741638
-22.073219 -252.10052 -6.775033
-29.748766 -252.14996 -6.9261899
-22.533428 -252.10968 -6.837297
-20.332325 -252.08566 -6.80688
-38.259621 -252.19037 -7.0790091
-38.185684 -252.16698 -7.142067
-37.845787 -252.13303 -7.0506072
-36.254219 -252.08455 -7.0411949
-34.937073 -252.11934 -7.097156
-33.685074 -252.11011 -7.1311259
-33.502884 -252.12219 -7.108808
-33.290581 -252.0752 -7.120461
-32.916061 -252.0359 -7.0089641
-39.944008 -252.0401 -7.2111502
-38.121925 -252.17831 -7.2858748
-33.345661 -252.01611 -7.285635
-34.158596 -252.12875 -7.8258119
-33.428528 -252.17897 -7.8080502
-26.10952 -252.06693 -8.1527748
-34.239994 -252.17886 -8.3001499
-33.72905 -252.13248 -8.2573309
-33.456245 -252.18323 -8.2919979
-25.853933 -252.16249 -8.2709293
-33.301033 -252.06998 -8.4488239
-26.128738 -252.01891 -9.4740257
-35.40292 -252.14182 -10.314684
-36.298454 -252.13525 -10.526114
-35.436768 -252.05362 -10.557981
-36.543476 -252.07268 -10.65585
-36.218613 -252.05772 -10.949194
-34.870213 -252.19565 -11.085925
-35.749752 -252.09018 -11.391006
-35.152664 -252.11932 -11.203873
-34.689583 -252.18945 -11.29205
-35.036598 -252.07884 -11.449133
-24.918779 -252.07399 -11.539929
-36.219723 -252.08044 -11.688673
-25.692871 -252.12891 -12.052326
-25.55006 -252.10468 -12.341756
-25.404625 -252.07426 -12.461548
-36.87294 -252.127 -12.698339
-23.771917 -252.18799 -12.613027
-36.939896 -252.16148 -13.050265
-36.478203 -252.1268 -13.094487
-20.563324 -252.14561 -13.029771
-32.781483 -252.13553 -13.427818
-24.041409 -252.04947 -15.20142
-35.349823 -251.81664 -6.9895668
-32.668152 -251.85046 -6.9623308
-31.364674 -251.83176 -6.9699631
-25.072041 -251.8132 -6.8411222
-24.242512 -251.88942 -6.8447142
-23.318737 -251.87366 -6.8134708
-39.877068 -251.89609 -7.1124101
-38.43819 -251.97171 -7.0509348
-38.082176 -251.84201 -7.1311612
-37.986633 -251.85632 -7.1420212
-34.908115 -251.84229 -7.0322628
-38.115608 -251.80835 -7.2379332
-33.391281 -251.96405 -7.3509421
-33.643936 -251.88184 -7.9352422
-33.456696 -251.88919 -7.8224039
-25.959827 -251.90582 -7.843133
-34.144142 -251.97147 -8.196167
-33.932129 -251.8967 -8.2676172
-33.163971 -251.84406 -8.299921
-25.710718 -251.85742 -8.2272205
-26.55258 -251.836 -8.7503624
-26.054586 -251.80238 -9.1674328
-26.124411 -251.85236 -9.2527885
-26.161053 -251.88553 -9.41889
-35.674339 -251.85202 -10.201468
-35.318897 -251.80063 -10.244767
-35.070889 -251.85397 -10.222748
-36.275959 -251.8555 -10.65714
-35.35112 -251.84009 -10.695194
-36.555824 -251.82729 -11.034025
-34.937496 -251.80563 -11.080969
-39.53376 -251.97958 -11.526953
-36.958 -251.83917 -11.521602
-36.304043 -251.85991 -11.668192
-35.878387 -251.81796 -11.694788
-20.175877 -251.82507 -12.056606
-20.273403 -251.89305 -12.201525
-38.109604 -251.88303 -12.525852
-23.766287 -251.94164 -12.559949
-23.537781 -251.82401 -12.553933
-36.417149 -251.95988 -12.60441
-37.647736 -251.94281 -13.466974
-37.127827 -251.97668 -13.746733
-34.447403 -251.95064 -13.705883
-22.940449 -251.9411 -13.771719
-21.495975 -251.85971 -13.881851
-21.31678 -251.79041 -6.774859
-21.194689 -251.75533 -6.756392
-33.3274 -251.68147 -6.9997239
-32.272118 -251.68666 -6.923717
-31.470276 -251.68814 -6.9649749
-31.15432 -251.7419 -6.9542289
-30.047169 -251.69055 -6.8805122
-28.656332 -251.73822 -6.9033031
-37.892029 -251.73889 -7.060061
-36.630947 -251.75966 -7.1181359
-35.757004 -251.68553 -7.0277352
-34.251728 -251.75592 -7.007143
-33.637459 -251.78113 -7.0066619
-39.940407 -251.74144 -7.2459712
-35.384796 -251.72391 -7.400353
-35.108974 -251.73405 -7.5052552
-26.130974 -251.75888 -7.7833471
-33.513409 -251.71481 -8.2807207
-25.536354 -251.72501 -8.286993
-32.67083 -251.70203 -8.5880194
-36.718559 -251.68204 -8.7180443
-33.027401 -251.66328 -8.7332573
-26.670456 -251.79845 -8.7229128
-26.23081 -251.66919 -8.7412577
-36.639725 -251.74007 -8.855938
-32.718204 -251.625 -8.9241772
-26.259226 -251.74263 -8.848177
-38.143867 -251.64075 -9.1092291
-37.101387 -251.62177 -9.1945829
-25.942036 -251.71335 -9.0858202
-39.337128 -251.62735 -9.4668064
-25.834152 -251.69739 -9.4652586
-39.292404 -251.63258 -9.6690979
-25.909523 -251.6897 -9.6455078
-38.973679 -251.70639 -10.568305
-36.571358 -251.73354 -10.736644
-35.720463 -251.79688 -10.704671
-36.288067 -251.6886 -10.947079
-35.857941 -251.7361 -10.895452
-38.945992 -251.65871 -11.142904
-36.16507 -251.78427 -11.400316
-35.891048 -251.78102 -11.493223
-39.330616 -251.79999 -11.778989
-38.085777 -251.72952 -11.678905
-35.073021 -251.71082 -11.634169
-39.094334 -251.75079 -11.91279
-20.020811 -251.71573 -11.890263
-25.523905 -251.7849 -12.191551
-35.78997 -251.66924 -12.287371
-25.545235 -251.64424 -12.265635
-38.461296 -251.72643 -12.407232
-37.576225 -251.66483 -13.193913
-36.305008 -251.79224 -13.28465
-20.341696 -251.65242 -13.21265
-32.943611 -251.6702 -13.436115
-23.653706 -251.78238 -13.510262
-23.110497 -251.76495 -13.494626
-36.296242 -251.64883 -13.618792
-24.134035 -251.7467 -13.722003
-21.383253 -251.63647 -14.914888
-22.962791 -251.71008 -15.867441
-22.349831 -251.45442 -6.755074
-21.522514 -251.41922 -6.7873998
-33.856895 -251.41649 -6.973145
-32.670643 -251.46405 -6.9258552
-32.52459 -251.5106 -6.9255929
-32.105408 -251.50868 -6.903605
-31.505058 -251.48175 -6.979918
-30.359573 -251.46503 -6.8960662
-27.724474 -251.5307 -6.8901982
-27.311876 -251.5069 -6.8519769
-26.39996 -251.4881 -6.834096
-39.873199 -251.50673 -7.1317768
-37.817223 -251.59845 -7.0578542
-36.262794 -251.40826 -7.0565228
-39.883438 -251.49133 -7.245852
-38.043182 -251.51627 -7.231144
-25.792055 -251.58786 -7.9214559
-25.826773 -251.59888 -8.1291456
-25.562189 -251.55089 -8.1242962
-26.463009 -251.40102 -8.2682209
-25.676971 -251.5264 -8.2002087
-26.215187 -251.40024 -8.5781136
-36.721733 -251.46533 -8.7580824
-35.800129 -251.44121 -8.7577353
-33.007595 -251.48857 -8.7420645
-32.619659 -251.46198 -8.6829329
-36.689098 -251.44687 -8.8286743
-36.06633 -251.41402 -8.93297
-35.489204 -251.47792 -8.8966837
-32.894226 -251.50969 -8.8731689
-25.173061 -251.45795 -8.9219341
-38.292549 -251.40472 -9.0772285
-38.543415 -251.41023 -9.3669395
-38.222466 -251.44862 -9.2273026
-32.637642 -251.44052 -9.3459091
-39.33194 -251.52803 -9.4095421
-25.667183 -251.4568 -9.4505701
-35.659248 -251.495 -10.325452
-36.908081 -251.44016 -10.972326
-36.578522 -251.4776 -10.990437
-36.313457 -251.42311 -10.957802
-35.581982 -251.51068 -10.877651
-36.532207 -251.47772 -11.342839
-36.309887 -251.40382 -11.337289
-34.749252 -251.42426 -11.730337
-21.706051 -251.41678 -11.679674
-21.582619 -251.44252 -11.668267
-38.91333 -251.4364 -11.828871
-21.878937 -251.49413 -11.896414
-39.379578 -251.4326 -12.011336
-35.885906 -251.57877 -12.187256
-37.607166 -251.58499 -12.396251
-25.167288 -251.40605 -12.251914
-25.055126 -251.43056 -12.561841
-33.181484 -251.51894 -13.687983
-20.869699 -251.57423 -14.530989
-22.160992 -251.52582 -15.375511
-38.571014 -251.39229 -6.9840569
-32.956341 -251.39978 -6.958322
-29.081169 -251.37558 -6.886272
-28.657328 -251.394 -6.8818641
-27.948708 -251.21927 -6.877687
-26.894554 -251.32538 -6.8994861
-38.083809 -251.3967 -7.1058192
-37.885826 -251.26364 -7.0679169
-36.572575 -251.31042 -7.0390091
-35.767555 -251.33499 -7.04565
-37.943855 -251.34848 -7.2701812
-28.997974 -251.21539 -7.39046
-25.546669 -251.29695 -7.8210869
-26.263123 -251.29254 -8.3182411
-25.674149 -251.24429 -8.2207603
-37.893509 -251.29196 -8.7143822
-36.841873 -251.25999 -8.7985954
-36.162457 -251.24982 -8.7135887
-35.529816 -251.33923 -8.6905107
-26.682741 -251.37534 -8.6763048
-37.816669 -251.29289 -8.894002
-37.784439 -251.31136 -8.8168201
-36.174358 -251.22665 -8.9421711
-35.744953 -251.34103 -8.9333715
-38.43309 -251.38144 -9.003768
-37.343636 -251.34973 -9.0493116
-36.96843 -251.3644 -9.1200972
-25.69083 -251.31906 -9.1703043
-38.997936 -251.33659 -9.3811197
-25.516325 -251.21977 -9.3039618
-37.85387 -251.35089 -9.4886856
-21.649546 -251.2468 -9.5303783
-38.607491 -251.29115 -9.7840099
-38.137531 -251.34515 -9.6710777
-32.723122 -251.25401 -9.6972008
-21.719231 -251.26978 -9.9299355
-38.310593 -251.25284 -10.036457
-21.478069 -251.25905 -10.164207
-39.699726 -251.37451 -10.355993
-39.497536 -251.28667 -10.318655
-36.876835 -251.28789 -10.245779
-36.535652 -251.28357 -10.22447
-36.233055 -251.23878 -10.295925
-21.73884 -251.26041 -10.286254
-39.791847 -251.30571 -10.489786
-38.916878 -251.35358 -10.47703
-35.870224 -251.34515 -10.557635
-21.741108 -251.28503 -10.564131
-36.57349 -251.30597 -10.619776
-36.283638 -251.39615 -10.629997
-21.851068 -251.36813 -10.742701
-21.731678 -251.30247 -10.664269
-35.759357 -251.35876 -10.900713
-21.772844 -251.32471 -10.961935
-21.817867 -251.33031 -11.106731
-34.348419 -251.37292 -11.351095
-21.831699 -251.35841 -11.543255
-21.682022 -251.3557 -11.480745
-39.771835 -251.33565 -11.752647
-38.690647 -251.35686 -11.742348
-24.93129 -251.27823 -11.644451
-39.452644 -251.39134 -11.911583
-36.896996 -251.26149 -11.824866
-35.855686 -251.21848 -11.826786
-35.022163 -251.36545 -11.919429
-39.838696 -251.24742 -12.108241
-23.948292 -251.367 -12.587898
-20.287521 -251.37799 -12.994242
-35.85672 -251.2804 -13.268024
-21.93137 -251.28696 -13.654904
-24.41987 -251.25893 -14.702771
-22.230312 -251.33417 -15.025045
-38.602619 -251.15253 -6.9980388
-34.842285 -251.0334 -6.9657788
-33.467445 -251.14532 -6.9477391
-33.10503 -251.12724 -6.9373989
-32.622116 -251.05704 -6.9221439
-32.233547 -251.17897 -6.9231892
-32.144478 -251.00526 -6.899013
-31.75835 -251.08701 -6.907887
-30.674309 -251.10504 -6.910707
-30.227154 -251.13443 -6.9200149
-25.512379 -251.09082 -6.9795489
-39.811863 -251.03275 -7.0770478
-35.834309 -251.09697 -7.0071802
-35.78186 -251.06123 -7.0813379
-39.817253 -251.06241 -7.260745
-37.850025 -251.06419 -7.2574668
-29.095285 -251.1097 -7.2899599
-29.067926 -251.1723 -7.543818
-29.056721 -251.16586 -7.609643
-25.463139 -251.11282 -8.1343021
-26.216064 -251.18732 -8.2633305
-36.824654 -251.05864 -8.7631817
-36.601398 -251.0947 -8.7530289
-36.197063 -251.15988 -8.7641277
-35.766373 -251.08575 -8.752141
-35.421791 -251.12825 -8.7757912
-26.858368 -251.07172 -8.7269344
-21.640797 -251.00948 -8.683712
-21.543499 -251.00816 -8.737402
-38.43729 -251.12675 -8.8291798
-36.930016 -251.12971 -8.8889685
-36.697582 -251.04097 -8.8644447
-36.200665 -251.10107 -8.9548292
-35.676579 -251.02013 -8.8681593
-35.405258 -251.01263 -8.9618587
-25.057383 -251.18486 -9.1811104
-38.194298 -251.05699 -9.3353863
-35.775547 -251.00462 -9.2504148
-25.269558 -251.05843 -9.3799744
-21.624636 -251.07819 -9.3158512
-38.593178 -251.10927 -9.5333405
-32.674065 -251.07678 -9.5094023
-25.160103 -251.01175 -9.4180756
-21.689196 -251.12769 -9.4938736
-21.566029 -251.0636 -9.4637098
-38.232967 -251.0015 -9.6725769
-33.032372 -251.00119 -9.689064
-21.632137 -251.11177 -9.7088318
-21.559868 -251.11957 -9.7567205
-21.666512 -251.14145 -9.9478817
-38.303566 -251.03049 -10.043022
-36.893166 -251.0444 -10.105901
-35.899261 -251.006 -10.116269
-39.726231 -251.08984 -10.279415
-36.057117 -251.07021 -10.251667
-21.683376 -251.17526 -10.284707
-39.413559 -251.11597 -10.509636
-21.687065 -251.188 -10.512321
-35.742222 -251.11945 -10.641785
-38.924858 -251.04958 -10.945464
-39.303558 -251.01038 -11.046583
-36.193626 -251.0144 -11.367357
-38.509766 -251.19827 -11.753405
-36.281715 -251.08539 -11.746414
-24.856133 -251.15118 -11.797591
-34.892693 -251.14252 -11.801476
-24.763353 -251.05222 -11.932957
-37.643669 -251.16458 -12.16889
-36.597301 -251.13713 -12.078759
-39.373695 -251.10234 -12.200832
-24.302185 -251.1922 -12.577322
-24.141254 -251.13249 -12.663895
-35.817886 -251.13072 -13.295578
-22.626078 -251.19919 -14.134038
-21.891703 -251.12869 -14.463797
-20.737423 -251.10753 -15.389386
-21.054955 -251.12148 -15.431871
-20.242798 -250.9465 -6.7124958
-33.697571 -250.89415 -6.9416528
-31.730499 -250.83458 -6.956346
-30.500971 -250.84566 -6.896862
-29.572784 -250.92165 -6.8781328
-21.567415 -250.9048 -6.937696
-21.102257 -250.90677 -6.9207439
-38.310226 -250.97723 -7.0051398
-37.832317 -250.92386 -7.0869088
-36.959877 -250.97499 -7.0559149
-29.330635 -250.89723 -7.055109
-29.061749 -250.93198 -7.0937762
-25.530434 -250.94185 -7.073215
-21.164173 -250.86429 -7.035778
-37.741478 -250.8959 -7.253232
-29.360195 -250.88367 -7.263658
-25.65797 -250.89235 -7.3122911
-21.490858 -250.87552 -7.3201809
-21.299227 -250.83377 -7.343647
-25.483448 -250.87885 -7.4807811
-25.748852 -250.81659 -7.7008619
-25.517675 -250.93964 -7.6481719
-21.49209 -250.90054 -7.8787951
-25.658264 -250.99327 -8.1378555
-21.496115 -250.8952 -8.0682621
-25.352451 -250.85968 -8.3285971
-33.338467 -250.84586 -8.69067
-33.144005 -250.88083 -8.682868
-26.698317 -250.96745 -8.675025
-35.674595 -250.97409 -8.8444071
-33.430122 -250.89859 -8.8668652
-25.052402 -250.91818 -8.9749527
-37.016014 -250.98334 -9.2306395
-32.904251 -250.95964 -9.3354616
-31.97451 -250.97229 -9.241003
-24.752029 -250.95448 -9.3339968
-37.784344 -250.95879 -9.4196625
-37.513741 -250.96599 -9.5265217
-35.411331 -250.84064 -9.4767494
-33.587849 -250.90771 -9.5238781
-32.264065 -250.91254 -9.4303761
-24.888887 -250.97757 -9.4040222
-37.893066 -250.95432 -9.6633205
-37.396904 -250.9158 -9.7101383
-36.96505 -250.98193 -9.6550522
-32.658531 -250.99335 -9.7781734
-38.470657 -250.89221 -10.110573
-38.222027 -250.93207 -10.024285
-37.413055 -250.9613 -10.089205
-34.364441 -250.81393 -10.023165
-32.289375 -250.9007 -10.142831
-39.375664 -250.90265 -10.28801
-35.058022 -250.94415 -10.24316
-33.737152 -250.86673 -10.243042
-39.876171 -250.98857 -10.694194
-38.977612 -250.97093 -10.725531
-38.642365 -250.96881 -10.715305
-38.353157 -250.90192 -10.619326
-39.833973 -250.99373 -10.976612
-34.186962 -250.9108 -10.971048
-25.320168 -250.91727 -10.945913
-36.192646 -250.98775 -11.094442
-35.731937 -250.91208 -11.123276
-25.308849 -250.86523 -11.089552
-37.817924 -250.80634 -11.374435
-35.829552 -250.91646 -11.514729
-35.392479 -250.98132 -11.500391
-25.089022 -250.95074 -11.466633
-39.11182 -250.98119 -11.759471
-35.342022 -250.88406 -11.740059
-25.071449 -250.86688 -11.689287
-39.72863 -250.99155 -11.82375
-39.372131 -250.99782 -11.886889
-38.175472 -250.91843 -11.83397
-39.805912 -250.96049 -12.194591
-36.950294 -250.98064 -12.158543
-39.804005 -250.99664 -12.2264
-39.426758 -250.92134 -12.469711
-24.394503 -250.98308 -12.432387
-39.021507 -250.93506 -12.676317
-23.884504 -250.90161 -12.734164
-38.512733 -250.92728 -12.954018
-37.214966 -250.90958 -12.842686
-23.105707 -250.98051 -13.064607
-22.427168 -250.80852 -14.989443
-22.336548 -250.99115 -15.040169
-23.718765 -250.68573 -6.772059
-22.059872 -250.63828 -6.7378669
-39.477863 -250.61673 -6.9907732
-33.849094 -250.76521 -6.9374852
-32.779755 -250.77495 -6.901619
-32.181061 -250.69495 -6.9279218
-31.801609 -250.61113 -6.8838339
-29.498299 -250.69228 -6.8936882
-21.524649 -250.70767 -6.9074121
-36.930244 -250.7157 -7.0119672
-36.621552 -250.61682 -7.049387
-36.197189 -250.63945 -7.0502868
-25.63763 -250.79486 -7.5325851
-25.45783 -250.76401 -7.433713
-25.677029 -250.76819 -7.7482061
-25.351025 -250.78275 -7.7623429
-25.707947 -250.69876 -7.9109731
-25.306793 -250.77673 -7.8764858
-25.709381 -250.70483 -8.1123657
-25.234203 -250.74332 -8.117321
-26.103462 -250.69849 -8.3274879
-25.310423 -250.70796 -8.3203735
-25.477573 -250.66296 -8.4577007
-35.677883 -250.78273 -8.7475986
-33.515278 -250.78262 -8.6554747
-33.009399 -250.67848 -8.7272015
-32.999779 -250.69983 -8.7497158
-36.081421 -250.75064 -8.9442282
-33.048046 -250.70547 -8.8888063
-26.985315 -250.7234 -8.8646574
-26.615601 -250.61327 -8.8662205
-36.737911 -250.76134 -9.0005302
-35.679836 -250.6377 -9.1097775
-32.150909 -250.69147 -9.1683245
-37.660675 -250.63387 -9.2679462
-36.643234 -250.60721 -9.3193741
-35.855057 -250.65807 -9.2632055
-35.524448 -250.6494 -9.2666903
-33.121254 -250.7533 -9.3310871
-32.999687 -250.72034 -9.3299923
-32.727295 -250.6983 -9.3329029
-31.93742 -250.63422 -9.380415
-25.044264 -250.73926 -9.3882208
-24.903738 -250.75705 -9.3587704
-36.241001 -250.65436 -9.4068127
-24.742615 -250.68965 -9.4043713
-36.973099 -250.63092 -9.7087355
-35.710831 -250.73738 -9.6967373
-34.572609 -250.67126 -9.7792168
-33.693344 -250.60359 -9.7666998
-32.939514 -250.60522 -9.7423468
-32.203556 -250.73804 -9.7980375
-37.793907 -250.60089 -9.9288063
-38.192379 -250.70648 -10.095779
-35.502216 -250.65759 -10.105953
-37.478455 -250.6109 -10.225886
-39.121513 -250.62582 -10.720763
-38.177662 -250.61774 -10.610613
-39.774982 -250.64818 -11.057324
-39.335678 -250.6387 -11.060274
-34.253563 -250.62186 -11.096934
-25.294659 -250.67406 -11.345785
-38.250801 -250.65221 -11.455553
-25.174065 -250.70642 -11.523149
-38.227417 -250.76968 -11.733194
-36.758732 -250.65842 -11.799212
-25.106852 -250.76489 -11.721247
-39.833237 -250.6991 -11.831465
-39.611374 -250.72824 -12.190039
-24.183102 -250.6299 -12.509617
-23.974703 -250.68448 -12.550035
-20.837093 -250.67641 -12.558243
-39.025074 -250.67615 -12.601156
-23.671585 -250.71106 -12.719295
-37.764473 -250.65788 -13.121715
-37.454334 -250.76796 -13.177115
-22.466532 -250.6763 -13.640023
-25.299953 -250.63663 -13.818061
-22.858761 -250.67023 -13.808167
-22.428749 -250.62747 -14.074377
-21.486952 -250.60236 -14.146165
-22.271324 -250.62051 -14.338263
-22.369705 -250.65666 -15.026428
-20.857714 -250.79694 -15.693576
-22.820139 -250.62076 -15.864184
-20.93453 -250.61444 -16.459404
-21.319534 -250.55295 -6.7843928
-36.927876 -250.52647 -6.9588389
-35.881947 -250.55742 -6.976254
-32.990971 -250.57964 -6.9089322
-30.857185 -250.48434 -6.9386301
-25.138239 -250.54088 -6.8168139
-39.752552 -250.49878 -7.069098
-37.709984 -250.51106 -7.0768552
-37.550594 -250.48967 -7.0732322
-26.206413 -250.56789 -8.4993286
-26.893181 -250.52908 -8.7214546
-26.702003 -250.52472 -8.6960955
-26.350018 -250.42033 -8.6329308
-25.329237 -250.45955 -8.8809032
-38.479347 -250.46809 -9.0581036
-38.311165 -250.55174 -9.1630735
-38.184792 -250.53488 -9.1534576
-37.72818 -250.56065 -9.1677189
-36.852097 -250.53043 -9.116538
-35.363094 -250.54834 -9.058074
-33.303535 -250.48039 -9.0611639
-38.039551 -250.5867 -9.2871418
-37.378468 -250.48877 -9.3820543
-37.019535 -250.59758 -9.3386555
-36.77943 -250.57314 -9.2103262
-35.053051 -250.59151 -9.2717361
-32.173424 -250.54759 -9.3279095
-25.320654 -250.5392 -9.2950792
-38.470337 -250.49396 -9.4973574
-38.292397 -250.46378 -9.4843311
-34.628067 -250.49432 -9.4544792
-33.773491 -250.50101 -9.5468464
-24.550867 -250.53589 -9.4130735
-24.357899 -250.46664 -9.5533228
-38.451508 -250.56119 -9.7624836
-37.470947 -250.51984 -9.6997528
-36.651947 -250.55811 -9.6512909
-36.196796 -250.53838 -9.6453934
-33.525143 -250.59555 -9.7299433
-32.609905 -250.59082 -9.7692814
-38.232155 -250.59766 -9.8685894
-37.852257 -250.59122 -10.016263
-36.316814 -250.53433 -10.097097
-35.933662 -250.51633 -10.120642
-33.828171 -250.44962 -10.154575
-32.966995 -250.49203 -10.187704
-33.317074 -250.55376 -10.207955
-36.165771 -250.46146 -10.494125
-39.968315 -250.52512 -10.6086
-39.355171 -250.50784 -10.64976
-37.962154 -250.55211 -10.615386
-38.54546 -250.55692 -10.888197
-38.200386 -250.54704 -10.86037
-36.162437 -250.45024 -10.898204
-33.872093 -250.58298 -10.991712
-38.995438 -250.47443 -11.052462
-39.376457 -250.4785 -11.36243
-34.164139 -250.45718 -11.263663
-39.874481 -250.52643 -11.428596
-33.498924 -250.44736 -11.407408
-25.293922 -250.49754 -11.403814
-39.175621 -250.5782 -11.696081
-38.466339 -250.54657 -11.741589
-36.111122 -250.40512 -11.696392
-35.024963 -250.47928 -11.797402
-25.155571 -250.5827 -11.682631
-39.307999 -250.40054 -11.948078
-37.952164 -250.47321 -11.821482
-20.538834 -250.46249 -11.937685
-39.433746 -250.59044 -12.145279
-38.991722 -250.54755 -12.162333
-24.543015 -250.53915 -12.136135
-20.565762 -250.49596 -12.121273
-38.766949 -250.46593 -12.329474
-20.711329 -250.52179 -12.303801
-23.316776 -250.55685 -12.90753
-35.388378 -250.54721 -13.063472
-35.444248 -250.54704 -13.291961
-33.834068 -250.59036 -13.381635
-22.731791 -250.55939 -13.357594
-32.852486 -250.54895 -14.031672
-24.634535 -250.54779 -14.043209
-33.739071 -250.44727 -14.345135
-22.369146 -250.48309 -14.281542
-21.54697 -250.5397 -14.451665
-27.086515 -250.27165 -6.7818112
-25.064264 -250.21776 -6.7743931
-22.669559 -250.26176 -6.6944981
-20.318386 -250.2879 -6.708878
-37.038063 -250.21469 -6.9701462
-36.206688 -250.34564 -6.9640079
-33.732704 -250.21982 -6.9097371
-32.659317 -250.39761 -6.9114432
-32.569366 -250.26433 -6.8964162
-32.224865 -250.2818 -6.9071622
-31.082617 -250.3293 -6.9605031
-26.702682 -250.37935 -6.9223061
-25.090548 -250.27747 -6.8273368
-39.682491 -250.21982 -7.0448208
-37.561859 -250.20142 -7.059567
-26.475159 -250.31906 -8.7322903
-26.310167 -250.26106 -8.6767101
-25.731892 -250.31546 -8.7083807
-25.449448 -250.26045 -8.6865511
-25.3307 -250.22531 -8.6537685
-26.536129 -250.29553 -8.8711929
-26.104328 -250.22089 -8.866745
-38.126034 -250.30615 -9.1714535
-37.918388 -250.28113 -9.1448402
-35.054749 -250.20412 -9.1148386
-34.947281 -250.28473 -9.0609636
-38.283772 -250.31641 -9.3479004
-38.077381 -250.38535 -9.2542152
-36.844101 -250.23059 -9.3185501
-35.277939 -250.34261 -9.314415
-24.702654 -250.29866 -9.2642498
-37.876991 -250.33191 -9.5324402
-36.689697 -250.29907 -9.4770393
-36.071304 -250.26826 -9.4529057
-35.874905 -250.25555 -9.4050083
-38.726727 -250.30196 -9.7361298
-38.114334 -250.34406 -9.657546
-37.391647 -250.30475 -9.7951059
-36.570965 -250.23975 -9.6832809
-35.828281 -250.20837 -9.7115955
-32.12883 -250.29059 -9.7688379
-37.87426 -250.25397 -9.938488
-33.900639 -250.27371 -9.9294825
-37.461689 -250.21077 -10.060681
-35.903496 -250.28839 -10.083653
-33.860313 -250.20331 -10.146689
-32.66996 -250.34344 -10.192783
-33.365196 -250.3089 -10.33664
-32.92424 -250.29672 -10.289523
-36.44165 -250.30528 -10.555933
-33.610348 -250.33282 -10.471848
-33.463287 -250.25635 -10.484771
-37.778641 -250.2453 -10.723207
-37.012527 -250.25833 -10.643083
-36.282253 -250.2646 -10.624145
-32.990051 -250.20805 -10.634007
-37.031422 -250.27129 -10.981897
-36.230148 -250.31058 -10.889727
-39.064922 -250.2352 -11.046576
-38.642548 -250.24948 -11.104584
-33.795319 -250.27586 -11.069602
-39.117271 -250.21854 -11.321144
-39.759544 -250.24748 -11.433952
-35.15686 -250.33269 -11.585127
-33.465324 -250.25497 -11.534042
-25.111824 -250.20349 -11.556801
-37.8466 -250.30942 -11.729753
-25.092918 -250.27283 -11.655231
-36.25433 -250.36884 -11.872543
-24.956394 -250.23956 -11.821398
-20.452217 -250.29419 -11.89346
-39.463661 -250.26599 -12.161591
-38.208019 -250.23868 -12.106824
-38.886299 -250.2401 -12.222668
-33.056091 -250.38318 -12.237427
-20.632191 -250.25154 -12.309865
-37.457825 -250.21469 -12.571946
-21.798403 -250.26254 -12.59741
-23.681854 -250.24887 -12.67816
-22.282713 -250.2328 -12.983946
-22.983091 -250.26515 -13.339905
-37.340252 -250.20761 -13.624755
-22.533466 -250.27876 -14.270664
-21.420908 -250.2171 -14.607538
-22.73316 -250.29007 -15.833178
-38.230453 -250.13745 -6.9341679
-35.508434 -250.11211 -6.9188118
-35.065048 -250.10062 -6.9395618
-34.247528 -250.10497 -6.886919
-31.835518 -250.14133 -6.8772531
-30.300018 -250.15498 -6.8628631
-37.677902 -250.12512 -7.1090388
-37.492897 -250.09344 -7.187871
-37.282646 -250.09285 -8.7883062
-25.104069 -250.11745 -8.7406235
-26.235929 -250.13997 -8.9653301
-25.743988 -250.13513 -8.9663658
-26.715992 -250.15962 -9.0786772
-26.278572 -250.03802 -9.0388489
-24.820726 -250.15013 -9.1386061
-33.128654 -250.1767 -9.2814217
-24.575583 -250.12447 -9.3965492
-36.203377 -250.19958 -9.737546
-32.602032 -250.18825 -9.7903423
-32.882076 -250.19026 -9.8281956
-32.239998 -250.12007 -10.168178
-39.891243 -250.00146 -10.340969
-39.290756 -250.12622 -10.369734
-38.984684 -250.09241 -10.295663
-38.741447 -250.18423 -10.274868
-37.827602 -250.12312 -10.279305
-36.174156 -250.10591 -10.208864
-39.35379 -250.10986 -10.560318
-37.415916 -250.17816 -10.523826
-39.935162 -250.12457 -10.638121
-39.017311 -250.10275 -10.685825
-38.608799 -250.06816 -10.60617
-38.250885 -250.12959 -10.713384
-34.461796 -250.16048 -10.719101
-37.81794 -250.1514 -10.928121
-37.514408 -250.13907 -10.996433
-39.889477 -250.05988 -11.069078
-39.782375 -250.16675 -11.0181
-39.284073 -250.16583 -11.093563
-38.622154 -250.04263 -11.024148
-38.178261 -250.1882 -11.027314
-34.089203 -250.17191 -11.125425
-33.390182 -250.18365 -11.104116
-33.161392 -250.17891 -11.047274
-32.054947 -250.12045 -11.010195
-31.924084 -250.07918 -11.086082
-37.446129 -250.16322 -11.326162
-37.113449 -250.15314 -11.248846
-39.306171 -250.11612 -11.450546
-38.968117 -250.07822 -11.460655
-38.489281 -250.17358 -11.477651
-38.194492 -250.147 -11.479108
-37.847649 -250.06686 -11.413167
-35.776596 -250.10945 -11.411577
-34.880493 -250.1731 -11.476789
-34.506695 -250.04123 -11.43581
-34.305637 -250.15576 -11.411993
-33.850952 -250.02707 -11.43615
-39.88496 -250.08876 -11.710304
-39.429413 -250.12262 -11.770049
-38.661755 -250.05205 -11.632347
-38.225822 -250.1046 -11.702255
-35.891567 -250.15855 -11.764295
-39.782112 -250.16689 -11.836519
-39.102474 -250.11438 -11.8137
-35.085617 -250.18988 -11.845737
-33.380249 -250.07428 -11.854563
-39.760998 -250.18835 -12.017443
-37.848339 -250.16113 -12.100926
-35.293411 -250.16174 -12.053673
-24.531609 -250.10335 -12.089178
-23.472342 -250.00883 -12.16687
-38.777771 -250.16989 -12.27103
-24.274818 -250.15976 -12.233639
-23.658962 -250.07272 -12.340801
-24.11372 -250.10983 -12.423754
-23.973099 -250.1246 -12.503012
-21.461475 -250.11984 -12.469485
-22.182846 -250.19122 -12.644137
-32.590454 -250.16595 -13.11798
-31.996557 -250.15981 -13.11014
-25.602238 -250.14644 -13.149979
-24.562523 -250.15955 -13.062963
-22.367098 -250.02296 -13.807699
-21.292965 -250.17947 -14.312822
-22.274639 -250.12296 -14.922416
-28.084209 -249.83336 -6.7630062
-26.666294 -249.80972 -6.7758708
-24.470377 -249.88083 -6.7713122
-21.885326 -249.81564 -6.7180638
-21.38023 -249.90405 -6.6801929
-20.903849 -249.91019 -6.6614332
-37.713783 -249.80148 -6.9572802
-32.498047 -249.90265 -6.8812289
-27.110855 -249.95877 -6.8679538
-25.76354 -249.87143 -6.800612
-39.687298 -249.89413 -7.067605
-39.553139 -249.87517 -7.107367
-37.470833 -249.82538 -7.0178332
-25.359877 -249.93518 -8.6526337
-25.100391 -249.91464 -8.7099781
-25.38567 -249.95418 -8.8494778
-26.321381 -249.96317 -9.1182795
-25.833973 -249.93704 -9.3286047
-24.686157 -249.931 -9.2979155
-35.848015 -249.80951 -9.7691498
-32.96059 -249.89062 -9.7824783
-38.893745 -249.9574 -9.9318571
-37.722832 -249.92928 -9.9563837
-37.349815 -249.93857 -9.9131536
-38.931164 -249.97418 -10.013721
-32.883339 -249.87604 -10.118935
-39.797592 -249.92728 -10.261665
-38.938915 -249.94656 -10.345015
-37.349216 -249.93457 -10.258246
-33.962727 -249.91431 -10.323019
-32.645798 -249.81863 -10.26333
-39.857124 -249.81456 -10.595139
-39.02914 -249.93228 -10.562716
-37.132301 -249.90096 -10.545904
-39.413654 -249.97729 -10.626385
-38.700027 -249.93103 -10.701165
-38.264305 -249.88632 -10.6621
-39.828964 -249.8949 -10.956284
-39.510399 -249.88676 -11.00872
-37.896008 -249.89673 -11.344007
-37.362255 -249.86328 -11.365425
-36.989521 -249.88016 -11.281612
-34.290184 -249.84547 -11.366406
-33.402954 -249.84682 -11.391022
-39.817715 -249.85437 -11.508816
-39.37468 -249.97614 -11.49475
-39.112064 -249.95189 -11.588877
-35.787361 -249.93069 -11.4724
-24.865398 -249.91129 -11.4275
-39.819771 -249.86607 -11.785439
-39.768005 -249.92169 -11.669279
-38.759464 -249.90433 -11.759786
-37.690754 -249.82318 -11.770046
-36.55304 -249.88275 -11.768726
-35.864471 -249.84967 -11.79469
-34.721153 -249.97351 -11.693706
-31.837082 -249.94955 -11.761704
-39.06485 -249.8461 -11.876728
-36.88105 -249.89366 -11.855802
-36.199211 -249.85326 -11.835089
-32.066696 -249.83649 -11.917887
-24.493652 -249.86104 -11.885141
-23.34576 -249.91882 -11.979215
-39.514961 -249.96892 -12.139743
-38.172935 -249.89453 -12.166055
-36.947548 -249.93848 -12.169569
-36.582859 -249.83275 -12.003198
-24.110146 -249.92654 -12.25225
-21.81241 -249.90001 -12.356234
-21.259686 -249.81375 -12.317137
-37.632893 -249.96651 -12.545681
-38.15266 -249.99945 -12.902781
-25.535912 -249.9798 -12.866908
-25.153549 -249.88538 -12.984494
-21.644175 -249.92017 -15.064655
-28.299669 -249.66756 -6.7972088
-25.068762 -249.74162 -6.6949158
-24.607603 -249.7103 -6.7486868
-23.722771 -249.71194 -6.6899571
-22.518509 -249.68005 -6.6779962
-20.530922 -249.74065 -6.712399
-38.528378 -249.65399 -6.8936162
-37.006073 -249.6763 -6.955761
-36.7239 -249.76598 -6.9638219
-35.74173 -249.73764 -6.9444938
-34.949409 -249.74155 -6.9246488
-34.68129 -249.76569 -6.8973632
-34.310295 -249.72774 -6.9239211
-33.92738 -249.72595 -6.925189
-36.59494 -249.73489 -8.8969574
-24.974258 -249.78622 -9.0859814
-33.760735 -249.62994 -9.3198795
-37.14872 -249.62643 -9.5995827
-33.040482 -249.63608 -9.5225201
-31.794146 -249.78348 -9.4992447
-31.545685 -249.78374 -9.4942398
-36.972275 -249.62418 -9.7272444
-32.123306 -249.65637 -9.7026043
-31.866913 -249.71834 -9.7094622
-38.307976 -249.65012 -9.9553604
-36.29084 -249.78607 -9.9351358
-36.228729 -249.71191 -10.067778
-38.185364 -249.78084 -10.321092
-37.797379 -249.69057 -10.224574
-37.395584 -249.70732 -10.338596
-37.171623 -249.75812 -10.305322
-32.118275 -249.76707 -10.291975
-37.929291 -249.70595 -10.583402
-37.469643 -249.63805 -10.675942
-34.198036 -249.70419 -10.617667
-33.313538 -249.75717 -10.708025
-38.719933 -249.75594 -10.990417
-37.491264 -249.71121 -10.930596
-33.11644 -249.76477 -10.858976
-32.208145 -249.76463 -10.897214
-38.867966 -249.76482 -11.05686
-38.046394 -249.78719 -11.122066
-37.670494 -249.79976 -11.062654
-34.181725 -249.74457 -11.106949
-33.900223 -249.73022 -11.095943
-33.377144 -249.73555 -11.014671
-38.533829 -249.76981 -11.35597
-24.662994 -249.76024 -11.301794
-38.295753 -249.7645 -11.406014
-34.682076 -249.79358 -11.4913
-23.692808 -249.65295 -11.598022
-20.116705 -249.72855 -11.445879
-38.117741 -249.74507 -11.691943
-33.721764 -249.74481 -11.794172
-20.219231 -249.73953 -11.713921
-39.433067 -249.72858 -11.833632
-38.886162 -249.64233 -11.924583
-24.137764 -249.71445 -11.875901
-23.906254 -249.75761 -11.898403
-38.427982 -249.66901 -12.176434
-37.821716 -249.77995 -12.149963
-35.935143 -249.74718 -12.031101
-24.246811 -249.78482 -12.021633
-38.935959 -249.69061 -12.226768
-22.29974 -249.75076 -12.523639
-21.278038 -249.71759 -12.514207
-39.258656 -249.60324 -12.630508
-23.4657 -249.77803 -13.024845
-32.617989 -249.74146 -13.352287
-24.565649 -249.77682 -13.218624
-23.669727 -249.70901 -13.582167
-22.586748 -249.68362 -14.780418
-21.260727 -249.77115 -14.63273
-21.514977 -249.70084 -15.03303
-25.844627 -249.46771 -6.7440162
-23.605326 -249.49019 -6.7126098
-37.674393 -249.57251 -6.9613109
-35.040676 -249.4306 -6.9177718
-34.58556 -249.41614 -6.9099178
-33.467941 -249.48257 -6.8942971
-30.052195 -249.52333 -6.8331671
-27.597422 -249.53444 -6.8237019
-37.462204 -249.51022 -7.0761948
-36.6777 -249.56021 -8.7722168
-36.33371 -249.46202 -8.984045
-33.657246 -249.59036 -9.3747749
-36.899525 -249.401 -9.4496021
-36.65316 -249.43793 -9.4466934
-33.799038 -249.46535 -9.4748049
-32.063587 -249.42892 -9.4855633
-36.917511 -249.52899 -9.6943417
-36.648006 -249.52115 -9.7588272
-32.074257 -249.49055 -9.7664185
-35.918583 -249.50142 -9.9778748
-36.943329 -249.41727 -10.19501
-36.15276 -249.47997 -10.077166
-37.790791 -249.43472 -10.229818
-34.424393 -249.41866 -10.334156
-32.143253 -249.51028 -10.200575
-39.936478 -249.58362 -10.680161
-37.80439 -249.45395 -10.668926
-32.585434 -249.52048 -10.633661
-24.762882 -249.46664 -10.968287
-37.273823 -249.51878 -11.107349
-33.820263 -249.41133 -11.01415
-33.076897 -249.42789 -11.03941
-24.683624 -249.45053 -11.174035
-38.212105 -249.52956 -11.318266
-37.409725 -249.40706 -11.393601
-37.187309 -249.46915 -11.284075
-34.209442 -249.42239 -11.369982
-24.520355 -249.47821 -11.372593
-38.558258 -249.44968 -11.503275
-34.88829 -249.45871 -11.45916
-24.462204 -249.43724 -11.514471
-24.295179 -249.42789 -11.477877
-24.025698 -249.52228 -11.543335
-39.267021 -249.51047 -11.721313
-38.706505 -249.52472 -11.691356
-37.816204 -249.42816 -11.751751
-36.540897 -249.47365 -11.750217
-34.634773 -249.46362 -11.67318
-24.434166 -249.52441 -11.601824
-23.909588 -249.56619 -11.606483
-20.299019 -249.4118 -11.682673
-39.119843 -249.55838 -11.873913
-36.856953 -249.40034 -11.890964
-21.632915 -249.51109 -11.953899
-39.378292 -249.49089 -12.152684
-37.280922 -249.59523 -12.157301
-38.46122 -249.57782 -12.283598
-35.842373 -249.45363 -12.204084
-22.27388 -249.47733 -12.285456
-38.993847 -249.49347 -12.47453
-38.557762 -249.54645 -12.516052
-39.202316 -249.50568 -12.620836
-24.575462 -249.51514 -13.164919
-23.078171 -249.47449 -13.460182
-22.23838 -249.44016 -13.489447
-20.866619 -249.56538 -14.217677
-21.378269 -249.41069 -15.035445
-32.944302 -249.50398 -15.362045
-27.38998 -249.20099 -6.7287889
-24.11883 -249.31488 -6.7111688
-22.700628 -249.35751 -6.6619301
-21.831669 -249.28513 -6.6846552
-21.086224 -249.33688 -6.6561689
-20.661709 -249.31389 -6.6655731
-39.807472 -249.39264 -6.9032888
-37.717278 -249.32896 -6.9390402
-36.94949 -249.31427 -6.9247928
-36.691509 -249.27464 -6.923492
-34.210461 -249.39502 -6.8879509
-30.218878 -249.27231 -6.8078671
-27.449335 -249.35439 -6.8070769
-39.485588 -249.32632 -7.0677471
-36.516068 -249.39507 -9.0965729
-31.891815 -249.3624 -9.0880547
-36.662189 -249.39217 -9.2459526
-36.327797 -249.23679 -9.2544136
-31.948399 -249.27769 -9.3412361
-37.437553 -249.39667 -9.4926243
-36.307289 -249.31329 -9.4291172
-37.60199 -249.226 -9.6294966
-35.910355 -249.32617 -9.7223196
-33.273949 -249.36066 -9.6956921
-37.333408 -249.30486 -9.882412
-36.260391 -249.36118 -9.8790932
-32.487274 -249.38554 -9.959713
-35.938797 -249.32721 -10.064861
-38.171982 -249.38867 -10.273682
-37.351948 -249.36749 -10.323931
-36.473228 -249.34366 -10.209288
-36.935036 -249.32928 -10.498117
-33.851425 -249.35573 -10.506491
-38.196075 -249.35271 -10.674533
-37.323875 -249.31213 -10.635751
-34.547386 -249.26305 -10.648093
-34.191479 -249.37161 -10.701132
-32.950665 -249.28497 -10.620892
-38.243465 -249.28366 -10.970238
-38.198902 -249.26324 -10.860355
-37.948803 -249.3824 -10.980871
-37.00547 -249.3927 -10.887032
-34.579765 -249.36194 -10.885992
-34.213135 -249.38539 -10.881536
-32.527962 -249.38211 -10.88073
-24.355181 -249.32002 -11.19473
-37.751373 -249.21434 -11.268978
-33.816704 -249.33292 -11.313025
-37.897213 -249.37242 -11.442972
-34.474998 -249.37927 -11.405386
-38.948879 -249.37257 -11.787104
-37.440559 -249.27258 -11.691604
-20.290972 -249.24368 -11.634813
-38.179455 -249.32353 -11.889325
-36.142117 -249.30878 -11.827251
-35.066399 -249.24696 -11.943169
-21.433508 -249.36177 -11.928224
-39.066986 -249.31807 -12.173123
-38.259068 -249.3875 -12.072624
-37.771141 -249.38156 -12.040085
-35.304321 -249.37935 -12.187117
-34.069939 -249.36736 -12.066696
-39.286205 -249.39705 -12.704521
-34.543018 -249.2926 -12.960711
-21.838217 -249.25368 -13.047445
-24.559025 -249.37811 -13.214237
-23.323345 -249.25418 -13.336558
-22.389032 -249.20636 -13.47145
-34.756664 -249.28014 -13.914951
-21.492554 -249.36731 -14.253772
-36.840611 -249.28047 -14.470996
-21.680243 -249.34206 -15.349985
-20.299585 -249.02504 -6.5920138
-24.697607 -249.12729 -6.7078471
-24.337547 -249.09264 -6.7125821
-39.363125 -249.09726 -6.9136839
-39.050323 -249.1058 -6.9387741
-37.358902 -249.08279 -6.9263129
-36.204437 -249.04385 -6.8844919
-37.312164 -249.00276 -7.0308371
-36.256077 -249.18106 -9.1456642
-36.155132 -249.11806 -9.3751926
-37.673561 -249.02591 -9.5083084
-36.915394 -249.0439 -9.4797792
-36.631546 -249.11478 -9.5109386
-36.521561 -249.00961 -9.7275696
-37.385239 -249.1546 -9.8980913
-36.295578 -249.08768 -9.8866673
-33.493633 -249.07553 -9.8191862
-32.642048 -249.03873 -9.822319
-37.434837 -249.03235 -10.158587
-36.157036 -249.07959 -10.079081
-34.052933 -249.12741 -10.062727
-33.845341 -249.02972 -10.140288
-37.54327 -249.12061 -10.557644
-36.57896 -249.05017 -10.469768
-34.133156 -249.01236 -10.563597
-38.084641 -249.09406 -10.647291
-36.93235 -249.11642 -10.671028
-34.570614 -249.17841 -10.725798
-38.408749 -249.16425 -10.80303
-38.126366 -249.04663 -10.886255
-33.809624 -249.14371 -10.989996
-37.816658 -249.0197 -11.034524
-37.029022 -249.03448 -11.052221
-37.862389 -249.10727 -11.284705
-32.641685 -249.0603 -11.225721
-32.542557 -249.07782 -11.225985
-38.650864 -249.14604 -11.445165
-38.073524 -249.09528 -11.417656
-37.254337 -249.01674 -11.59379
-36.147884 -249.04626 -11.413096
-33.332825 -249.15668 -11.43569
-38.048817 -249.06355 -11.704744
-37.337536 -249.09583 -11.647228
-36.043449 -249.00388 -11.720064
-20.470882 -249.06749 -11.677333
-20.376751 -249.11684 -11.617155
-37.827679 -249.1734 -11.858369
-35.834866 -249.0341 -11.803818
-33.474106 -249.09119 -11.855417
-21.297623 -249.08823 -11.921444
-38.884098 -249.01439 -12.580498
-36.091602 -249.00275 -12.420197
-24.580685 -249.11676 -12.932031
-24.277328 -249.09048 -13.220395
-23.477467 -249.03795 -13.352745
-22.274788 -249.09888 -13.35756
-20.546774 -249.06586 -13.875031
-21.291225 -249.05869 -14.247082
-21.519369 -249.08571 -15.307728
-21.842165 -249.04904 -15.565393
-26.662664 -248.9259 -6.681673
-24.312708 -248.82291 -6.6911321
-37.857857 -248.94867 -6.9051471
