# .PCD v0.7 - Point Cloud Data file format
VERSION 0.7
FIELDS x y z
SIZE 4 4 4
TYPE F F F
COUNT 1 1 1
WIDTH 1465
HEIGHT 1
VIEWPOINT 0 0 0 1 0 0 0
POINTS 1465
DATA ascii
-34.287899 -276.32922 -9.2139778
-34.951653 -276.21185 -10.108269
-39.251099 -276.12845 -10.404233
-33.110516 -276.08615 -22.132786
-32.218578 -276.07922 -22.152979
-31.508308 -276.15234 -22.245014
-33.287159 -276.13342 -22.516315
-32.942528 -276.15469 -22.526018
-32.646042 -276.15778 -22.531431
-33.706619 -276.04013 -22.656456
-33.71698 -273.52866 -17.957067
-31.068413 -272.828 -20.856106
-30.936888 -271.41608 -20.037165
-30.948181 -271.00006 -19.414167
-30.941059 -270.88644 -20.083141
-38.86779 -270.52786 -8.4646835
-37.454918 -269.22101 -8.1663351
-32.898083 -269.24323 -9.3733177
-37.312943 -269.22168 -9.4799652
-33.531723 -269.05185 -7.5618029
-34.87571 -269.05084 -7.83676
-36.965298 -269.1626 -8.1633892
-36.181129 -269.18903 -8.1995068
-38.723808 -269.02655 -8.278986
-32.944721 -269.11261 -8.2609396
-37.903767 -269.17862 -8.6776743
-36.370564 -269.19 -8.768054
-36.654484 -269.17773 -8.8686218
-38.317051 -269.04544 -9.7731552
-37.108025 -269.13385 -9.6471786
-37.03112 -269.12042 -10.176733
-35.7668 -269.10733 -10.169412
-39.338242 -268.82635 -8.8962765
-33.729637 -268.86401 -10.237425
-33.251228 -268.92007 -10.292807
-32.666634 -268.9581 -11.020877
-32.161297 -268.97519 -13.933276
-31.705257 -268.90399 -15.061892
-33.156387 -268.90094 -17.193829
-33.453476 -268.96762 -17.465267
-31.05904 -268.82349 -17.45853
-34.157463 -268.79221 -7.709188
-33.931366 -268.78928 -8.772789
-32.2397 -268.61737 -10.982376
-34.520111 -268.60687 -13.280237
-33.913006 -268.70825 -16.743122
-34.759995 -268.44891 -9.1864405
-34.092934 -268.5448 -9.0543194
-38.842964 -268.43823 -9.4220686
-31.808723 -268.55548 -9.4076662
-34.853874 -268.42078 -9.9222383
-32.194473 -268.53445 -9.8497944
-31.822872 -268.52899 -10.743174
-32.622776 -268.47818 -11.030968
-33.530529 -268.46173 -11.333208
-33.512432 -268.573 -11.623255
-34.005608 -268.45383 -12.936961
-32.083473 -268.40952 -13.151927
-32.149284 -268.48364 -14.18152
-33.499928 -268.47192 -15.362191
-38.191402 -268.50354 -15.574801
-39.269119 -268.22546 -9.066556
-38.824295 -268.39905 -9.8780594
-36.202026 -268.33887 -10.924078
-36.569996 -268.26355 -11.469528
-34.949795 -268.25681 -12.578892
-34.823936 -268.23663 -13.211153
-32.232918 -268.33905 -13.374046
-34.178707 -268.29166 -13.462691
-32.52491 -268.30795 -14.632077
-31.757011 -268.34503 -14.681082
-32.668663 -268.28821 -15.049122
-35.754608 -268.14957 -11.772821
-37.003307 -268.07397 -12.321982
-39.390965 -268.18161 -12.994392
-36.28067 -268.14911 -13.89108
-37.424732 -268.07019 -14.279195
-38.106506 -268.0499 -14.5485
-34.576096 -268.19852 -15.256368
-33.032982 -268.17645 -15.450459
-33.775673 -268.08899 -15.665171
-32.653618 -268.1604 -15.935104
-32.860577 -268.15302 -16.172638
-30.893284 -268.1712 -16.504963
-38.647614 -268.04434 -18.12429
-35.333981 -267.88263 -7.7380099
-36.878963 -267.85397 -8.0345116
-35.301666 -267.87326 -9.8615818
-30.982445 -267.85278 -12.293976
-31.321316 -267.90625 -12.571543
-31.020252 -267.89914 -12.61309
-39.461529 -267.97977 -13.034502
-30.987286 -267.91309 -13.311091
-31.251823 -267.85498 -14.587706
-31.342575 -267.89694 -15.024117
-39.87743 -267.96027 -15.506502
-39.469933 -267.974 -15.47332
-38.341095 -267.97705 -15.509382
-35.669716 -267.9978 -15.667709
-36.55061 -267.91345 -16.302685
-30.858536 -267.90051 -16.584038
-30.822239 -267.88824 -17.430336
-30.802921 -267.97495 -19.727985
-38.328781 -267.62436 -8.2823811
-39.091919 -267.67264 -9.0182686
-35.044968 -267.79724 -9.942832
-39.222385 -267.73779 -10.921084
-39.035233 -267.64368 -11.298182
-30.943613 -267.75391 -11.686018
-35.081974 -267.7486 -12.259643
-34.996307 -267.69434 -14.536973
-35.036037 -267.67041 -15.363646
-30.897987 -267.49551 -10.171372
-30.882557 -267.49799 -12.146749
-39.073009 -267.55042 -12.949498
-38.831017 -267.55826 -12.840302
-30.893154 -267.48279 -13.75462
-38.712875 -267.56836 -14.244281
-30.763008 -267.41931 -15.852354
-30.820673 -267.41345 -18.91621
-30.954277 -267.3064 -8.3107147
-35.11211 -267.33679 -9.3307352
-30.922363 -267.3269 -9.8774738
-30.862541 -267.39728 -15.249743
-35.73402 -267.19336 -9.0059252
-30.815945 -267.02817 -17.454979
-30.778629 -267.04343 -19.426329
-30.947067 -266.98291 -8.4707346
-30.837921 -266.96759 -14.189268
-30.859859 -266.86929 -14.534084
-33.247063 -266.86224 -16.094683
-30.751541 -266.91699 -16.972881
-30.770382 -266.91309 -19.133888
-31.52553 -266.75967 -7.4943762
-38.212914 -266.61356 -7.9842248
-30.849808 -266.69769 -15.36898
-30.74342 -266.63098 -17.342205
-30.7724 -266.6073 -18.285839
-33.056789 -266.45868 -7.352736
-31.998215 -266.40979 -7.3746338
-31.40242 -266.55273 -7.646883
-38.49118 -266.47699 -8.2880421
-35.757118 -266.5358 -8.2280807
-35.745178 -266.46527 -8.4765434
-35.115974 -266.47131 -8.5339279
-35.291721 -266.53394 -9.8112946
-30.845865 -266.47943 -12.106721
-32.270069 -266.43823 -13.446512
-32.739792 -266.41898 -16.800617
-32.197613 -266.3739 -7.3711739
-35.176796 -266.24207 -7.97646
-39.040981 -266.27838 -10.149061
-35.791195 -266.22864 -10.427464
-37.313675 -266.32834 -10.644109
-30.847834 -266.29706 -12.070103
-32.292011 -266.35046 -13.559685
-33.778095 -266.29926 -14.235703
-33.708939 -266.09927 -10.229676
-39.94146 -266.01276 -12.832541
-33.157936 -265.86987 -8.5247383
-30.867645 -265.81592 -9.3119497
-33.038151 -265.90698 -10.481066
-30.856777 -265.8038 -11.898746
-30.81035 -265.86673 -13.83386
-34.447838 -265.99603 -14.113897
-34.287422 -265.92236 -14.084511
-34.148338 -265.91769 -14.041995
-30.780407 -265.96762 -15.327215
-30.790382 -265.81543 -16.151409
-33.517162 -265.88138 -17.51421
-34.464012 -265.75912 -8.4313078
-34.339569 -265.69568 -8.8830833
-33.347565 -265.67224 -8.8223419
-32.67617 -265.78571 -9.4513044
-34.258514 -265.75977 -9.7379017
-34.582527 -265.61209 -10.858307
-30.832739 -265.69977 -12.60066
-30.777042 -265.77417 -14.161554
-30.786835 -265.77939 -15.003037
-34.082428 -265.73383 -17.542683
-30.758011 -265.77444 -17.420839
-30.733955 -265.75674 -17.917645
-33.857365 -265.62317 -18.260788
-32.841362 -265.7348 -18.34227
-30.715879 -265.78915 -19.463636
-39.240475 -265.43735 -7.7199359
-34.54372 -265.48181 -8.7380714
-32.996262 -265.4458 -9.768177
-33.03347 -265.5199 -10.035627
-34.325974 -265.44186 -10.912466
-33.033043 -265.50845 -11.970609
-33.930984 -265.58569 -13.252653
-33.324158 -265.43756 -13.850612
-33.285526 -265.5054 -14.681808
-34.0383 -265.46378 -16.689093
-32.987694 -265.47211 -17.703903
-35.896744 -265.39465 -7.8502498
-39.912186 -265.38367 -9.3817272
-34.087654 -265.33691 -9.9151649
-34.55912 -265.30536 -10.154165
-33.413666 -265.31534 -12.503183
-30.806282 -265.37451 -13.017504
-34.812897 -265.34772 -15.334855
-30.776962 -265.36218 -16.205801
-30.765507 -265.39331 -16.498497
-34.579475 -265.27515 -18.16296
-20.642521 -265.04074 -7.1898551
-20.317766 -265.07797 -7.1998391
-21.364038 -265.03058 -7.3937511
-34.779037 -265.10461 -7.5937219
-20.933325 -265.03336 -7.4901171
-35.698776 -265.04053 -8.2340851
-32.16098 -265.1868 -8.3947039
-31.576935 -265.17801 -8.5271511
-20.645729 -265.03131 -8.5198822
-20.253832 -265.05212 -8.4832668
-34.647305 -265.07059 -8.9040651
-35.668724 -265.16876 -9.0192156
-31.918808 -265.10391 -9.6429796
-32.346561 -265.06857 -11.474392
-30.775822 -265.12683 -11.434492
-33.254021 -265.03085 -11.849915
-33.819176 -265.06387 -12.384056
-32.169025 -265.0939 -13.153405
-33.615738 -265.01624 -16.77199
-30.697632 -265.03134 -17.072958
-30.827133 -265.19821 -19.062576
-23.781824 -264.8764 -7.3863468
-25.819675 -264.81976 -7.5182672
-24.593491 -264.8443 -7.456965
-23.163284 -264.84775 -7.7064071
-22.142387 -264.98334 -7.7964859
-25.66604 -264.81866 -8.3687115
-24.876064 -264.85297 -8.274437
-32.272484 -264.94226 -8.5918159
-25.159527 -264.8172 -8.5246811
-24.450268 -264.86322 -8.5332127
-35.783585 -264.9704 -8.6071959
-30.897449 -264.97061 -9.1103058
-32.311626 -264.9978 -9.3323259
-30.885429 -264.90442 -9.7569809
-27.902008 -264.89536 -9.6460819
-34.850819 -264.92026 -10.062063
-33.464211 -264.92624 -10.0572
-34.205292 -264.92184 -10.691517
-30.861223 -264.85956 -10.716721
-32.937321 -264.81549 -11.205282
-30.828062 -264.98334 -12.124401
-38.139282 -264.89215 -12.451349
-31.596798 -264.93573 -13.696011
-32.892914 -264.93808 -14.125484
-32.853027 -264.85217 -14.676264
-33.683369 -264.94708 -16.335739
-30.755714 -264.88498 -16.901756
-23.355703 -264.87253 -17.150585
-30.740208 -264.96881 -17.896603
-23.421299 -264.68896 -7.3490772
-22.766457 -264.63373 -7.2569489
-28.195652 -264.74393 -7.7762189
-29.283302 -264.69769 -7.9277072
-28.563259 -264.67157 -8.5032654
-23.129288 -264.76935 -8.6345196
-30.737509 -264.60953 -9.0709848
-32.523762 -264.64667 -10.83331
-33.498775 -264.73334 -11.214465
-33.380333 -264.74359 -11.84782
-30.775667 -264.64655 -12.087822
-20.821497 -264.60251 -12.647013
-30.796373 -264.75568 -12.831413
-32.666687 -264.66284 -14.683111
-30.836788 -264.63696 -14.670294
-21.654474 -264.60086 -16.446152
-33.306396 -264.66614 -16.951187
-24.636051 -264.60333 -17.018158
-23.30751 -264.6886 -17.093821
-30.754082 -264.78882 -17.234623
-23.322182 -264.65363 -17.41848
-30.39747 -264.59897 -8.1986628
-34.321358 -264.41541 -8.7563763
-34.441116 -264.45959 -8.9071655
-20.947908 -264.51389 -8.9558439
-27.658979 -264.4982 -9.1057262
-34.470776 -264.55188 -9.2579498
-20.781826 -264.42328 -9.6754799
-30.76441 -264.43738 -9.9576149
-26.283405 -264.46112 -11.335577
-25.861683 -264.45087 -11.360181
-22.823137 -264.43011 -11.233546
-32.512604 -264.59637 -12.113958
-39.757336 -264.52951 -12.299193
-33.468216 -264.55527 -12.344261
-29.728743 -264.40656 -16.383717
-30.735081 -264.52936 -17.097729
-24.416477 -264.59543 -17.270168
-30.742289 -264.50888 -17.422146
-25.851608 -264.50909 -17.883087
-24.608158 -264.56476 -18.013039
-31.21051 -264.47577 -18.908783
-30.79797 -264.36761 -7.5649929
-23.083481 -264.30801 -8.139946
-29.925409 -264.23486 -8.7716789
-26.062733 -264.30649 -8.6682501
-21.067122 -264.3909 -8.7677107
-30.969955 -264.36246 -8.9759932
-27.105543 -264.20197 -8.9513931
-23.053654 -264.28067 -8.990736
-22.524321 -264.36426 -8.8880968
-34.576576 -264.30832 -9.0527182
-30.835331 -264.27701 -9.0148439
-27.062969 -264.27695 -9.2603703
-24.211155 -264.26831 -9.2794781
-22.50766 -264.28748 -9.5019684
-20.641033 -264.38336 -9.4744511
-34.902237 -264.23785 -9.6457253
-24.15099 -264.25049 -9.781127
-33.4338 -264.22574 -9.879406
-21.446314 -264.32538 -9.8734875
-35.759178 -264.31754 -10.145856
-21.025578 -264.32648 -10.302679
-23.482956 -264.20267 -10.460304
-23.052263 -264.24164 -10.483871
-32.404697 -264.35873 -10.925122
-32.417664 -264.33771 -11.969891
-30.820261 -264.38446 -12.217182
-33.061623 -264.33255 -12.574747
-21.42934 -264.31537 -12.499389
-32.635197 -264.22556 -12.687166
-30.775213 -264.24115 -12.750231
-25.125504 -264.24249 -12.936373
-20.226921 -264.31699 -12.991394
-32.485657 -264.3331 -13.948416
-21.828499 -264.20947 -13.931095
-33.035564 -264.35907 -14.439833
-20.581375 -264.22067 -15.01971
-30.531614 -264.34528 -16.559635
-33.225273 -264.38992 -17.0662
-30.659489 -264.30774 -17.493513
-30.682852 -264.29651 -17.858358
-30.246538 -264.28516 -17.908333
-29.895489 -264.31442 -17.941174
-29.39316 -264.34827 -17.931515
-29.459707 -264.29163 -18.085184
-27.78187 -264.32468 -18.101246
-26.99095 -264.36414 -18.093803
-25.340715 -264.23468 -18.021313
-34.775349 -264.05139 -7.5621929
-27.20602 -264.14926 -7.7321601
-30.791313 -264.11707 -7.8604879
-30.83498 -264.13135 -8.3560305
-34.6567 -264.10553 -8.5405951
-27.137177 -264.10126 -8.5493412
-34.886127 -264.17291 -8.7284241
-26.251564 -264.11298 -8.7164164
-34.084843 -264.14279 -9.2495346
-33.910419 -264.12885 -9.3062038
-29.720612 -264.08066 -9.3271236
-28.258696 -264.08438 -9.3695669
-28.973951 -264.01843 -9.5521021
-26.163879 -264.13953 -9.6139078
-26.503197 -264.1395 -9.8663044
-26.115171 -264.11649 -9.8712988
-30.193903 -264.03796 -10.12505
-34.259575 -264.13791 -10.326952
-27.446152 -264.08469 -10.239163
-26.572559 -264.09109 -10.284556
-27.15831 -264.13678 -10.446261
-24.855906 -264.16061 -10.571572
-27.735579 -264.10864 -10.623807
-33.316532 -264.10016 -10.899525
-33.134327 -264.06128 -10.853886
-33.734108 -264.15546 -11.001131
-25.833788 -264.12915 -11.119688
-23.782955 -264.14154 -11.383258
-24.930368 -264.07373 -11.462733
-24.893658 -264.04318 -11.776762
-22.651842 -264.12573 -12.224289
-38.483963 -264.1207 -12.50458
-38.285477 -264.12695 -12.445508
-33.696159 -264.1413 -12.473837
-33.37595 -264.14883 -12.692482
-33.016552 -264.15518 -12.873405
-27.392254 -264.01297 -13.135452
-25.387466 -264.12903 -13.340008
-25.70623 -264.05463 -13.719704
-25.436613 -264.13812 -13.86463
-25.373642 -264.06656 -14.268058
-24.172754 -264.12036 -14.303287
-25.103464 -264.06839 -14.855156
-24.814289 -264.03903 -14.883307
-22.185377 -264.06699 -15.487502
-20.63459 -264.11389 -15.491074
-30.839195 -264.0303 -18.142914
-30.251831 -264.19418 -18.132441
-29.860722 -264.15887 -18.082466
-26.336544 -264.15771 -18.129864
-31.115044 -264.17261 -18.685978
-36.212234 -263.81561 -7.5623288
-34.561371 -263.88531 -7.5216241
-32.859528 -263.89673 -7.4218898
-30.16452 -263.88959 -8.960844
-30.126957 -263.98193 -9.4408703
-30.178448 -263.96051 -10.127958
-29.85915 -263.9574 -10.55835
-23.02305 -263.84995 -11.305397
-34.005028 -263.81613 -11.690693
-29.334213 -263.82898 -12.057373
-29.042341 -263.84271 -12.049381
-27.436565 -263.91721 -12.145698
-27.07457 -263.82346 -12.515393
-26.61599 -263.88147 -12.445839
-30.071157 -263.90494 -12.686243
-27.427576 -263.99249 -12.632538
-30.712296 -263.84088 -12.874756
-29.326534 -263.95294 -13.056417
-29.041193 -263.95544 -13.108347
-27.390211 -263.98767 -13.003965
-30.097954 -263.8764 -13.830227
-28.685787 -263.92303 -13.904198
-28.282627 -263.96829 -13.856869
-30.70577 -263.85861 -14.034142
-29.737179 -263.86755 -14.186316
-29.101711 -263.90222 -14.091491
-27.863148 -263.95844 -14.168804
-30.109949 -263.87164 -14.272749
-28.075954 -263.93903 -14.323742
-27.761261 -263.979 -14.240336
-26.545399 -263.94818 -14.215567
-29.306305 -263.89447 -14.661776
-28.60214 -263.8999 -15.041166
-28.17338 -263.90274 -15.084255
-29.202446 -263.854 -15.353905
-26.055445 -263.8631 -15.482396
-25.734676 -263.90143 -15.461422
-25.398287 -263.897 -15.888448
-24.136993 -263.93231 -15.916943
-24.619045 -263.93787 -16.097801
-25.090145 -263.98712 -16.45636
-26.593636 -263.84882 -18.183586
-27.436199 -263.81854 -18.665596
-26.187431 -263.91602 -18.694958
-26.346462 -263.8718 -18.872112
-25.796709 -263.88004 -18.851295
-25.112431 -263.93231 -20.902706
-26.095751 -263.79095 -7.3888221
-30.767635 -263.77887 -7.7349348
-26.880962 -263.61441 -7.6189189
-38.209587 -263.70441 -7.8700099
-30.346645 -263.69647 -8.1393156
-26.830189 -263.61597 -8.1335468
-39.066498 -263.73206 -8.4491539
-26.677418 -263.60266 -8.818862
-30.780024 -263.73441 -9.047267
-33.653015 -263.77847 -9.2763901
-30.754869 -263.72748 -9.3262072
-23.256981 -263.72876 -9.555788
-32.776928 -263.60529 -10.138157
-33.559898 -263.76031 -10.634975
-38.969273 -263.67139 -12.949259
-22.417595 -263.74506 -13.17775
-27.446383 -263.7854 -15.644732
-29.008236 -263.75446 -15.930738
-28.784382 -263.76221 -15.992758
-30.688734 -263.69891 -16.078533
-28.215656 -263.73367 -16.10553
-30.569504 -263.68356 -18.470472
-28.21319 -263.78476 -18.542015
-28.966904 -263.74091 -18.609238
-28.281429 -263.77036 -18.817982
-30.823166 -263.56238 -8.2920294
-30.727905 -263.44702 -8.2814007
-26.748091 -263.5741 -8.5109177
-30.822647 -263.45374 -8.9505072
-30.614178 -263.49774 -8.9654942
-30.449837 -263.44019 -8.9411411
-26.913841 -263.58069 -9.0340948
-26.966404 -263.58093 -9.3184357
-30.566521 -263.42914 -9.895256
-26.701914 -263.57831 -9.8352051
-33.366127 -263.57901 -10.258141
-33.70874 -263.59491 -10.783176
-30.708084 -263.49377 -12.978264
-39.825409 -263.54996 -14.614882
-30.688585 -263.59256 -14.76753
-26.954542 -263.45023 -14.68113
-23.4258 -263.47675 -14.791471
-23.331516 -263.53052 -14.975769
-26.723902 -263.46902 -15.055412
-23.035275 -263.58008 -15.881923
-31.778345 -263.38235 -7.4545941
-23.732794 -263.31641 -7.7058082
-33.660561 -263.37686 -9.3633595
-30.651783 -263.39322 -10.833102
-30.675331 -263.37262 -11.926586
-30.500086 -263.3566 -11.944675
-33.733994 -263.28607 -12.030117
-20.154972 -263.23566 -12.914642
-30.529015 -263.32632 -14.103013
-30.589474 -263.32144 -14.741776
-30.301113 -263.2865 -14.976883
-24.275942 -263.33588 -16.717403
-38.541241 -263.01041 -7.9525571
-23.871136 -263.05743 -12.535547
-26.600502 -262.85754 -7.6153841
-24.040997 -262.98096 -7.9086699
-35.77264 -262.82269 -8.131855
-25.727266 -262.90353 -8.0580568
-39.078781 -262.93628 -8.9734383
-35.215996 -262.93085 -9.7464495
-23.888302 -262.64819 -7.8900728
-39.417503 -262.61859 -8.0695457
-38.211479 -262.71973 -8.210392
-23.173836 -262.73441 -8.27141
-23.754656 -262.69458 -8.6625481
-39.929581 -262.63025 -9.076519
-35.231064 -262.76016 -9.4613209
-39.038269 -262.73608 -9.8445053
-37.849609 -262.68808 -10.301301
-38.161957 -262.64478 -10.456795
-22.867495 -262.61179 -12.480711
-22.119797 -262.77765 -12.549571
-22.096405 -262.71826 -13.212436
-25.659996 -262.6214 -13.705147
-25.491776 -262.63525 -13.819849
-24.146769 -262.62274 -14.132131
-23.769611 -262.66318 -14.661087
-21.715298 -262.5881 -7.246182
-26.495161 -262.59265 -7.4963531
-26.262486 -262.47211 -7.5756369
-39.83606 -262.4693 -8.2352047
-39.724648 -262.50964 -10.516012
-21.013186 -262.44016 -13.401199
-25.100931 -262.58221 -15.01044
-23.994793 -262.56561 -18.707064
-26.606255 -262.48846 -20.588037
-24.591185 -262.45874 -23.795094
-21.407539 -262.30453 -7.1843882
-26.518436 -262.34311 -7.2743411
-33.131897 -262.3656 -7.6239128
-38.726654 -262.32031 -8.5863895
-24.216486 -262.36069 -8.6881762
-39.026764 -262.37552 -8.8353653
-39.664845 -262.34442 -12.724989
-23.527607 -262.39523 -12.624769
-39.795601 -262.34955 -12.845434
-22.671391 -262.24921 -14.117335
-32.665169 -262.0025 -7.4030752
-26.196428 -262.19781 -7.724865
-27.191822 -262.04977 -9.6259098
-35.960194 -262.13745 -10.103626
-20.169949 -262.16275 -13.297077
-25.832027 -262.099 -14.158141
-24.530378 -262.12531 -14.491093
-25.729115 -262.0799 -16.546055
-28.344227 -261.81815 -7.2368579
-21.830009 -261.95392 -7.2561831
-20.938774 -261.81464 -7.2559109
-34.252876 -261.91858 -7.5435252
-23.015112 -261.83936 -7.8455868
-35.231491 -261.85577 -8.4525261
-25.543507 -261.84686 -12.056749
-24.924109 -261.8913 -12.997149
-38.625992 -261.91605 -13.083195
-25.32011 -261.84784 -13.747808
-23.767326 -261.8949 -14.547182
-24.41581 -261.86752 -15.300338
-25.928642 -261.85681 -16.881256
-24.490223 -261.87701 -18.016335
-26.729408 -261.98975 -20.291153
-28.964535 -261.75616 -7.2331738
-20.320318 -261.76608 -7.2491999
-38.177399 -261.77264 -7.6761842
-34.639305 -261.65616 -7.7125549
-25.929466 -261.79523 -7.7503462
-35.261932 -261.71835 -7.840713
-22.439177 -261.61465 -7.8063149
-35.22752 -261.78238 -8.2272015
-34.959019 -261.66211 -8.5091209
-26.921211 -261.74039 -9.6951675
-39.045654 -261.65344 -9.8306885
-20.68137 -261.6441 -12.695465
-20.913855 -261.78159 -13.682151
-39.715271 -261.72125 -13.928503
-25.95293 -261.70404 -13.875392
-24.891541 -261.65323 -15.742732
-25.325661 -261.68845 -16.194828
-20.92186 -261.4632 -7.1854782
-31.449566 -261.49622 -7.2435069
-31.042109 -261.51028 -7.240068
-26.5116 -261.47305 -7.3152928
-39.885899 -261.48126 -8.0880289
-35.766762 -261.57373 -8.1020536
-38.760086 -261.47647 -8.479599
-35.064217 -261.59906 -8.4969912
-27.06057 -261.41418 -9.2163963
-35.088486 -261.57587 -9.4908848
-28.036926 -261.43277 -9.8489256
-38.715309 -261.45593 -10.538316
-34.065468 -261.51898 -10.638553
-24.926361 -261.58621 -11.311891
-25.435635 -261.58997 -12.353871
-21.131355 -261.58167 -12.814352
-25.013412 -261.55548 -13.176249
-22.681486 -261.52811 -20.33086
-38.647446 -261.27707 -7.3404522
-29.480312 -261.34326 -7.214663
-38.967857 -261.38855 -7.8140879
-27.14975 -261.37979 -9.1065416
-27.24074 -261.27725 -10.038551
-35.890213 -261.39807 -10.546952
-21.305717 -261.31738 -12.212585
-24.933514 -261.3092 -12.523819
-39.141613 -261.29816 -12.978576
-24.866936 -261.30948 -13.687263
-21.443951 -261.34177 -13.620298
-23.475571 -261.34537 -15.65075
-24.051243 -261.28131 -17.691261
-20.983017 -261.07202 -7.1458998
-37.373089 -261.11609 -7.368639
-37.05191 -261.02948 -7.3603849
-31.02622 -261.11005 -7.2134199
-28.914143 -261.10147 -7.2177458
-39.129322 -261.12201 -8.2171288
-27.819481 -261.11896 -9.4068699
-21.784744 -261.17432 -10.301928
-37.157776 -261.03247 -10.578866
-35.813354 -261.03781 -10.569075
-34.137512 -261.01614 -10.513256
-24.312901 -261.13702 -10.704418
-21.159689 -261.14697 -10.882522
-20.275875 -261.12042 -12.073363
-21.982498 -261.01227 -13.313969
-21.199902 -261.03519 -14.629395
-22.03413 -261.12427 -18.4874
-28.156979 -260.92548 -7.1323881
-26.968935 -260.92535 -7.243556
-25.376711 -260.97681 -7.6930318
-23.032471 -260.86304 -7.907691
-24.564529 -260.97015 -9.7578955
-27.513651 -260.90845 -10.01975
-24.142326 -260.86276 -10.333032
-26.861237 -260.98117 -10.507203
-25.346891 -260.99933 -10.691764
-21.086216 -260.93515 -10.771342
-20.671833 -260.9007 -11.095123
-24.89031 -260.93381 -11.515347
-23.937788 -260.98669 -11.67953
-24.881493 -260.99042 -14.135611
-25.920509 -260.92197 -14.208123
-25.867413 -260.90106 -15.549952
-25.897079 -260.86539 -15.617907
-29.019888 -260.89673 -16.897884
-29.794615 -260.63055 -7.0737638
-28.012775 -260.77206 -7.1726851
-26.707577 -260.60358 -7.549283
-22.1378 -260.7243 -7.457345
-22.143303 -260.65552 -7.6936841
-24.08519 -260.64526 -7.8997998
-23.031475 -260.66833 -8.3004255
-24.054701 -260.73846 -8.6718159
-23.991627 -260.68369 -8.9655418
-28.469948 -260.75482 -9.48423
-27.769291 -260.70331 -9.7830381
-24.20945 -260.62595 -10.290392
-38.423752 -260.75519 -10.538298
-28.534531 -260.6236 -10.865073
-24.874432 -260.64343 -11.187555
-27.903168 -260.65475 -11.635683
-20.031189 -260.61673 -13.43251
-25.833954 -260.69693 -15.220656
-25.782558 -260.65955 -16.038155
-28.908623 -260.70798 -16.623343
-29.676975 -260.70502 -17.084446
-29.365253 -260.70068 -17.739243
-31.352924 -260.57263 -7.178699
-29.716784 -260.5462 -7.1067591
-21.797058 -260.57648 -7.1715641
-20.733994 -260.44034 -7.083107
-25.672779 -260.50281 -7.3036189
-22.123791 -260.53131 -7.4913278
-26.65716 -260.53226 -7.8782272
-23.245401 -260.44952 -8.1273117
-26.296513 -260.50555 -8.4701729
-23.862785 -260.49402 -8.8861046
-24.447704 -260.59219 -10.122662
-22.881248 -260.53308 -10.419176
-27.906654 -260.59006 -11.350003
-23.937057 -260.52686 -11.345028
-22.842474 -260.5174 -11.21842
-25.123459 -260.58588 -12.158871
-22.697199 -260.50238 -12.054885
-24.999241 -260.55515 -12.883917
-25.117355 -260.5083 -13.006802
-24.510809 -260.54379 -13.623579
-25.917564 -260.59164 -15.010777
-20.435667 -260.58658 -15.558189
-26.880934 -260.54303 -15.914537
-26.650671 -260.50107 -16.123486
-27.513668 -260.59924 -16.545244
-27.134085 -260.52695 -17.148779
-29.375488 -260.56912 -17.362328
-26.695019 -260.48947 -17.263367
-29.066175 -260.50433 -17.907166
-26.661877 -260.42328 -22.190216
-24.035118 -260.35364 -7.8700662
-23.916983 -260.37863 -8.3623095
-23.625111 -260.26205 -8.4726772
-23.205379 -260.39117 -8.6484299
-27.090885 -260.30676 -8.9172754
-26.398186 -260.27191 -8.9759645
-23.05887 -260.37262 -8.946516
-23.85973 -260.39859 -9.1902857
-23.749413 -260.23459 -9.335042
-24.007942 -260.29758 -10.962395
-26.664169 -260.35281 -12.073859
-25.402338 -260.31888 -12.192545
-39.952461 -260.284 -12.318279
-24.223156 -260.3266 -13.543116
-21.394911 -260.21991 -15.177231
-29.346235 -260.33163 -17.591146
-28.666626 -260.28674 -17.819273
-23.634972 -260.10562 -7.9302192
-23.394098 -260.18143 -7.8742008
-26.958742 -260.18909 -9.1385899
-23.728668 -260.06192 -9.3311863
-28.112886 -260.15295 -9.7586575
-39.332924 -260.18683 -10.532292
-23.292728 -260.198 -10.657112
-22.917017 -260.04996 -10.944429
-27.507895 -260.08569 -11.059414
-23.849052 -260.09891 -11.488857
-21.286098 -260.15475 -11.481724
-25.565525 -260.09109 -13.661213
-25.327579 -260.0434 -15.025805
-26.602444 -260.15628 -17.435102
-29.326252 -260.12177 -17.974781
-31.149742 -260.12631 -18.342016
-24.713085 -260.13394 -18.937279
-31.003857 -271.75223 -19.549372
-34.398491 -271.08032 -17.988825
-33.775688 -270.7251 -17.973892
-30.908678 -270.07944 -19.297276
-37.623631 -269.21286 -8.7167664
-36.078697 -269.22357 -8.7804956
-35.255154 -269.03543 -7.9069352
-32.200191 -269.1741 -7.8297892
-33.45396 -269.09943 -8.1556759
-35.30537 -269.00946 -8.3091927
-38.756718 -269.00085 -8.5872192
-32.190956 -269.13327 -8.6579628
-38.568062 -269.03522 -9.0277014
-37.592098 -269.19849 -9.3817167
-38.220619 -269.08844 -9.483057
-36.022903 -269.16034 -9.8122044
-36.119781 -269.14569 -10.141603
-38.87085 -268.90912 -8.508852
-31.749237 -268.90485 -9.4305925
-33.77774 -268.87152 -9.7765865
-38.251038 -268.98419 -10.272202
-31.634569 -268.84653 -13.654657
-34.663895 -268.85703 -13.952621
-32.850494 -268.93436 -13.895929
-34.355885 -268.84848 -14.697676
-31.27644 -268.85696 -16.6693
-34.434303 -268.91714 -17.513069
-31.368147 -268.88831 -17.440224
-33.99688 -268.79285 -8.2873678
-33.132507 -268.73611 -13.845169
-34.218399 -268.63849 -14.07464
-39.610771 -268.61963 -14.97604
-32.38607 -268.62878 -15.252878
-34.204521 -268.68134 -16.958397
-33.347458 -268.7876 -17.552906
-34.117733 -268.69312 -17.766554
-37.585625 -268.50314 -8.0114145
-31.503918 -268.43579 -8.8854237
-32.655891 -268.48734 -9.1084127
-32.233429 -268.50925 -9.107523
-35.417488 -268.49066 -10.108044
-34.660545 -268.40775 -10.894518
-33.486641 -268.42505 -11.076976
-31.951517 -268.4892 -11.038138
-34.147621 -268.44672 -11.339016
-32.5863 -268.51352 -11.238854
-32.502106 -268.54056 -14.061665
-33.693607 -268.44241 -14.232103
-31.579597 -268.4035 -14.43196
-34.604561 -268.4729 -14.678722
-37.414459 -268.56573 -15.280066
-34.52581 -268.47314 -16.632401
-33.809601 -268.38351 -7.5516019
-36.169533 -268.30511 -10.557091
-34.85577 -268.36111 -10.876036
-34.491714 -268.37982 -10.958578
-35.43737 -268.22101 -11.293952
-36.888748 -268.23059 -11.694388
-34.543999 -268.21582 -12.609826
-32.334679 -268.37659 -12.713093
-31.545605 -268.38062 -12.956205
-33.511585 -268.29489 -13.411806
-31.796967 -268.35571 -13.749332
-31.728802 -268.36877 -14.26752
-33.689934 -268.21829 -15.361592
-38.493999 -268.2359 -15.446413
-32.717255 -268.23578 -15.431269
-31.881063 -268.06326 -7.4284582
-39.32584 -268.17792 -10.991792
-31.436762 -268.12341 -12.260667
-31.433237 -268.18329 -12.779175
-38.194141 -268.1449 -13.055531
-37.37011 -268.13992 -13.096989
-36.709351 -268.16766 -13.091557
-37.741974 -268.07932 -13.33855
-34.691376 -268.16852 -13.396496
-24.313423 -268.0817 -14.308556
-36.982239 -268.09158 -14.647717
-39.746208 -268.02429 -14.937777
-32.835403 -268.14142 -15.913404
-34.549706 -268.05408 -16.033571
-34.1297 -268.08331 -16.029518
-33.803856 -268.09235 -16.089245
-32.69363 -268.14496 -16.159163
-34.083107 -268.00937 -18.107304
-31.8141 -268.09952 -18.10812
-30.849173 -268.07535 -18.302162
-34.991989 -267.88724 -7.4878011
-31.340197 -267.96393 -10.678486
-31.284983 -267.93246 -11.101126
-38.394943 -267.9924 -12.169092
-31.013262 -267.91235 -13.310837
-39.397713 -267.81573 -13.766054
-34.828293 -267.89062 -14.38307
-31.080423 -267.86182 -15.0744
-38.561352 -267.93045 -15.512366
-39.769066 -267.85617 -15.688525
-39.338276 -267.83521 -15.730833
-38.010101 -267.8793 -16.031433
-30.872715 -267.91089 -17.089169
-38.953396 -267.81082 -18.238871
-27.16254 -267.91525 -18.367327
-38.714172 -267.80569 -18.475975
-38.954857 -267.7092 -7.7401109
-39.201923 -267.66174 -8.2266741
-39.063854 -267.65387 -8.347393
-39.058167 -267.69116 -8.5339031
-35.905201 -267.65884 -8.5050182
-39.210102 -267.7753 -9.9594173
-38.979836 -267.66888 -9.9271669
-38.992859 -267.67426 -10.13477
-30.897261 -267.77597 -10.117599
-34.944569 -267.7886 -11.589563
-35.315224 -267.76291 -11.759985
-35.068287 -267.76965 -11.747652
-35.24353 -267.75858 -12.304135
-38.725697 -267.77734 -13.579885
-34.997932 -267.69516 -14.335085
-35.136833 -267.64838 -15.012848
-39.806801 -267.76718 -18.161533
-36.11338 -267.42462 -10.749747
-38.995842 -267.56158 -13.096452
-39.025608 -267.53409 -13.87538
-30.83462 -267.43735 -18.60755
-30.800751 -267.50616 -19.436863
-39.564079 -267.22394 -8.4448605
-30.92688 -267.27911 -9.3325043
-36.547741 -267.22113 -10.989313
-30.894848 -267.29993 -13.27102
-30.767334 -267.20926 -14.894962
-37.686226 -267.03406 -10.908461
-30.782358 -267.09235 -18.239204
-30.762875 -267.02274 -19.720383
-36.965584 -266.87558 -7.9764662
-33.146351 -266.91458 -18.078911
-30.818258 -266.99194 -18.664392
-35.068901 -266.70728 -7.5848718
-38.275078 -266.65622 -8.5114536
-30.842484 -266.74963 -13.334085
-30.825085 -266.60492 -14.160035
-30.802364 -266.65625 -18.537474
-39.156326 -266.46475 -7.8771229
-34.735073 -266.5343 -8.7082376
-35.284988 -266.55417 -9.3407059
-38.925613 -266.51929 -9.7134581
-39.122292 -266.44479 -10.520176
-34.11948 -266.43683 -13.428373
-33.251747 -266.58298 -15.943916
-34.340897 -266.49091 -16.195629
-30.801073 -266.55124 -18.845428
-38.182339 -266.23468 -7.9853401
-30.874863 -266.29651 -8.1444569
-39.038254 -266.32886 -9.8059387
-30.812735 -266.23639 -14.124752
-33.921417 -266.32733 -14.447059
-30.790565 -266.21881 -14.987347
-33.997654 -266.26935 -17.710693
-30.75725 -266.27673 -19.220844
-33.092106 -266.09464 -8.4670219
-30.884367 -266.16003 -9.2937965
-33.035896 -266.06909 -9.4657555
-30.820698 -266.14709 -13.321574
-34.359703 -266.10736 -14.833187
-34.502144 -265.89737 -8.3204355
-33.150944 -265.80475 -8.6338921
-37.256996 -265.97159 -10.277121
-33.509422 -265.84949 -13.676624
-30.815281 -265.80121 -14.052912
-30.820942 -265.86505 -14.599775
-31.913349 -265.87982 -14.923823
-30.818583 -265.89999 -16.477446
-34.920967 -265.66211 -7.770185
-35.911232 -265.79504 -7.8400321
-30.87254 -265.78979 -8.143465
-34.212326 -265.76974 -8.4661436
-33.503521 -265.74677 -9.8356647
-32.278397 -265.73346 -11.57222
-32.580544 -265.72098 -11.716068
-34.304535 -265.67786 -13.040495
-33.846176 -265.62186 -16.087076
-33.457405 -265.75775 -16.246403
-30.755867 -265.75537 -17.112553
-39.210377 -265.5976 -8.3358431
-39.180347 -265.49411 -8.2438927
-30.881424 -265.43616 -8.4788895
-34.646591 -265.50293 -9.1776009
-30.815262 -265.47882 -12.064516
-30.770775 -265.45404 -14.142159
-30.712107 -265.48645 -14.912041
-34.677811 -265.55853 -17.130466
-32.515049 -265.38568 -8.6133461
-35.703136 -265.25659 -8.8568077
-34.265697 -265.32523 -9.2771807
-32.716621 -265.38953 -9.4042454
-30.83606 -265.37384 -10.052668
-37.96629 -265.27908 -10.281801
-34.879448 -265.21228 -11.711411
-33.763248 -265.36441 -12.396739
-32.378632 -265.2435 -12.340407
-32.473694 -265.28357 -12.589986
-33.24247 -265.21719 -12.946295
-31.800098 -265.29315 -13.039406
-33.16515 -265.26736 -13.449872
-30.788826 -265.32391 -15.945776
-34.555389 -265.39575 -16.269989
-34.208481 -265.39215 -18.371944
-32.269997 -265.07227 -8.3406029
-38.137489 -265.18692 -8.6103401
-31.909388 -265.01636 -8.6267109
-21.00823 -265.19095 -9.1228905
-31.995407 -265.01547 -9.5520506
-34.711136 -265.13837 -10.066502
-32.698593 -265.01971 -10.042864
-33.816929 -265.03882 -10.939052
-33.300587 -265.06982 -12.199873
-38.614021 -265.01569 -12.686666
-33.290207 -265.142 -12.927499
-30.735575 -265.08942 -16.587593
-33.232487 -265.1875 -18.372112
-30.932766 -264.99277 -7.5956802
-23.141975 -264.85049 -7.5907822
-36.7341 -264.9213 -7.7246032
-30.952831 -264.9718 -7.734406
-22.498034 -264.97345 -7.934803
-26.163017 -264.80829 -8.198925
-23.518728 -264.86743 -8.3032007
-23.382431 -264.84628 -8.2585812
-23.060299 -264.95792 -8.3128138
-22.571907 -264.97052 -8.2496414
-25.302092 -264.85327 -8.4348335
-24.887047 -264.83249 -8.4844933
-24.071243 -264.89444 -8.4867973
-23.884697 -264.88693 -8.5047894
-22.155796 -264.99097 -8.4244232
-21.793121 -264.99689 -8.439352
-31.975128 -264.91156 -8.8468885
-21.822165 -264.87915 -8.9360514
-21.235422 -264.91592 -8.8953037
-34.28149 -264.99158 -9.2528877
-30.83672 -264.94598 -9.2673187
-34.826118 -264.83313 -9.5674295
-22.040426 -264.90848 -9.5241127
-34.844215 -264.81674 -9.6408806
-30.91116 -264.85504 -11.000454
-33.735809 -264.92535 -13.382356
-33.085098 -264.99146 -13.6569
-30.840767 -264.83246 -14.986976
-30.781685 -264.98328 -15.91985
-30.707039 -264.97272 -18.188099
-30.714212 -264.95557 -19.0737
-33.482002 -264.7016 -7.4699178
-30.304211 -264.66415 -7.5545402
-29.40683 -264.68262 -7.6702671
-27.740623 -264.72552 -7.7927909
-38.490837 -264.79477 -7.8049798
-38.567429 -264.77966 -8.1638241
-38.978741 -264.72858 -8.330987
-35.860298 -264.78067 -8.2121391
-27.149948 -264.70367 -8.2910576
-30.844391 -264.69287 -8.5078869
-33.70116 -264.70422 -8.7285347
-26.977673 -264.64392 -8.9663048
-28.164326 -264.6048 -9.2783442
-27.170338 -264.68103 -9.7346516
-32.8339 -264.62946 -10.369827
-21.337564 -264.6897 -11.279504
-31.547081 -264.74576 -11.704052
-34.3395 -264.72348 -12.025118
-34.204754 -264.69797 -13.078968
-34.133854 -264.77203 -14.368633
-34.265041 -264.60901 -14.896233
-21.677809 -264.66571 -16.371521
-30.713581 -264.60013 -16.59478
-23.159834 -264.62894 -17.030863
-39.195263 -264.57651 -7.780899
-30.374516 -264.45526 -7.8792381
-39.527596 -264.47552 -8.5285997
-30.365908 -264.54425 -8.479908
-22.118885 -264.40442 -9.1525316
-34.16927 -264.4653 -9.4231815
-23.690228 -264.45804 -9.4340239
-30.757992 -264.50647 -10.542456
-32.156097 -264.55652 -10.644874
-32.254208 -264.41302 -10.893906
-26.685383 -264.47751 -10.925312
-34.418018 -264.49463 -12.571956
-34.195503 -264.54791 -12.517204
-21.806244 -264.49335 -12.4522
-34.487461 -264.47021 -13.06563
-30.690674 -264.45551 -15.423407
-33.55056 -264.4386 -16.497223
-27.048109 -264.53445 -16.638115
-25.39077 -264.59753 -16.912626
-28.283319 -264.44296 -17.351978
-26.056698 -264.52634 -17.267834
-27.028513 -264.51611 -17.417852
-25.038139 -264.53271 -17.764627
-30.721138 -264.504 -17.899723
-27.373478 -264.42477 -17.937723
-26.989851 -264.46948 -17.864132
-26.629253 -264.46713 -17.917938
-30.841166 -264.50671 -18.109919
-30.867172 -264.46469 -19.105881
-21.261719 -264.35162 -7.2699718
-30.369062 -264.22958 -7.9135499
-38.330929 -264.39645 -8.3520603
-30.771683 -264.22186 -8.3134136
-22.487885 -264.32831 -9.1066027
-22.141251 -264.34564 -9.1115494
-21.030022 -264.36353 -9.1931334
-39.412052 -264.27649 -9.3364353
-30.849737 -264.31989 -9.2325754
-22.260643 -264.32544 -9.3300619
-22.880522 -264.30951 -9.4282131
-20.148741 -264.3924 -9.4586926
-23.720989 -264.27582 -9.7921333
-22.104862 -264.30685 -9.6717663
-24.276596 -264.20557 -9.967144
-20.652056 -264.35681 -9.8863249
-20.587629 -264.36673 -9.9397125
-21.933558 -264.30255 -10.076057
-21.773623 -264.29779 -10.277075
-30.842648 -264.30582 -10.403606
-22.191505 -264.31171 -10.559624
-32.29221 -264.3566 -10.793089
-24.686954 -264.20007 -10.928001
-23.938215 -264.22012 -11.003304
-20.572922 -264.34061 -11.00127
-22.911983 -264.26318 -11.35356
-20.12282 -264.28607 -11.365602
-29.373352 -264.2084 -11.446359
-34.336067 -264.38428 -12.402201
-20.021339 -264.33755 -12.528364
-34.17601 -264.28232 -13.547893
-32.576702 -264.31033 -14.07528
-30.636511 -264.33905 -14.201168
-30.605427 -264.25262 -14.856771
-30.261877 -264.31802 -16.682693
-29.660934 -264.37756 -16.782309
-30.537321 -264.33044 -16.972937
-30.712055 -264.32364 -17.114346
-30.652351 -264.3609 -17.358219
-28.570391 -264.34589 -17.931396
-23.024578 -264.36609 -17.943871
-28.866983 -264.29565 -18.090031
-26.687721 -264.23813 -18.094223
-30.854134 -264.19464 -7.689796
-39.482475 -264.16504 -8.3179665
-39.068787 -264.18466 -9.0794573
-28.674278 -264.04492 -9.0855179
-28.252445 -264.09869 -9.0308857
-27.930187 -264.11218 -9.0741816
-39.103424 -264.18234 -9.20786
-33.559685 -264.15845 -9.3033209
-29.327192 -264.03351 -9.2665749
-25.570126 -264.1781 -9.3418894
-25.077179 -264.19287 -9.2605419
-29.726299 -264.02036 -9.4755249
-29.050718 -264.02655 -9.7456493
-29.410299 -264.03717 -9.8214188
-24.846533 -264.18295 -10.144365
-28.919716 -264.03958 -10.25062
-25.688332 -264.1384 -10.497484
-29.404543 -264.01691 -10.864879
-27.891855 -264.05194 -11.025366
-26.132915 -264.12231 -11.099562
-27.172979 -264.06583 -11.376813
-23.505112 -264.16046 -11.349089
-26.102587 -264.01837 -11.754371
-25.312359 -264.01001 -11.86615
-23.841507 -264.13947 -11.862354
-23.511467 -264.08163 -11.805469
-25.292751 -264.02655 -12.227596
-30.8013 -264.06476 -13.474379
-25.111389 -264.09662 -13.449424
-27.110294 -264.0545 -13.809284
-26.524763 -264.03665 -13.897259
-25.107065 -264.11035 -13.825704
-23.460384 -264.18549 -14.094902
-26.149858 -264.03287 -14.320335
-27.171371 -264.00366 -14.538733
-23.425541 -264.10669 -14.527889
-24.609459 -264.0907 -14.999393
-23.6299 -264.13681 -14.977476
-21.118147 -264.18567 -16.363775
-30.339493 -263.85938 -7.7479329
-35.782089 -263.81183 -7.8856502
-35.816422 -263.81631 -8.2516479
-32.760258 -263.87759 -8.7928753
-29.764648 -263.89713 -8.7645006
-27.375076 -263.96039 -8.7587032
-33.313263 -263.93872 -8.9951735
-33.318565 -263.87793 -10.162103
-23.376472 -263.82919 -10.351089
-29.758734 -263.97372 -10.654572
-28.902775 -263.98187 -10.878616
-29.373085 -263.85065 -11.550866
-27.175245 -263.92896 -11.459543
-26.173626 -263.97375 -11.741823
-28.115908 -263.88617 -12.106134
-33.520069 -263.92041 -12.240988
-29.765392 -263.81616 -12.288639
-26.506874 -263.92108 -12.23866
-29.673321 -263.90717 -13.019558
-27.775269 -263.98816 -13.049502
-29.439421 -263.90009 -13.366398
-27.80662 -263.97546 -13.348541
-27.869654 -263.9754 -13.589426
-27.837519 -263.96326 -13.858479
-28.19397 -263.93292 -14.194893
-27.750805 -263.92694 -14.505812
-29.675879 -263.88348 -15.009613
-27.426031 -263.84534 -15.346502
-24.190207 -263.95105 -15.519575
-25.12434 -263.8848 -15.832525
-28.942839 -263.86478 -16.507607
-28.519205 -263.82202 -16.503122
-28.829828 -263.82697 -18.077866
-31.113537 -263.83063 -18.353258
-24.883644 -263.92453 -18.75975
-27.247284 -263.83163 -18.852211
-27.207602 -263.75934 -7.4961638
-35.849987 -263.78235 -8.4643154
-26.950897 -263.76361 -8.5733938
-39.217606 -263.70865 -8.7157936
-34.004051 -263.7424 -8.7494173
-30.831223 -263.60867 -8.9626293
-27.079163 -263.68396 -8.9001389
-26.75737 -263.66025 -9.3909407
-30.82378 -263.74615 -9.72015
-23.08329 -263.74829 -9.7534332
-33.112789 -263.74121 -9.9680405
-23.352171 -263.73837 -10.193189
-33.959206 -263.68427 -10.393776
-34.041603 -263.71008 -10.424688
-23.401909 -263.70145 -10.426038
-30.102234 -263.74918 -11.487144
-23.04892 -263.69263 -11.742898
-27.05703 -263.75085 -12.119089
-34.036201 -263.75928 -12.444512
-23.035946 -263.63474 -13.487431
-22.966892 -263.62689 -14.771576
-29.754654 -263.7395 -15.315847
-28.219954 -263.79266 -15.446832
-22.991543 -263.60419 -15.838959
-27.611767 -263.79504 -16.149431
-28.752987 -263.76968 -18.109451
-28.127968 -263.75793 -18.213543
-30.230053 -263.69727 -18.611355
-30.676853 -263.46646 -7.4157901
-26.947481 -263.5965 -7.7385802
-30.376051 -263.48828 -8.155674
-26.958412 -263.58301 -8.1725903
-30.40163 -263.44254 -8.712327
-30.494087 -263.42307 -9.3058109
-26.725409 -263.54053 -9.2953377
-30.5369 -263.43207 -9.5554028
-34.139069 -263.479 -11.556458
-26.912823 -263.51413 -11.783474
-23.583647 -263.57608 -12.363625
-23.246367 -263.51562 -13.146839
-26.597893 -263.47223 -13.652969
-26.620384 -263.47101 -14.26441
-26.741903 -263.45349 -14.571829
-30.60527 -263.4501 -15.321774
-26.673794 -263.40479 -15.710555
-38.52282 -263.25711 -7.744535
-20.06842 -263.30359 -8.2991362
-20.089317 -263.34378 -8.5606918
-30.554436 -263.35892 -11.480855
-23.722876 -263.33261 -12.607689
-30.335024 -263.33374 -13.112474
-30.319712 -263.34866 -13.364077
-30.686272 -263.31152 -13.424341
-30.690887 -263.28888 -14.310717
-30.313393 -263.28842 -14.576377
-24.570988 -263.39465 -14.611073
-30.321596 -263.31509 -14.974693
-22.452547 -263.32544 -15.960108
-24.315603 -263.30392 -16.972897
-21.087891 -263.02637 -7.241158
-20.043446 -263.01849 -7.4173579
-35.26128 -263.00623 -8.1618605
-23.89481 -263.05792 -8.2984638
-23.375967 -263.01617 -8.5580578
-20.09783 -263.14111 -8.7338991
-34.928631 -263.07278 -9.6868811
-38.34568 -263.07114 -13.01268
-24.325191 -263.19653 -16.868174
-34.21904 -262.97931 -7.4467669
-39.113976 -262.8512 -8.2556791
-35.244164 -262.94977 -8.458477
-34.965683 -262.99799 -8.5799446
-34.954559 -262.84625 -9.0655899
-23.520157 -262.99188 -9.2767906
-35.112976 -262.87152 -9.7983494
-38.733994 -262.87799 -9.9607677
-20.612143 -262.9039 -13.030968
-39.746159 -262.92703 -13.494233
-23.195719 -262.83563 -14.088167
-24.236879 -262.99286 -14.245693
-23.764456 -262.995 -14.699364
-24.49478 -262.97729 -16.283091
-31.443531 -262.68103 -7.384933
-22.774063 -262.61475 -7.378767
-23.966835 -262.74356 -7.7685928
-38.20697 -262.67548 -7.8770971
-23.399435 -262.6384 -7.825222
-35.794434 -262.79108 -8.213088
-24.053738 -262.66986 -8.2462292
-39.016129 -262.69525 -8.5224771
-24.05213 -262.61765 -9.3108234
-23.785866 -262.75 -9.3132687
-39.000801 -262.73077 -10.264282
-35.035927 -262.77539 -10.225727
-39.544022 -262.63474 -11.597355
-38.962425 -262.63763 -11.780379
-20.141777 -262.69397 -12.788862
-21.415445 -262.70447 -13.066353
-20.746902 -262.77142 -13.130177
-39.933655 -262.63272 -13.674242
-38.893829 -262.495 -7.9075122
-33.836132 -262.59412 -8.0502968
-26.578403 -262.43707 -8.0556183
-35.169662 -262.59042 -8.3228512
-39.456192 -262.57001 -10.524694
-38.86261 -262.52856 -11.808733
-39.307312 -262.58386 -12.100201
-38.661697 -262.47449 -12.544249
-22.739569 -262.43866 -13.201397
-22.094681 -262.45792 -15.92247
-24.382076 -262.48981 -18.186096
-26.209263 -262.43716 -20.435993
-26.182346 -262.57233 -21.431946
-25.537724 -262.37384 -7.7058029
-39.784405 -262.2363 -8.1162319
-26.296009 -262.35266 -8.0525064
-23.800453 -262.33014 -12.397253
-24.254366 -262.37039 -12.682987
-25.469057 -262.26904 -13.579563
-23.741711 -262.38297 -14.156619
-23.838081 -262.37225 -18.054728
-29.458735 -262.15277 -7.1742158
-21.670443 -262.05563 -7.180469
-35.758057 -262.19855 -7.561255
-24.253017 -262.09296 -7.7579379
-39.88324 -262.16315 -7.839581
-38.82819 -262.12448 -7.8054309
-38.724468 -262.18994 -7.9163089
-33.92263 -262.17383 -7.9063172
-26.429974 -262.15976 -8.1111279
-38.650375 -262.07257 -13.000751
-23.71233 -262.07941 -13.643475
-25.37566 -262.13275 -14.527372
-24.608091 -262.19345 -14.923204
-23.974077 -262.18564 -14.825619
-20.773499 -262.09537 -15.347189
-20.398365 -262.1936 -15.204504
-25.931664 -262.07272 -16.948042
-21.802204 -261.82062 -7.125741
-39.885273 -261.97955 -7.6793509
-38.765495 -261.84509 -7.9333138
-26.49045 -261.91028 -8.0312366
-35.225712 -261.84125 -8.9991226
-24.875645 -261.84961 -10.212014
-25.149605 -261.80951 -11.880233
-20.90963 -261.80438 -13.071095
-24.66762 -261.81476 -14.980059
-26.978764 -261.95544 -20.037842
-22.042513 -261.6041 -7.1774039
-31.072659 -261.71503 -7.3379879
-39.892567 -261.76291 -8.1201363
-35.154335 -261.77545 -8.1110878
-34.951969 -261.62744 -8.3943911
-35.094803 -261.67227 -8.994297
-27.469553 -261.76733 -9.3780403
-38.768742 -261.6087 -9.4636421
-35.240784 -261.79144 -10.084579
-34.91571 -261.77789 -10.170206
-39.170094 -261.62244 -10.445297
-34.340782 -261.74423 -10.572386
-23.10603 -261.75296 -12.284632
-25.140604 -261.73578 -12.894733
-20.738607 -261.46405 -7.1347389
-37.546623 -261.46069 -7.4334278
-24.198349 -261.48083 -7.7220712
-38.186016 -261.42728 -7.9258308
-22.591099 -261.58911 -7.835031
-39.558853 -261.42627 -8.1220465
-39.02737 -261.53571 -8.1332884
-38.179932 -261.42914 -8.0511589
-35.041515 -261.5896 -8.9178143
-38.871109 -261.42657 -9.3379269
-35.207184 -261.57111 -9.4163799
-26.572075 -261.47104 -9.452034
-26.49839 -261.48254 -9.7233028
-38.742889 -261.49786 -10.122702
-39.009926 -261.46405 -10.323532
-39.383568 -261.44055 -10.546257
-24.641048 -261.48428 -10.766035
-21.014847 -261.48669 -12.597794
-25.837284 -261.53836 -13.941934
-39.409634 -261.5907 -14.64364
-39.3396 -261.54828 -14.848241
-22.195477 -261.45645 -18.323851
-30.272175 -261.33344 -7.173697
-29.778091 -261.27643 -7.2344542
-22.559898 -261.36847 -7.7923369
-39.129089 -261.33102 -7.8743429
-26.265265 -261.38644 -9.3930035
-27.321035 -261.24261 -9.4601326
-26.994884 -261.31558 -9.8751669
-24.772758 -261.21762 -11.800644
-39.319065 -261.36407 -13.102365
-23.890409 -261.24289 -14.601177
-21.398809 -261.26263 -14.854186
-20.73304 -261.10361 -7.1424351
-34.875481 -261.08652 -7.3493118
-29.320114 -261.14679 -7.2232971
-22.143948 -261.0242 -7.706883
-23.209753 -261.03302 -8.1842403
-35.75325 -261.05301 -10.115566
-22.211102 -261.13904 -11.039759
-20.410463 -261.18185 -11.736503
-24.65794 -261.03464 -13.71244
-23.771393 -261.0607 -14.48402
-26.823162 -261.04474 -15.495454
-22.585735 -261.02432 -17.012794
-25.638641 -261.09177 -17.966036
-28.675421 -260.97 -7.1490798
-21.546822 -260.97818 -7.2119699
-24.01918 -260.91284 -8.6600885
-26.351978 -260.90427 -9.0204124
-28.276497 -260.90414 -9.5124187
-26.16556 -260.99194 -9.9634085
-37.800266 -260.98059 -10.130964
-39.988766 -260.99954 -10.536944
-36.135475 -260.98984 -10.564005
-34.974339 -260.96429 -10.543321
-29.524748 -260.94577 -10.583092
-39.036835 -260.94165 -10.939857
-26.592514 -260.83334 -11.26685
-25.016195 -260.92615 -11.583223
-26.336365 -260.92029 -11.641934
-24.883158 -260.95215 -11.681333
-38.576546 -260.87427 -12.565562
-25.377815 -260.87714 -13.260139
-20.99198 -260.98618 -13.726428
-39.720955 -260.84204 -14.068974
-25.09127 -260.84641 -14.171909
-26.47887 -260.83258 -16.57674
-23.825935 -260.80344 -16.702919
-29.458124 -260.94199 -16.979864
-29.632378 -260.96997 -17.272404
-22.494076 -260.90308 -17.205826
-26.456398 -260.87543 -21.001534
-25.265118 -260.86264 -24.145782
-38.55035 -260.78415 -7.3565779
-23.221817 -260.62924 -8.2173185
-28.133308 -260.60846 -9.5307198
-26.104733 -260.75397 -10.321356
-36.932991 -260.70276 -10.527486
-35.832649 -260.76306 -10.544672
-34.105301 -260.67404 -10.564839
-21.156008 -260.746 -10.981895
-25.057541 -260.67374 -11.270077
-21.275831 -260.63257 -11.619211
-25.735626 -260.71179 -12.145113
-39.587738 -260.70416 -12.649985
-27.703863 -260.66885 -16.591291
-23.811306 -260.78629 -16.680885
-22.927231 -260.74048 -18.179895
-28.194836 -260.47162 -7.1405072
-25.990665 -260.41904 -7.15557
-39.369209 -260.57251 -7.2983708
-33.646839 -260.59207 -7.2325678
-26.654613 -260.56412 -7.7024431
-24.070057 -260.51617 -8.6554661
-26.6457 -260.45609 -8.9744205
-27.252928 -260.58521 -9.1386528
-26.328119 -260.46555 -9.1543999
-26.662592 -260.53873 -9.7381573
-23.905825 -260.46051 -10.327283
-29.148567 -260.49084 -10.466175
-24.324123 -260.56488 -10.574176
-25.421787 -260.48987 -10.644865
-27.574228 -260.57739 -11.542544
-22.8391 -260.49097 -11.492057
-20.821861 -260.49008 -13.665083
-25.490162 -260.45911 -14.081645
-25.093758 -260.53162 -15.103446
-25.113182 -260.5759 -15.792561
-26.609415 -260.46582 -15.943882
-25.665014 -260.24612 -7.3370061
-23.229187 -260.36169 -7.8720732
-23.696449 -260.30707 -8.3062897
-23.174017 -260.37305 -8.3109779
-26.908291 -260.36426 -8.5649157
-23.53302 -260.21301 -8.5182056
-28.481892 -260.30695 -9.4862642
-28.347008 -260.29626 -9.5001068
-26.243557 -260.23877 -10.196158
-26.630865 -260.20029 -10.70808
-23.417461 -260.2869 -10.869198
-24.005928 -260.20959 -11.303087
-22.812006 -260.39505 -11.492072
-39.775894 -260.21234 -13.384621
-21.349325 -260.31274 -13.864557
-24.632782 -260.32861 -15.474684
-27.393946 -260.37201 -16.588488
-29.123783 -260.35031 -17.426666
-30.910078 -260.14825 -7.157774
-33.817402 -260.16507 -7.230957
-26.453812 -260.19836 -9.0274992
-26.360203 -260.09381 -9.8131104
-23.917751 -260.043 -11.371153
-24.508007 -260.13702 -12.183641
-22.873121 -260.04666 -12.135048
-25.098696 -260.15442 -12.793555
-39.157463 -260.07452 -13.322804
-26.215328 -260.02768 -14.517628
-24.016388 -260.09946 -15.492516
-25.821976 -260.17511 -16.532881
-23.29496 -260.18069 -16.958872
-27.781052 -260.17596 -17.850857
-31.048843 -273.28516 -19.799633
-30.954849 -272.03769 -20.157764
-30.897139 -270.61038 -19.39057
