# .PCD v0.7 - Point Cloud Data file format
VERSION 0.7
FIELDS x y z
SIZE 4 4 4
TYPE F F F
COUNT 1 1 1
WIDTH 1477
HEIGHT 1
VIEWPOINT 0 0 0 1 0 0 0
POINTS 1477
DATA ascii
-26.555782 -69.704178 -8.7512913
-37.747105 -69.475143 -1.764564
-20.971184 -69.433403 -1.743436
-20.99239 -69.479858 -2.0177469
-24.681973 -69.58847 -3.8188989
-24.692806 -69.414948 -7.8852868
-39.041882 -69.305794 -1.815027
-21.008337 -69.301437 -2.45895
-21.12896 -69.237396 -2.9720211
-20.332912 -69.220062 -4.2728901
-25.38493 -69.251045 -6.4853959
-38.592079 -69.040955 -1.77557
-38.062351 -69.194252 -1.760578
-36.537655 -69.091263 -1.784404
-35.456558 -69.104599 -1.7296619
-26.76096 -69.120773 -1.84047
-25.576283 -69.196724 -6.66189
-24.304054 -69.088417 -7.8955851
-26.802937 -68.898537 -1.594576
-35.020691 -68.981995 -1.797366
-25.420799 -68.842812 -4.1808591
-21.13839 -68.864769 -4.1511359
-25.801903 -68.886444 -4.2430358
-20.352394 -68.896057 -4.2836838
-25.141476 -68.811661 -6.6049309
-38.539268 -68.751198 -1.753476
-24.86174 -68.635078 -3.691951
-21.160725 -68.749802 -3.7641311
-21.218636 -68.698273 -4.1403942
-25.194637 -68.770966 -5.3334332
-24.326183 -68.770531 -7.5637059
-39.694473 -68.531357 -1.794137
-37.679302 -68.499092 -1.79567
-35.643757 -68.519608 -1.6993639
-35.119972 -68.554123 -1.774024
-25.544323 -68.445496 -3.7307639
-25.802681 -68.522552 -4.1772761
-25.237097 -68.482338 -5.392333
-24.913448 -68.586807 -6.5583639
-39.726105 -68.281738 -1.7789249
-25.787477 -68.216652 -4.1449108
-25.503233 -68.270569 -4.1458759
-25.232889 -68.347641 -5.3318028
-35.12056 -68.166367 -1.748867
-38.577732 -68.104233 -1.809584
-29.54311 -68.164833 -5.8728781
-38.169403 -67.913933 -1.7779
-37.31641 -67.841148 -1.732941
-25.435001 -67.952911 -4.1514239
-25.019894 -67.952515 -5.2639852
-33.273441 -67.612381 -1.997512
-20.655775 -67.650902 -3.6837549
-38.926666 -67.41156 -1.779403
-37.517693 -67.456703 -1.717082
-33.369659 -67.550331 -2.06534
-29.77515 -67.429199 -6.2814088
-39.384388 -67.325089 -1.794289
-38.111912 -67.302422 -1.734973
-39.814095 -67.240341 -1.8080601
-33.358498 -67.389671 -1.934119
-33.510948 -67.005981 -1.842707
-34.10099 -67.081955 -2.062449
-39.351837 -66.99868 -1.773694
-33.884209 -66.967728 -2.057498
-33.509399 -66.866882 -2.1773169
-33.418373 -66.858315 -2.5495901
-31.032196 -66.945572 -6.1834068
-38.532684 -66.704453 -1.856108
-32.517807 -66.734215 -2.8817921
-30.012455 -66.677719 -5.7884932
-29.459236 -66.722092 -5.8045149
-23.336716 -66.278572 -10.18924
-33.400616 -66.059975 -2.0039189
-32.771252 -66.049896 -2.389667
-33.319813 -66.052101 -2.6187201
-31.089024 -66.133339 -4.1437621
-30.094696 -66.171005 -5.5035901
-39.625935 -65.915817 -1.716378
-30.998116 -65.909187 -3.9267521
-30.48819 -65.868614 -5.2123828
-30.391155 -65.990341 -5.221046
-23.636955 -65.899933 -9.0439339
-20.473465 -65.919907 -9.3737898
-24.19132 -65.85907 -10.086377
-36.85598 -65.70047 -1.841161
-33.452694 -65.742523 -3.0116019
-23.780493 -65.533035 -9.0113335
-24.329479 -65.548157 -10.073219
-33.043297 -65.379379 -2.8717279
-39.186321 -65.183868 -2.089911
-33.25922 -65.038574 -2.859488
-23.722755 -65.013329 -8.9878368
-23.275646 -65.032257 -9.008112
-24.065584 -65.059952 -10.14329
-33.761841 -64.887177 -3.0529871
-33.318901 -64.881393 -3.489934
-34.923286 -64.752174 -1.8158
-33.11227 -64.759872 -2.668484
-34.020172 -64.613083 -3.1237299
-33.882607 -64.703369 -3.000494
-33.400055 -64.734146 -3.893312
-23.743702 -64.707825 -8.9555683
-24.128414 -64.652733 -10.037348
-33.879745 -64.36705 -3.0274439
-23.672802 -64.215942 -8.87924
-23.343552 -64.23526 -8.9577541
-22.842489 -64.114822 -10.133305
-22.989569 -63.817352 -8.9764452
-22.664402 -63.944107 -10.111448
-23.00094 -63.518433 -8.9627514
-22.411686 -63.339844 -8.9093208
-22.282276 -63.137836 -9.0066519
-21.833532 -62.895912 -9.0719995
-37.989189 -62.53479 -1.525847
-39.55275 -62.547516 -3.1943741
-39.760021 -62.247509 -3.4346011
-38.93906 -62.172718 -3.470922
-26.294586 -62.161892 -5.0169768
-20.930464 -61.913765 -1.083112
-20.870417 -61.858337 -1.3158751
-39.413109 -61.880371 -1.4494539
-39.030239 -61.894566 -1.845152
-39.019928 -61.893822 -2.3218689
-20.740604 -61.862892 -2.4954441
-39.731956 -61.869003 -2.874573
-39.031403 -61.816254 -2.8777919
-26.259756 -61.847694 -3.9312921
-26.306038 -61.895397 -4.1465821
-26.273569 -61.890911 -4.896543
-34.688145 -61.849953 -5.2058582
-26.2276 -61.875946 -8.3119316
-26.188776 -61.805885 -9.0710478
-29.907396 -61.838615 -9.3958788
-26.433071 -61.609287 -1.269883
-26.016771 -61.643459 -1.380092
-25.779987 -61.677315 -1.289027
-36.964622 -61.791378 -1.516836
-31.32077 -61.625664 -1.539395
-30.9823 -61.685669 -1.458553
-30.539951 -61.651016 -1.479622
-30.148411 -61.629578 -1.531737
-24.235664 -61.670906 -1.448361
-21.847725 -61.742138 -1.441378
-30.355206 -61.610554 -1.65859
-29.948231 -61.607445 -1.648676
-24.139738 -61.671494 -1.786516
-39.018894 -61.689102 -1.8371609
-26.557312 -61.634834 -1.968075
-25.878292 -61.706211 -1.954303
-23.293308 -61.701897 -1.996384
-25.877562 -61.673561 -2.2708249
-23.486752 -61.65744 -2.294317
-21.322807 -61.768318 -2.223639
-31.107687 -61.708504 -2.5525861
-26.121986 -61.6031 -2.5768521
-25.924292 -61.636402 -2.519269
-24.9967 -61.609467 -2.470295
-24.152561 -61.641197 -2.5564339
-23.997467 -61.66737 -2.454829
-23.470123 -61.725452 -2.514287
-22.190403 -61.707092 -2.5937581
-21.795767 -61.77935 -2.566889
-21.078966 -61.698425 -2.5607369
-31.252899 -61.717896 -2.6328981
-30.991989 -61.751396 -2.6438971
-30.684254 -61.764614 -2.6273661
-22.083836 -61.71954 -2.9866979
-22.614143 -61.654964 -3.1590569
-39.310169 -61.777798 -3.5850959
-23.948437 -61.689602 -3.5678079
-21.42556 -61.703522 -3.5220759
-39.724934 -61.663525 -3.6930931
-39.461987 -61.713089 -3.6919091
-39.055443 -61.641693 -3.69311
-38.884144 -61.612305 -3.7695191
-23.077799 -61.661049 -3.76106
-21.88485 -61.659431 -3.6867709
-21.418631 -61.732197 -3.74125
-24.140009 -61.60796 -3.807056
-23.840488 -61.623837 -3.8966751
-23.496168 -61.657909 -3.8145411
-22.286127 -61.683388 -3.800962
-38.641716 -61.673721 -5.4395218
-38.144726 -61.707462 -5.4485741
-37.724892 -61.719631 -5.454762
-25.897827 -61.687992 -6.0612912
-24.717613 -61.632481 -6.1125321
-23.598362 -61.630379 -6.1583729
-23.702263 -61.685417 -6.2256312
-21.778858 -61.664391 -8.0999966
-20.988834 -61.617485 -11.88103
-26.918898 -61.542835 -1.368028
-31.797998 -61.439514 -1.529829
-31.368919 -61.489841 -1.465306
-28.955765 -61.410408 -1.488054
-28.082443 -61.401421 -1.570853
-27.50386 -61.540405 -1.522751
-26.126417 -61.497395 -1.421174
-24.273933 -61.538353 -1.463341
-31.466429 -61.461098 -1.65308
-31.039263 -61.539825 -1.654754
-30.721006 -61.538204 -1.659271
-30.150894 -61.480438 -1.682003
-28.9741 -61.450802 -1.6529599
-27.785297 -61.519989 -1.84736
-27.368404 -61.532955 -1.838878
-37.746521 -61.532581 -2.3052599
-31.283434 -61.448631 -2.578733
-28.91432 -61.432617 -2.5512371
-28.522221 -61.478889 -2.5531991
-28.213587 -61.459152 -2.4992449
-27.890188 -61.50869 -2.5411651
-27.407768 -61.536156 -2.5825951
-26.92573 -61.549255 -2.5853381
-26.347692 -61.528568 -2.565202
-24.862803 -61.529922 -2.435411
-34.199768 -61.463634 -2.666476
-33.724014 -61.469681 -2.6557629
-31.192024 -61.567444 -2.704432
-25.917049 -61.503193 -2.653784
-24.210371 -61.556461 -2.6428399
-30.231499 -61.426933 -2.8683219
-28.564198 -61.461506 -3.432405
-24.51059 -61.526344 -3.47139
-24.019711 -61.539921 -3.4719069
-23.523315 -61.558319 -3.5704889
-39.124969 -61.47105 -3.790113
-28.966953 -61.401512 -3.7455449
-28.579208 -61.406002 -3.741055
-28.227396 -61.401287 -3.7652299
-26.258636 -61.438343 -3.744163
-24.879883 -61.540619 -3.823173
-24.439014 -61.52956 -3.8263359
-29.315166 -61.428612 -4.46245
-28.938705 -61.447632 -4.600781
-22.887091 -61.565235 -4.7249522
-22.014488 -61.5872 -4.7371001
-28.739361 -61.459305 -4.8857002
-26.258034 -61.520027 -4.9303942
-21.927082 -61.553844 -5.4165759
-28.641556 -61.416386 -5.7230802
-27.382572 -61.522453 -5.9894118
-26.706207 -61.422722 -5.8415632
-25.898533 -61.487976 -5.817894
-26.970097 -61.549637 -6.0086799
-26.112761 -61.496269 -6.042213
-25.870918 -61.501411 -6.050458
-25.581429 -61.568138 -6.0659399
-24.364426 -61.551224 -6.1870842
-23.842072 -61.521786 -6.1432309
-28.163837 -61.4328 -6.3621678
-27.45578 -61.445652 -6.3993759
-28.040417 -61.468872 -6.9004502
-28.982447 -61.406116 -7.059557
-27.972126 -61.444801 -7.1292181
-23.487808 -61.467613 -8.7471008
-21.448383 -61.553566 -8.934309
-26.201168 -61.429977 -9.201252
-24.600529 -61.477139 -10.017265
-23.573959 -61.558441 -10.143339
-26.092638 -61.456829 -11.273865
-26.882915 -61.401203 -11.476036
-32.114731 -61.33942 -1.49508
-37.763725 -61.39233 -1.789686
-35.417084 -61.237614 -1.648424
-35.00449 -61.253235 -1.657298
-34.520081 -61.277988 -1.646009
-34.162971 -61.238083 -1.74231
-33.806011 -61.269444 -1.7025419
-33.42281 -61.285801 -1.699388
-33.044682 -61.288368 -1.691848
-32.530212 -61.292732 -1.679158
-32.217892 -61.314724 -1.660688
-31.896204 -61.30085 -1.714528
-31.760006 -61.376579 -1.6678081
-38.934692 -61.337688 -1.8161761
-38.922676 -61.369743 -2.3654101
-33.351585 -61.200447 -2.256063
-31.786003 -61.266937 -2.2217751
-32.110252 -61.336716 -2.590276
-38.917263 -61.308582 -2.72541
-38.966148 -61.391815 -2.889348
-33.355545 -61.278969 -2.8392489
-31.358692 -61.371361 -2.9179339
-35.43433 -61.218258 -3.252584
-32.117729 -61.225243 -3.383853
-31.800537 -61.22794 -3.3967569
-33.10075 -61.255314 -3.7943201
-32.147739 -61.295307 -3.7064431
-31.796251 -61.321369 -3.732162
-30.539722 -61.226395 -3.6972511
-30.033577 -61.343468 -3.719708
-29.668562 -61.336445 -3.7724111
-29.408257 -61.396095 -3.742506
-39.87455 -61.366856 -3.8073511
-39.522453 -61.375877 -3.810725
-32.926685 -61.233345 -4.0076361
-26.279934 -61.35294 -4.118114
-29.360636 -61.373478 -4.2110028
-27.95742 -61.300301 -4.2999291
-30.078943 -61.301903 -4.471139
-29.65563 -61.395126 -4.4553261
-33.056076 -61.299324 -4.6382122
-32.309765 -61.274044 -4.743556
-31.898296 -61.289925 -4.7556682
-30.084137 -61.304913 -4.8400121
-29.687496 -61.385513 -4.90202
-29.361906 -61.354786 -5.008945
-30.486099 -61.368607 -5.5797749
-30.651791 -61.252174 -5.7389259
-29.399311 -61.388245 -5.691977
-29.006565 -61.381775 -5.707407
-31.725109 -61.234081 -5.9667988
-31.437958 -61.263863 -5.9807029
-30.225044 -61.348087 -5.964654
-29.748135 -61.353504 -5.8582311
-27.802475 -61.360359 -5.8583159
-32.380154 -61.262466 -6.1425381
-31.769211 -61.206623 -6.5155311
-28.986214 -61.331795 -6.511169
-32.968578 -61.220997 -6.8925209
-31.428486 -61.223045 -6.9909778
-30.617785 -61.270821 -6.9918432
-29.788252 -61.310417 -6.936779
-29.427137 -61.333561 -6.9604292
-32.103928 -61.213516 -7.110723
-31.796495 -61.242653 -7.0540948
-30.800369 -61.264229 -7.0053639
-30.218935 -61.317917 -7.001894
-37.037601 -61.237831 -7.330759
-36.831749 -61.299038 -7.6373191
-33.86298 -61.265663 -7.760479
-31.917095 -61.25016 -7.628263
-32.704304 -61.244877 -7.9464822
-32.222046 -61.212875 -8.0315266
-31.815556 -61.232864 -8.1081934
-30.056835 -61.249485 -8.2062912
-29.701788 -61.263817 -8.2277012
-29.361336 -61.228783 -8.212326
-28.999659 -61.316002 -8.3361301
-28.609123 -61.243584 -8.2721958
-28.28088 -61.254887 -8.2999687
-27.705776 -61.319515 -8.3647165
-28.156528 -61.30933 -8.627161
-31.785593 -61.223892 -9.1549034
-29.293716 -61.260204 -9.0910816
-29.018177 -61.227676 -9.2337484
-28.037548 -61.331638 -9.2175808
-25.918606 -61.307365 -10.140676
-27.343052 -61.358437 -11.139459
-23.369566 -61.373474 -11.812628
-38.971382 -61.041298 -1.544794
-37.918236 -61.071636 -1.555896
-35.932755 -61.102276 -1.447598
-39.389717 -61.050499 -1.659573
-38.978615 -61.078114 -1.772297
-35.861229 -61.169685 -1.657697
-35.397789 -61.158562 -1.699249
-35.087254 -61.173676 -1.748397
-39.453339 -61.012417 -2.3429921
-38.954529 -61.125332 -2.3534551
-36.219589 -61.138184 -2.6332951
-35.905697 -61.123817 -2.6665919
-38.987579 -61.077 -2.8938689
-37.053749 -61.100498 -2.8772271
-36.555641 -61.109917 -2.894377
-34.313919 -61.12994 -3.1259601
-36.58456 -61.04863 -3.6809289
-36.266487 -61.099922 -3.6869199
-33.157986 -61.168594 -3.7471621
-30.538637 -61.146 -3.7164569
-30.078861 -61.132038 -3.759799
-33.254723 -61.111607 -3.8915441
-38.252151 -61.053993 -4.3083949
-38.26461 -61.033146 -4.5979991
-33.161461 -61.144524 -4.5879049
-30.48175 -61.078079 -4.5354738
-36.09586 -61.078331 -4.6199069
-35.686005 -61.1073 -4.6855989
-35.433582 -61.143402 -4.6862588
-34.939991 -61.145767 -4.6983891
-33.255058 -61.141075 -4.656734
-36.149109 -61.014771 -4.9286742
-34.987408 -61.10582 -4.9273219
-33.24271 -61.115532 -4.9367638
-30.491207 -61.196243 -4.822969
-37.829788 -61.118687 -5.3626838
-38.268036 -61.030884 -5.7637472
-37.471176 -61.051216 -5.7131448
-36.346558 -61.118767 -5.7978191
-35.114037 -61.149055 -5.719934
-33.81506 -61.196079 -5.790556
-37.838898 -61.021568 -5.803853
-37.078979 -61.075233 -5.8178968
-36.562618 -61.105 -5.934514
-34.469185 -61.153076 -5.8001781
-37.786743 -61.033749 -6.30934
-37.391506 -61.040806 -6.257267
-38.165062 -61.031475 -6.5436711
-37.783859 -61.008408 -6.5554519
-37.058552 -61.022644 -6.5698118
-36.526863 -61.080574 -6.6119099
-35.855713 -61.108685 -6.6965871
-35.452164 -61.127121 -6.6160908
-34.941246 -61.128769 -6.7689939
-34.586582 -61.150196 -6.793674
-37.015633 -61.062176 -6.9871392
-35.899845 -61.047417 -6.8300071
-34.153923 -61.121475 -6.912178
-34.856312 -61.111984 -7.0070949
-37.970345 -61.003677 -7.379272
-36.767448 -61.045364 -7.3085432
-36.197762 -61.090904 -7.3367448
-34.994038 -61.109192 -7.327991
-37.24556 -61.003456 -7.4707832
-37.130264 -61.047997 -7.506145
-35.839119 -61.03101 -7.4769058
-35.416981 -61.047897 -7.4290142
-34.726921 -61.080505 -7.4809341
-33.863617 -61.053238 -7.5228829
-37.207558 -61.031559 -7.7185578
-34.931892 -61.083191 -7.7581081
-34.758156 -61.045113 -7.724287
-33.106606 -61.06131 -7.945322
-30.064072 -61.036491 -8.1501694
-34.994141 -61.032249 -8.5798368
-35.806717 -61.023884 -8.6445608
-35.386452 -61.028633 -8.7256575
-30.468056 -61.034271 -8.7843609
-34.960716 -61.057236 -8.8304958
-34.712006 -61.09359 -8.8768921
-33.084167 -61.097622 -9.0439014
-32.712387 -61.142864 -9.005765
-32.231827 -61.138168 -9.0416813
-31.800117 -61.133804 -9.1257076
-30.062645 -61.185688 -9.3481731
-31.462122 -61.072662 -9.8750896
-31.237488 -61.100307 -11.306713
-28.069946 -61.146782 -11.203989
-39.815731 -60.997871 -1.736488
-33.753929 -60.961853 -3.4129541
-39.735626 -60.939713 -3.899647
-39.384495 -60.961277 -3.905061
-39.063366 -60.974705 -3.9287801
-38.609531 -60.993286 -3.9187739
-33.607311 -60.926575 -4.0271349
-39.756691 -60.95454 -4.5644031
-38.615726 -60.996365 -4.5776939
-39.486122 -60.976067 -4.6066632
-39.076233 -60.9944 -4.6170082
-37.687218 -60.935452 -4.6203861
-37.546066 -60.942146 -4.620368
-37.032028 -60.881573 -4.655015
-36.624779 -60.981163 -4.6566958
-39.420311 -60.919579 -4.912344
-38.16893 -60.947361 -4.9260321
-36.626629 -60.9627 -4.8751888
-38.970425 -60.937939 -5.41289
-38.635818 -60.991776 -5.7673392
-39.751221 -60.89175 -5.8616948
-39.009979 -60.976429 -5.8580709
-39.340725 -60.956406 -6.0412588
-38.958267 -60.97155 -6.081285
-38.539005 -60.989235 -6.0959291
-38.204971 -60.98814 -6.160995
-39.806667 -60.971767 -6.329267
-39.332001 -60.979759 -6.533092
-39.008511 -60.942257 -6.460443
-38.631878 -60.985252 -6.4931731
-37.383415 -60.985718 -6.579289
-36.157005 -60.998402 -6.5581541
-39.787842 -60.929466 -6.6151838
-39.737274 -60.923695 -6.9091129
-39.359093 -60.941879 -6.9321098
-38.934837 -60.973572 -6.9641819
-38.542068 -60.971771 -6.9755502
-39.38076 -60.919479 -7.1552758
-39.003551 -60.905815 -7.1479549
-34.763897 -60.996109 -7.0182991
-39.941597 -60.966042 -7.3138089
-39.480042 -60.930199 -7.3576198
-39.027695 -60.961655 -7.4272442
-38.605824 -60.960876 -7.443615
-38.227734 -60.964138 -7.4311199
-38.218521 -60.940838 -7.7521539
-33.772594 -60.997398 -7.8436718
-38.145458 -60.909645 -8.1667805
-39.758198 -60.872623 -8.2852859
-39.388054 -60.888901 -8.3171911
-39.084846 -60.890263 -8.3516808
-38.69532 -60.898457 -8.2065725
-36.057873 -60.964714 -8.2631969
-38.733955 -60.927017 -8.4852209
-38.259048 -60.936161 -8.4509602
-36.972637 -60.853394 -8.6224861
-36.535816 -60.889755 -8.6362495
-30.204943 -60.970016 -8.903286
-21.26244 -60.986038 -9.9037151
-39.055798 -60.811897 -10.388905
-21.207684 -60.857155 -10.673698
-39.947563 -60.761734 -4.5525341
-39.969566 -60.676769 -5.0066242
-39.854988 -60.714218 -8.2566605
-37.378166 -60.594883 -8.350481
-34.780525 -79.96875 -3.3732309
-22.208761 -79.823242 -5.0528202
-39.243332 -79.881783 -5.920187
-38.910172 -79.800156 -5.9246149
-34.601757 -79.900665 -8.4465895
-37.002563 -79.813271 -10.232937
-35.392628 -79.784424 -2.058836
-33.151924 -79.737465 -3.246243
-39.649841 -79.726547 -3.521102
-34.955235 -79.729279 -3.9032831
-21.825583 -79.792892 -3.8976891
-34.961845 -79.78479 -4.1866159
-36.218494 -79.782127 -7.326201
-35.730602 -79.618011 -7.4778509
-33.000011 -79.561562 -2.9736259
-36.700356 -79.405281 -3.4318869
-32.044979 -79.434303 -6.0334969
-36.262447 -79.430656 -7.2748532
-39.653111 -79.372116 -2.587393
-33.658791 -79.363098 -2.8699639
-33.558495 -79.281029 -3.083282
-20.006081 -79.206604 -3.9628451
-38.475636 -79.214561 -4.2745781
-33.419201 -79.350159 -6.595942
-39.406036 -79.215263 -6.6955252
-37.421528 -79.39901 -6.991991
-37.063198 -79.118874 -1.970408
-33.390778 -79.073761 -3.8111351
-39.678673 -79.068054 -5.953784
-35.039368 -79.009216 -7.9896002
-36.394871 -79.053337 -8.2669706
-35.143223 -79.106178 -8.6317587
-33.464832 -78.995544 -3.306922
-38.586521 -78.893669 -4.297863
-39.070286 -78.920456 -6.1648579
-38.965157 -78.957306 -6.7832928
-38.984009 -78.982361 -8.0585413
-29.494698 -78.904556 -8.7868204
-39.019127 -78.808838 -9.7054472
-37.434368 -78.689011 -1.963666
-38.999634 -78.605164 -5.1409702
-36.670307 -78.795853 -5.7792811
-33.243401 -78.610184 -10.512844
-35.245094 -78.571785 -2.011415
-34.982056 -78.585365 -2.0691121
-34.770542 -78.437714 -2.142132
-34.434875 -78.594742 -2.4694531
-34.145817 -78.570206 -2.8293619
-34.407349 -78.408737 -3.1805511
-34.313305 -78.449677 -3.041014
-32.822693 -78.476303 -4.974957
-37.35442 -78.594734 -6.093483
-34.775097 -78.435242 -7.9529958
-37.497627 -78.301941 -2.026371
-20.538898 -78.207253 -3.8643639
-34.29863 -78.221504 -4.126677
-38.475136 -78.259476 -5.8456731
-33.167969 -78.271484 -10.473318
-34.507523 -78.184845 -2.2784591
-34.424904 -78.153687 -3.8125689
-38.680458 -78.152878 -4.461998
-34.454216 -78.009392 -5.1946669
-35.210186 -78.178581 -5.728652
-37.334782 -78.13208 -7.0838871
-34.412983 -77.938171 -4.283226
-32.559139 -77.856026 -4.227386
-34.60199 -77.97744 -6.8559909
-36.878792 -77.978653 -7.667953
-38.595535 -77.729317 -1.928836
-37.831524 -77.706245 -2.003582
-37.404015 -77.652039 -2.160423
-34.012157 -77.616852 -3.260293
-34.084118 -77.695618 -3.48666
-32.866154 -77.629814 -3.73683
-32.580353 -77.724876 -3.8831
-38.214954 -77.755493 -4.4506612
-25.63031 -77.420486 -6.415307
-36.822609 -77.440079 -6.9427481
-35.722984 -77.534988 -8.0213232
-37.86076 -77.30455 -1.975825
-32.296074 -77.349167 -3.706039
-37.647163 -77.396393 -7.091826
-32.703453 -77.258629 -9.4632692
-37.869438 -77.086411 -1.960294
-32.127441 -77.005844 -4.072165
-38.483097 -77.162598 -4.7335968
-36.491646 -77.136337 -6.1355271
-38.179657 -77.053642 -8.7167854
-29.396465 -76.851196 -2.6151049
-32.269218 -76.958817 -3.8148079
-32.484558 -76.824379 -4.0156522
-37.020897 -76.979034 -6.1571851
-33.472935 -76.688904 -2.1786649
-36.620785 -76.626617 -4.9350882
-35.098522 -76.718117 -7.141202
-33.970623 -76.751144 -7.200027
-32.382618 -76.401398 -2.3005309
-36.946442 -76.459183 -4.9945111
-29.367353 -76.511963 -8.5131025
-33.473351 -76.33223 -2.1375539
-32.783314 -76.380989 -2.3577261
-37.055489 -76.2939 -4.3314891
-36.717304 -76.247002 -5.8899269
-34.611053 -76.309776 -6.1166549
-33.89576 -76.371208 -7.161046
-34.976768 -76.321655 -8.1537762
-33.226669 -76.09024 -2.194308
-33.285721 -76.189857 -3.9407411
-37.009033 -76.17144 -4.7388949
-36.958626 -76.066093 -5.1284871
-34.103939 -76.170639 -10.421352
-25.644966 -75.905365 -3.3528211
-25.557697 -75.910248 -3.6622131
-38.664158 -75.631165 -1.932255
-32.915798 -75.776352 -2.0696321
-32.626442 -75.733925 -2.0639811
-36.375519 -75.691536 -4.7442269
-38.052475 -75.702812 -4.966486
-36.698574 -75.726685 -4.9679599
-36.285107 -75.749466 -5.124299
-26.60354 -75.726471 -7.3500018
-32.411587 -75.541977 -1.968435
-26.01137 -75.413635 -2.9941859
-36.464924 -75.454124 -4.3214202
-30.118145 -75.53154 -4.8775892
-34.971207 -75.481499 -7.0101919
-34.036877 -75.458778 -8.9085093
-32.205883 -75.332787 -1.961609
-28.083128 -75.385635 -2.6289849
-28.05788 -75.381699 -2.8641241
-27.948278 -75.385475 -3.1006191
-27.940926 -75.344772 -3.403348
-39.833542 -75.269455 -3.662817
-26.290911 -75.331184 -3.79125
-39.283234 -75.34491 -3.8766279
-34.625317 -75.238258 -4.4893298
-20.899666 -75.273247 -4.7045331
-39.585819 -75.327209 -5.1338019
-21.063938 -75.31337 -7.6242542
-30.803268 -75.056938 -1.868614
-27.939167 -75.193352 -3.0471089
-39.549454 -75.195282 -3.6992271
-27.460289 -75.047424 -4.0016251
-34.937622 -75.09742 -5.9651818
-28.480377 -74.927711 -1.90011
-27.494499 -74.857201 -3.7863221
-27.575209 -74.902771 -4.9474082
-39.836243 -74.820465 -5.005712
-32.85545 -74.679581 -1.895133
-28.000477 -74.749451 -2.0602169
-27.358648 -74.7276 -2.558409
-27.379181 -74.589119 -2.533993
-31.743164 -74.444466 -2.7000339
-31.539131 -74.503418 -3.3645239
-27.238222 -74.586456 -3.5737319
-20.728405 -74.575058 -3.5868239
-20.665657 -74.50473 -3.609159
-35.182762 -74.433479 -6.1975832
-31.228786 -74.447426 -7.6465988
-31.674404 -74.251129 -2.2297311
-27.333881 -74.356949 -2.530194
-31.829369 -74.243919 -2.7020121
-31.395977 -74.359177 -3.7639711
-31.412127 -74.205391 -4.2375169
-26.953499 -74.234955 -7.2564301
-33.208572 -74.123421 -4.7724891
-27.25025 -74.192421 -4.7584891
-27.067081 -74.119774 -4.8616471
-37.944016 -73.915924 -1.980654
-37.185291 -73.814758 -2.487915
-26.723614 -73.87912 -3.664284
-26.877357 -73.737534 -3.6729119
-37.263348 -73.681854 -5.6501451
-34.413658 -73.744789 -5.715692
-32.179073 -73.670685 -9.0391903
-22.53714 -73.430672 -4.8193889
-36.436676 -73.201767 -2.2987609
-20.558729 -73.310478 -3.4437881
-31.844429 -73.362587 -6.479527
-32.235657 -73.370155 -9.0120392
-26.559889 -73.336006 -9.4862623
-38.924118 -73.082695 -2.0076759
-21.533642 -73.156189 -4.805913
-29.311724 -73.020905 -5.8693428
-38.909073 -72.967613 -1.9753619
-26.315052 -72.872101 -4.2010398
-26.33271 -72.91391 -4.6581321
-27.369057 -72.7827 -1.896432
-39.007294 -72.668327 -2.053133
-36.410423 -72.618576 -2.3768561
-21.962996 -72.698822 -3.490664
-25.928814 -72.617027 -10.594296
-21.857166 -72.584389 -4.0312591
-24.165192 -72.496178 -4.6379852
-31.875826 -72.454552 -6.5434098
-30.220268 -72.598686 -10.554298
-26.123638 -72.389961 -1.82219
-23.854551 -72.283463 -4.5863681
-26.66576 -72.243851 -7.5538621
-27.967464 -72.247116 -8.0426311
-39.817989 -72.28653 -9.2593365
-38.893784 -72.153969 -2.0579131
-36.541702 -72.095207 -2.24353
-25.116547 -72.032623 -4.2437339
-23.598923 -72.055321 -4.2581649
-29.774525 -72.026894 -6.5043702
-30.524727 -72.155548 -6.7515149
-38.724998 -71.888641 -2.120822
-25.693886 -71.911217 -4.3526549
-25.306252 -71.847153 -9.5009155
-31.2416 -71.782074 -1.91413
-25.315298 -71.704102 -5.1263309
-24.680996 -71.713768 -5.4757719
-39.278507 -71.461349 -1.763769
-38.325302 -71.538925 -2.02425
-25.739386 -71.507462 -4.5122099
-25.444347 -71.444412 -4.6067338
-24.348614 -71.455803 -5.818171
-39.605186 -71.546631 -8.0155363
-33.310013 -71.469254 -9.4024715
-36.490917 -71.359856 -1.784833
-38.192432 -71.384262 -1.903348
-37.890797 -71.304756 -1.883008
-30.386044 -71.218857 -2.1377611
-25.874798 -71.282997 -9.3127651
-20.822258 -71.202827 -10.998859
-20.735659 -71.323921 -11.055393
-36.070564 -71.000092 -1.736555
-25.474476 -71.106384 -4.573298
-30.669849 -71.0812 -6.2348738
-39.664413 -70.985916 -1.8750401
-21.965981 -70.808289 -3.137574
-25.119411 -70.825882 -5.5185351
-24.927637 -70.961716 -5.4442949
-25.504574 -70.890839 -9.2360315
-38.331711 -70.770493 -1.7982301
-39.071899 -70.670502 -1.816192
-30.515732 -70.626099 -2.245542
-21.86805 -70.689163 -3.1504371
-22.165676 -70.795021 -3.5197611
-36.944378 -70.500252 -1.753083
-39.529411 -70.441795 -1.8392251
-21.410826 -70.51091 -1.956661
-25.11591 -70.543205 -4.3806462
-31.380699 -70.458389 -6.3517299
-26.924435 -70.592384 -6.8882661
-26.4963 -70.329117 -8.0710106
-24.46207 -70.346428 -9.2823935
-31.632572 -70.089973 -6.5130529
-34.079674 -70.101532 -9.3867683
-37.014553 -69.930557 -1.743948
-39.129822 -69.808212 -6.9712749
-24.821022 -69.609756 -3.847538
-20.322315 -69.612625 -4.5293708
-39.488213 -69.676422 -7.8120751
-26.445364 -69.69072 -9.1107216
-25.034439 -69.743668 -9.1963501
-35.439034 -69.625732 -10.04508
-25.685917 -69.433304 -5.5253611
-25.648563 -69.451263 -6.8591762
-39.525486 -69.511871 -7.8056788
-24.691097 -69.475716 -7.9276819
-26.50419 -69.511383 -9.0878582
-24.646065 -69.371826 -9.2133007
-24.247128 -69.301727 -9.2022371
-25.641573 -69.123146 -4.9640069
-25.002254 -69.09597 -7.5303631
-24.844711 -69.083092 -9.162262
-26.6707 -68.898766 -1.557722
-38.49609 -68.957718 -1.752676
-25.81753 -68.902367 -4.278481
-24.904411 -68.947395 -4.2929711
-25.010197 -68.876938 -5.3955832
-25.321724 -68.904129 -7.613626
-24.37727 -68.911179 -8.0888271
-25.87616 -68.990829 -10.364508
-38.472828 -68.60553 -1.72479
-25.035419 -68.714096 -3.7955229
-21.271629 -68.673126 -3.962728
-25.118578 -68.765182 -5.166254
-30.331749 -68.664261 -5.861774
-26.406738 -68.719406 -8.9436665
-26.032253 -68.43132 -4.2792802
-24.813786 -68.492287 -7.4151349
-38.603653 -68.201065 -1.7974499
-25.014252 -68.269157 -6.2431488
-20.636189 -68.002136 -4.217001
-25.100861 -68.024155 -4.9697719
-25.07605 -67.817078 -4.957541
-38.748276 -67.718018 -1.7916369
-25.134659 -67.68721 -9.0800514
-30.574448 -67.486359 -1.648388
-21.202072 -67.58033 -4.5969372
-21.02948 -67.304543 -8.0834713
-39.848526 -66.885757 -1.78634
-32.507759 -66.995377 -2.727803
-29.143215 -66.993614 -6.6093688
-32.715851 -66.575165 -1.6713459
-38.260319 -66.447403 -1.872431
-33.101669 -66.497025 -1.923702
-33.298172 -66.566818 -2.4962511
-30.557577 -66.263817 -4.687346
-23.277973 -66.079002 -9.2607212
-23.682796 -66.095314 -10.352417
-32.662624 -65.984955 -1.851306
-20.453226 -65.886055 -9.3916416
-23.895622 -65.854225 -10.169841
-24.182755 -65.904121 -10.201502
-24.947487 -65.480774 -10.106719
-37.842728 -65.304344 -1.856553
-33.334332 -65.264359 -3.325422
-24.02063 -65.339752 -8.9690914
-24.618341 -65.396919 -10.255298
-24.69894 -65.037605 -10.099743
-34.832993 -64.76754 -2.069005
-33.778259 -64.671295 -3.203948
-24.391651 -64.765732 -10.26798
-22.969891 -64.523682 -7.7589812
-22.928406 -64.384239 -7.9074011
-39.382149 -64.113274 -1.530409
-38.928082 -64.077919 -1.6650929
-38.28228 -63.986874 -1.784044
-22.76767 -63.806278 -8.9675322
-23.343079 -63.758736 -7.7509961
-38.187664 -63.413567 -1.67015
-22.40012 -63.42749 -9.2912769
-22.180222 -63.534588 -10.187667
-22.280582 -63.263557 -9.2933102
-39.393555 -62.524742 -3.337811
-39.002602 -62.525337 -3.3351121
-39.466145 -62.249847 -3.4476321
-30.258114 -62.041317 -9.5058117
-26.844852 -62.146317 -9.5847721
-21.745335 -61.820953 -1.131429
-39.030045 -61.972988 -2.326401
-23.570742 -61.805813 -2.592649
-26.411835 -61.847267 -3.9334371
-39.641964 -61.783752 -1.4544719
-31.42939 -61.639282 -1.578369
-22.247068 -61.770569 -1.74148
-26.608976 -61.625801 -1.831357
-25.091595 -61.631149 -2.0374451
-25.313023 -61.683273 -2.3106971
-23.055918 -61.638161 -2.2124791
-26.142742 -61.638035 -2.641917
-25.927887 -61.72723 -2.6380351
-24.877571 -61.619209 -2.6494069
-23.758156 -61.644199 -2.874531
-20.655178 -61.74649 -2.8060839
-24.958668 -61.670822 -3.566375
-21.953156 -61.685452 -3.5210831
-39.417027 -61.787888 -3.6952641
-38.907898 -61.685322 -3.7344961
-22.148319 -61.68206 -3.768249
-21.832253 -61.71793 -3.770957
-24.23628 -61.602516 -3.869508
-22.061401 -61.689293 -4.6494579
-21.485619 -61.682652 -4.7064338
-21.568714 -61.666 -5.0704999
-21.184929 -61.699341 -5.0824008
-23.407501 -61.754196 -5.260221
-39.730553 -61.744648 -5.437696
-38.630405 -61.756702 -5.4621119
-25.901806 -61.683372 -6.1136479
-24.386257 -61.608086 -7.3585701
-22.17123 -61.653732 -8.0699968
-21.975121 -61.656349 -9.2277241
-27.707224 -61.756622 -9.4595432
-27.525536 -61.785831 -9.4510603
-27.078711 -61.570183 -1.387409
-30.988598 -61.480564 -1.781557
-28.616638 -61.473526 -1.715524
-27.77652 -61.524643 -1.770632
-25.4373 -61.530022 -2.53561
-33.820526 -61.524483 -2.6775601
-28.516069 -61.467667 -2.6280971
-28.592512 -61.43911 -2.8159461
-25.100567 -61.555702 -3.773103
-26.279964 -61.413334 -4.75316
-23.318241 -61.539204 -4.707932
-27.915428 -61.436619 -4.9304709
-23.177216 -61.574215 -4.8683391
-27.799942 -61.433823 -6.3810959
-25.042484 -61.532932 -7.4703269
-24.506062 -61.526398 -7.4456792
-21.856251 -61.577118 -7.5312462
-22.177788 -61.578491 -9.1500359
-21.914146 -61.428619 -9.8445177
-23.919498 -61.522709 -10.276654
-22.464903 -61.439671 -11.779524
-22.653299 -61.421757 -12.256079
-37.415623 -61.314365 -1.456375
-35.572548 -61.241257 -1.562251
-34.113266 -61.296303 -1.5371211
-33.696663 -61.311096 -1.5004489
-31.791534 -61.37524 -1.5774831
-32.205872 -61.249481 -2.267303
-38.923561 -61.345261 -2.873733
-34.894501 -61.209114 -2.8534479
-34.422268 -61.23661 -2.8660669
-32.568428 -61.30706 -2.881542
-32.209747 -61.317223 -2.932102
-29.26668 -61.396263 -2.819978
-33.249538 -61.215282 -3.5469041
-30.085995 -61.283768 -3.430835
-32.358017 -61.302635 -3.739944
-30.079351 -61.35479 -3.7629459
-31.910042 -61.211678 -3.878763
-29.04681 -61.399124 -3.879297
-35.833565 -61.205414 -4.7083941
-34.999565 -61.207047 -4.655035
-30.101328 -61.273964 -4.7147899
-32.670036 -61.253944 -4.9739461
-38.999352 -61.273754 -5.4176011
-28.647259 -61.389931 -6.0637188
-29.898952 -61.251999 -6.3727531
-29.599846 -61.258987 -6.389051
-28.637508 -61.309853 -6.4426351
-32.172249 -61.263123 -6.7849989
-25.407455 -61.395096 -6.622869
-33.752422 -61.206982 -6.9853692
-31.333286 -61.302864 -6.9115238
-28.522659 -61.331371 -7.3362031
-33.184353 -61.204681 -7.9044399
-32.17395 -61.215736 -8.09865
-28.1875 -61.303123 -8.9402599
-27.912342 -61.373924 -9.6904688
-30.958778 -61.205734 -10.730679
-28.22356 -61.24939 -11.327318
-39.728539 -61.002861 -1.5504611
-36.620461 -61.161278 -1.576273
-38.932785 -61.121532 -2.2146921
-36.267532 -61.08202 -2.359215
-36.596638 -61.083107 -2.499099
-39.373508 -61.010891 -2.8924811
-36.114639 -61.127159 -2.9093609
-35.735161 -61.150818 -2.9082351
-34.967274 -61.1269 -3.077419
-33.424164 -61.098953 -3.120693
-30.131008 -61.130905 -3.3662889
-35.417854 -61.0835 -3.402724
-30.521461 -61.118305 -4.6399808
-33.162445 -61.138878 -5.024549
-31.221146 -61.130093 -5.461185
-33.205704 -61.19931 -5.7006178
-36.270504 -61.12738 -5.81638
-32.926277 -61.119308 -6.2086668
-35.465958 -61.100826 -6.5508552
-34.342785 -61.162186 -6.6315441
-34.960419 -61.121456 -6.8903661
-33.822716 -61.136936 -6.9914622
-33.1003 -61.129543 -7.0570698
-34.748943 -61.124954 -7.5210371
-36.769028 -61.197273 -7.6037579
-35.068588 -61.076591 -7.80972
-33.022362 -61.12854 -8.0442314
-32.261143 -61.188969 -8.0987873
-36.515999 -61.004021 -8.5119762
-36.239059 -61.004387 -8.6716919
-35.743088 -61.035957 -9.294342
-32.077698 -61.100323 -11.285016
-30.855816 -61.114388 -11.264375
-30.195011 -61.172802 -11.420959
-29.466679 -61.061146 -11.506926
-36.938347 -60.983669 -2.2929871
-39.768776 -60.943245 -2.712801
-36.604084 -60.910706 -3.59618
-39.736847 -60.948807 -4.2419329
-39.379738 -60.966614 -4.3250251
-39.014442 -60.993301 -4.5382071
-39.27491 -60.978603 -5.3780012
-39.413078 -60.951187 -5.8387189
-39.318222 -60.998901 -6.569025
-39.129128 -60.977798 -6.525167
-37.216705 -60.927116 -6.8858418
-39.471245 -60.982224 -7.4165101
-39.052673 -60.989098 -7.4344769
-38.581207 -60.927753 -7.722187
-39.302605 -60.884296 -8.1596794
-37.003204 -60.841454 -8.2929335
-38.980202 -60.904907 -8.5414944
-37.557522 -60.820625 -8.5575275
-33.208458 -60.847786 -9.0326309
-36.642403 -60.727592 -3.80744
-39.541023 -60.736542 -9.999404
-25.150032 -60.461391 -9.1522064
-22.063362 -79.849464 -3.673007
-39.598591 -79.90242 -3.853137
-39.577351 -79.827309 -5.1015382
-34.802383 -79.96891 -8.108283
-33.213135 -79.63298 -2.413013
-39.55769 -79.712181 -5.2844591
-31.954872 -79.656456 -6.424262
-36.624592 -79.494781 -1.96901
-39.691517 -79.488281 -2.107888
-39.659813 -79.442978 -2.5406859
-39.387531 -79.44574 -2.7112801
-32.987263 -79.495674 -2.646261
-39.667099 -79.497414 -3.267411
-34.991489 -79.581833 -3.277236
-39.633331 -79.423126 -3.488534
-36.449104 -79.44603 -4.786293
-38.670048 -79.444626 -5.7662792
-39.40921 -79.290184 -3.423981
-33.248508 -79.319832 -3.988811
-32.040531 -79.316956 -5.8741059
-36.501495 -79.088898 -4.0594578
-35.827072 -79.125366 -6.1938958
-34.586681 -79.140411 -10.163636
-36.940418 -78.809868 -2.0285771
-34.05608 -78.846558 -2.356245
-39.01696 -78.907059 -7.073627
-34.358128 -78.886147 -10.607742
-33.737236 -78.646652 -3.1133251
-37.173325 -78.639633 -3.871084
-36.831978 -78.736511 -5.7722511
-39.038994 -78.790123 -7.0975652
-30.357422 -78.672234 -7.1762509
-34.775772 -78.671455 -8.0915403
-35.053505 -78.607178 -8.3248634
-34.726135 -78.785484 -10.74332
-34.249962 -78.54953 -2.5772319
-34.343674 -78.470345 -3.433656
-38.740868 -78.552322 -4.266623
-38.27285 -78.53231 -6.4174562
-36.560879 -78.533829 -7.2126288
-37.066265 -78.339134 -1.9980741
-34.361359 -78.218445 -2.531945
-37.514572 -78.320549 -3.8653231
-38.471272 -78.248978 -5.3628359
-34.131046 -78.375046 -6.9985809
-21.363701 -78.283928 -6.8566241
-36.702515 -78.31263 -7.1959729
-36.63435 -78.305511 -7.2118592
-36.896961 -78.226921 -10.237405
-34.304623 -78.086044 -3.36465
-34.36895 -78.126617 -4.6486721
-34.491249 -78.073006 -5.3022199
-38.220959 -78.050461 -5.7599521
-37.135841 -77.837418 -2.072166
-34.489441 -77.879913 -2.312021
-37.03001 -77.697189 -2.0895891
-32.929855 -77.623703 -3.330579
-38.48737 -77.734795 -4.7282848
-38.855099 -77.729248 -5.0721178
-33.898529 -77.429535 -2.665684
-33.674286 -77.486748 -2.7289939
-33.229679 -77.40274 -4.9491711
-32.975075 -77.359512 -4.167943
-32.196472 -77.356438 -4.2198491
-38.185699 -77.352562 -5.0512562
-35.534985 -77.054703 -1.980603
-37.963997 -77.167679 -4.956224
-36.701939 -77.089867 -5.7943258
-33.354454 -77.019493 -6.976891
-33.660904 -77.112473 -8.2791939
-34.308289 -77.007904 -9.3799648
-31.86055 -76.906174 -2.962867
-33.479042 -76.904327 -3.914902
-33.138744 -76.865593 -4.028265
-35.958202 -76.934921 -6.3503151
-34.931419 -76.907097 -6.3027968
-29.137218 -76.805885 -7.3086872
-35.409859 -76.929291 -9.3622942
-38.232929 -76.67218 -1.952734
-33.723701 -76.696266 -2.4201751
-31.956715 -76.67746 -4.4378319
-37.235741 -76.765305 -7.0315838
-31.843788 -76.541328 -2.5853341
-29.457802 -76.587212 -2.7260909
-31.319485 -76.482361 -3.9959221
-37.042046 -76.531227 -7.0831599
-33.558731 -76.478348 -9.293046
-34.162926 -76.453186 -10.190981
-31.20768 -76.300087 -3.9508121
-36.765747 -76.25238 -4.9979491
-26.944828 -76.225082 -7.3342891
-25.824869 -76.108238 -2.861279
-34.259216 -76.102188 -6.1243062
-34.420555 -76.061249 -9.937048
-33.937481 -76.152069 -10.647865
-33.292725 -76.09201 -10.734077
-38.189243 -75.833191 -1.895981
-33.831348 -75.890259 -2.0276921
-33.465858 -75.990784 -2.1259949
-25.669432 -75.931519 -3.742393
-37.47282 -75.861969 -4.71663
-38.530041 -75.849472 -10.091003
-38.946495 -75.708923 -1.944291
-34.095848 -75.666084 -1.935384
-21.042015 -75.613693 -3.068912
-26.497601 -75.637657 -3.5820751
-38.514633 -75.630409 -3.656805
-38.161175 -75.750633 -4.57795
-37.920689 -75.750893 -4.6712232
-39.886452 -75.610855 -5.1642041
-20.294571 -75.682709 -7.4356098
-34.364746 -75.640884 -9.9008083
-31.935261 -75.440002 -1.964252
-37.812279 -75.532204 -4.89604
-36.137619 -75.580421 -4.962883
-22.577854 -75.542625 -10.095945
-31.384418 -75.385101 -1.92812
-27.803379 -75.314606 -4.748117
-28.281525 -75.108284 -2.170146
-28.081665 -75.149704 -2.9103911
-27.585339 -75.169556 -3.1684849
-39.735821 -75.196129 -3.447263
-32.219624 -75.048706 -8.0907192
-32.243523 -74.825058 -1.932425
-27.848782 -74.855247 -2.0200579
-27.445787 -74.89032 -2.5557461
-32.24691 -74.807549 -7.997333
-27.29213 -74.662872 -3.7375519
-32.19035 -74.732559 -7.9872432
-32.261299 -74.666306 -8.1167545
-31.757397 -74.420219 -2.8881471
-31.610786 -74.508575 -3.799901
-31.558994 -74.467361 -4.4547272
-26.966057 -74.482483 -6.0948029
-27.199738 -74.451385 -6.4573002
-31.821453 -74.329666 -2.1721101
-31.66148 -74.291695 -3.3061099
-27.266294 -74.313171 -3.712996
-31.446253 -74.224785 -4.7451758
-31.379995 -74.253601 -6.227839
-31.344254 -74.227989 -6.7198119
-31.323498 -74.281937 -7.390245
-20.664478 -74.030266 -2.213217
-31.737782 -74.109016 -2.6213441
-31.498476 -74.047607 -2.6757939
-20.970669 -74.11956 -3.52669
-31.545666 -74.191917 -3.691179
-39.923737 -74.188232 -4.775331
-32.330326 -74.196388 -8.8938293
-37.381607 -73.946106 -2.088285
-37.790371 -73.942329 -2.264189
-27.219559 -73.936127 -2.370687
-21.01214 -73.887825 -3.4936421
-37.447163 -73.804291 -6.048018
-39.483223 -73.744568 -9.4072819
-38.65049 -73.501091 -2.0996139
-27.144157 -73.461197 -2.355742
-37.983891 -73.415199 -2.530894
-26.958771 -73.458618 -3.65481
-26.894903 -73.408379 -4.687623
-26.824999 -73.474365 -8.1525679
-26.681194 -73.286407 -2.4340911
-22.543816 -73.307701 -4.745811
-26.341776 -73.304657 -10.633543
-29.996876 -73.192406 -6.769906
-31.970924 -72.906319 -1.80364
-26.45834 -72.979439 -2.4202859
-23.892578 -72.847214 -3.5635741
-22.404621 -72.927292 -3.488898
-26.32341 -72.924622 -5.142519
-21.987141 -72.872032 -7.1855922
-39.75499 -72.921753 -9.4951172
-36.50412 -72.958839 -9.6927338
-34.90802 -72.857025 -10.092215
-23.797064 -72.60511 -3.886688
-26.063087 -72.645493 -5.9111891
-20.917923 -72.676674 -6.0452528
-22.259502 -72.714241 -7.1580262
-26.144119 -72.695847 -10.726254
-39.018761 -72.58432 -2.062325
-38.99704 -72.536346 -2.072526
-22.014385 -72.579079 -4.4581728
-24.401112 -72.359215 -5.7244601
-25.488575 -72.203224 -5.911787
-34.454597 -72.23452 -8.3051224
-26.457626 -72.270348 -9.308217
-23.206816 -72.202026 -9.740078
-28.1889 -72.210678 -10.595959
-23.156038 -72.139824 -9.7294817
-38.901276 -71.877579 -1.773801
-25.738674 -71.800797 -4.538424
-25.376806 -71.814148 -4.6575341
-25.437029 -71.934807 -5.8599172
-25.454304 -71.893051 -10.561615
-25.139381 -71.716843 -3.8594911
-26.460445 -71.663139 -7.9599652
-25.494457 -71.250771 -4.9748712
-29.897709 -71.360764 -5.9099131
-38.284554 -71.083221 -1.8096859
-37.976307 -70.921623 -1.795897
-38.856152 -70.900703 -1.803046
-21.821289 -70.827255 -2.7749209
-24.685028 -70.869377 -4.4699101
-26.21529 -70.877739 -6.4433351
-26.634674 -70.947006 -6.6592178
-30.718121 -70.778633 -2.4366751
-25.707119 -70.629631 -9.1912813
-25.166004 -70.53447 -3.761941
-30.901581 -70.551666 -7.369895
-24.851744 -70.556946 -9.4184074
-25.15864 -70.218872 -3.3527579
-25.284281 -70.261757 -3.7965741
-25.068615 -70.283928 -5.3844442
-24.983856 -70.304115 -5.6102309
-26.527538 -70.32843 -7.9091182
-39.717346 -70.377045 -8.6710949
-25.134926 -70.231918 -9.3243446
-39.04015 -70.055237 -1.783765
-26.814705 -70.173698 -6.8547869
-26.947037 -70.124535 -7.8142829
-39.160706 -69.958496 -1.728531
-25.288353 -69.933083 -4.4161849
-25.143948 -69.895271 -4.421495
-30.515739 -69.831924 -5.9824529
-31.561081 -69.95565 -6.503624
-20.276752 -69.847244 -8.3694191
-39.770836 -69.763962 -1.801905
-25.609222 -69.600037 -6.7680001
-34.032372 -69.542831 -1.789021
-24.622616 -69.558868 -4.3461452
-25.037701 -69.42318 -4.479938
-25.578159 -69.408356 -5.3861351
-25.585314 -69.509743 -8.0508137
-26.779026 -69.225075 -1.583508
-29.814228 -69.277206 -5.534452
-21.128626 -69.119331 -3.1073599
-24.647097 -69.042633 -3.7651889
-25.40007 -69.021713 -6.6680112
-37.055706 -68.873306 -1.792858
-35.601688 -68.802238 -1.716244
-25.826725 -68.806763 -3.936903
-21.278454 -68.870758 -3.9524961
-21.224033 -68.832123 -4.2398849
-20.290361 -68.90995 -4.3222518
-26.683689 -68.690018 -2.0766859
-25.830795 -68.61438 -4.2773538
-21.216824 -68.721283 -4.2306709
-25.895454 -68.743187 -4.4216371
-21.172482 -68.638512 -5.0115538
-25.700735 -68.671768 -7.9149132
-25.78282 -68.607239 -9.009737
-25.117386 -68.788383 -10.668106
-37.338367 -68.563675 -1.7847511
-25.788082 -68.575058 -3.9397171
-25.758163 -68.539452 -4.2693372
-21.322401 -68.544197 -5.052732
-25.286251 -68.221016 -4.5954218
-29.179794 -68.338684 -6.4398971
-38.290546 -68.133591 -1.7986701
-20.385002 -67.821754 -4.2567759
-25.057133 -67.961136 -5.3323779
-20.57176 -67.818626 -5.5243721
-37.365208 -67.795616 -1.6924469
-30.475563 -67.616562 -1.65352
-33.377117 -67.635452 -2.147562
-30.451548 -67.760773 -6.376761
-25.571537 -67.734123 -10.207092
-33.320358 -67.493401 -2.143295
-38.130135 -67.364899 -1.711809
-32.227501 -67.244102 -2.3660121
-36.40678 -67.040398 -1.7352771
-35.310368 -67.053734 -1.685766
-37.564266 -67.093399 -1.888682
-32.267746 -67.040436 -2.9477999
-23.230297 -67.037064 -10.49019
-32.808506 -66.920609 -1.694979
-33.813824 -66.866791 -2.2159021
-21.369741 -66.953888 -4.9672031
-33.731125 -66.644806 -1.711616
-33.383591 -66.620461 -2.1584949
-23.476059 -66.646576 -10.425823
-30.149132 -66.378151 -5.1425171
-36.861557 -66.108536 -1.840291
-32.620522 -66.087357 -2.6700649
-32.892647 -65.994614 -1.986181
-32.505745 -65.992188 -2.5739379
-30.99229 -65.910721 -4.053422
-30.437885 -65.874176 -5.23528
-23.717224 -65.826752 -8.9845276
-24.277737 -65.911148 -10.265883
-37.480808 -65.579468 -1.919273
-36.844475 -65.570938 -1.946508
-39.073227 -65.26973 -2.093107
-24.119652 -65.340187 -10.164461
-33.702473 -65.043892 -3.2034049
-33.377579 -65.043625 -3.3442991
-33.260521 -64.85495 -2.657563
-33.018867 -64.921921 -2.700192
-39.746944 -64.703209 -1.597611
-23.707577 -64.423714 -9.0804567
-33.292393 -64.193726 -3.4586141
-23.380625 -64.139977 -7.837306
-23.267178 -64.180199 -9.2155275
-37.678265 -63.99102 -1.860505
-22.688065 -63.865158 -10.127684
-22.14476 -63.920383 -10.472294
-20.741772 -63.713512 -10.465589
-21.880552 -63.427914 -10.272872
-21.193069 -63.30632 -10.540055
-37.893173 -62.918549 -1.626413
-21.736996 -62.967484 -9.0445538
-37.779114 -62.641712 -1.6039701
-39.228981 -62.261654 -3.4470911
-20.749245 -62.073856 -2.5685279
-22.591217 -61.855682 -1.3095241
-21.882771 -61.859146 -2.5759921
-20.643932 -61.908028 -2.5019419
-26.331387 -61.870209 -3.8727379
-26.31448 -61.884293 -4.0866151
-31.31525 -61.997368 -5.2724071
-22.289318 -61.781548 -1.109159
-23.444199 -61.703827 -1.383829
-30.562439 -61.664017 -1.518186
-24.603092 -61.657471 -1.456768
-23.683382 -61.699539 -1.77811
-22.571503 -61.767994 -1.926869
-21.850691 -61.76276 -1.8480591
-26.728825 -61.6446 -2.3395021
-24.840347 -61.694729 -2.3010399
-38.994789 -61.750183 -2.868937
-22.905174 -61.702423 -3.4398811
-27.62323 -61.732464 -3.820842
-23.841396 -61.648327 -4.5688829
-22.955042 -61.688881 -4.5870271
-22.440575 -61.699028 -5.043242
-36.962154 -61.791489 -5.5431399
-36.677921 -61.75927 -5.515223
-26.172495 -61.614197 -7.2724771
-23.846031 -61.631493 -7.4427538
-27.370901 -61.554565 -1.542804
-31.811676 -61.516983 -1.680553
-28.89529 -61.485268 -1.709437
-26.512711 -61.487236 -1.687994
-25.254864 -61.525047 -2.0821719
-23.59119 -61.599274 -2.0480809
-29.341057 -61.48175 -2.248759
-26.836485 -61.514572 -2.2233241
-24.515408 -61.573845 -2.2555029
-37.789345 -61.463383 -2.516489
-26.560837 -61.544872 -2.522964
-31.556767 -61.407448 -2.8671341
-23.025238 -61.595917 -3.5727539
-24.008381 -61.5784 -3.6716349
-23.544521 -61.569416 -3.836791
-22.508667 -61.596367 -4.0150871
-28.635653 -61.416763 -4.7374902
-23.722237 -61.520134 -4.698802
-28.055573 -61.40337 -5.3677592
-37.751385 -61.445415 -5.4816489
-26.914307 -61.49519 -6.0475178
-24.783688 -61.494019 -6.0994101
-23.816053 -61.527924 -6.146924
-24.139568 -61.507076 -7.465343
-22.273426 -61.546928 -7.4566512
-21.473068 -61.566643 -7.5162892
-26.284348 -61.400749 -8.3256483
-24.192039 -61.482117 -8.6454325
-21.943623 -61.559624 -8.9527426
-29.949942 -61.457245 -9.3999109
-27.734692 -61.437538 -9.4382505
-25.588112 -61.518974 -9.9193869
-24.343029 -61.458038 -10.164849
-25.890785 -61.483597 -11.306387
-24.558886 -61.403522 -11.461944
-23.520729 -61.51651 -11.572868
-38.801498 -61.243351 -1.554338
-37.698486 -61.37579 -1.519047
-34.590767 -61.292709 -1.489325
-32.479347 -61.349415 -1.5413181
-34.450848 -61.253265 -1.788059
-32.637276 -61.346062 -1.672525
-32.478184 -61.288025 -1.649716
-32.208538 -61.302559 -1.64441
-34.254002 -61.268661 -1.837527
-33.839127 -61.274666 -1.862624
-36.277763 -61.20105 -2.207432
-32.719036 -61.226341 -2.242101
-33.241562 -61.25412 -2.499145
-35.035328 -61.216339 -2.6581881
-34.182259 -61.24707 -2.8523059
-30.982946 -61.376205 -2.8730321
-33.228214 -61.238949 -3.736598
-32.589058 -61.276611 -3.702899
-39.07523 -61.37212 -3.814028
-30.514393 -61.223858 -3.8388319
-32.184921 -61.257812 -4.0198612
-29.710737 -61.33028 -4.126657
-32.68576 -61.278938 -4.7036529
-29.064281 -61.387039 -4.737782
-29.478188 -61.39476 -4.949132
-31.097225 -61.250401 -5.3161302
-31.799623 -61.245857 -5.8683758
-31.126823 -61.297096 -5.809413
-28.557606 -61.374367 -5.8724451
-28.300362 -61.326096 -6.4614639
-34.574116 -61.223671 -6.6433778
-32.893284 -61.267296 -6.7482538
-31.8783 -61.215023 -6.645494
-33.892921 -61.391357 -7.4792771
-32.617126 -61.265911 -7.901926
-30.072083 -61.207203 -7.9940052
-31.74214 -61.229347 -8.134613
-30.011658 -61.219296 -8.7022438
-29.631702 -61.296196 -8.7384367
-29.317654 -61.310833 -8.7680111
-28.97398 -61.333794 -8.8005238
-30.015886 -61.276428 -9.1386585
-29.014164 -61.367195 -9.2898808
-30.583967 -61.378571 -9.4312248
-29.31028 -61.243973 -9.8196049
-29.056122 -61.243683 -9.8431215
-27.951969 -61.279568 -11.35727
-23.128819 -61.29501 -12.239261
-38.114239 -61.039352 -1.463447
-35.309597 -61.145496 -1.5425
-34.916485 -61.175255 -1.584384
-37.657257 -61.155048 -1.627918
-36.511486 -61.157219 -1.685213
-38.928089 -61.128448 -1.926625
-34.289436 -61.192108 -1.822315
-35.898346 -61.087929 -2.350204
-33.800137 -61.176182 -2.3394411
-33.486839 -61.198597 -2.3327849
-37.722614 -61.086845 -2.9740601
-35.368576 -61.165115 -2.9072709
-33.019531 -61.190582 -3.124414
-32.521248 -61.196217 -3.1211309
-35.049171 -61.097233 -3.4019029
-34.787136 -61.112183 -3.4233191
-35.333488 -61.142704 -3.7276061
-32.557388 -61.186264 -4.0578208
-32.274059 -61.191769 -4.062923
-35.761234 -61.145065 -4.6532059
-35.407524 -61.115501 -4.628942
-34.244499 -61.022575 -4.601007
-36.624451 -61.005829 -4.8387332
-35.751266 -61.131882 -4.8805122
-35.013031 -61.143494 -4.895823
-33.710861 -61.044785 -4.9268751
-33.661156 -61.129089 -5.5993242
-35.407894 -61.129269 -5.8332038
-34.391506 -61.096111 -6.132195
-31.510616 -61.199203 -6.285264
-37.273056 -61.070915 -6.4656739
-36.631744 -61.097603 -6.5023708
-35.030884 -61.170296 -6.6163058
-32.890671 -61.184765 -6.7233262
-37.809204 -61.001141 -6.9083862
-31.365643 -61.190479 -6.8738441
-33.34565 -61.151955 -7.0058088
-38.109032 -61.027443 -7.29386
-35.80896 -61.049324 -7.4789472
-35.052444 -61.038689 -8.1543503
-30.519852 -61.146477 -8.1719141
-30.142502 -61.133171 -8.1256924
-29.852242 -61.191292 -8.0966005
-33.036648 -61.053886 -8.5421467
-32.121002 -61.156254 -8.9732161
-31.603794 -61.186779 -9.2179613
-29.341293 -61.147701 -9.6899204
-28.900352 -61.170456 -9.730217
-31.612465 -61.116894 -9.8204222
-28.006359 -61.171242 -9.8130913
-29.803652 -61.153912 -10.088918
-32.160522 -61.043152 -11.155872
-39.955574 -60.923519 -3.684849
-38.673775 -60.995647 -3.780055
-37.091721 -60.932251 -4.8588839
-36.758686 -60.998306 -6.0099859
-39.039207 -60.91613 -7.1203899
-38.809761 -60.869499 -8.3672314
-36.540573 -60.960686 -8.3462296
-39.381817 -60.859215 -8.5597382
-38.60363 -60.939865 -8.456892
-39.606602 -60.840569 -8.9357567
-34.023075 -60.927773 -9.6914177
-33.642399 -60.992092 -11.121524
