# .PCD v0.7 - Point Cloud Data file format
VERSION 0.7
FIELDS x y z
SIZE 4 4 4
TYPE F F F
COUNT 1 1 1
WIDTH 1467
HEIGHT 1
VIEWPOINT 0 0 0 1 0 0 0
POINTS 1467
DATA ascii
-26.538654 -216.20703 -6.47227
-28.566422 -216.34058 -8.5354309
-28.275345 -216.22766 -9.1225357
-27.899607 -216.37958 -9.1672039
-28.624229 -216.31079 -9.2121115
-29.244873 -216.28397 -9.6684132
-29.079905 -216.35342 -9.6739311
-28.101234 -216.30655 -9.6831703
-27.84454 -216.20554 -9.699296
-27.015949 -216.2355 -9.7117786
-25.639463 -216.2851 -9.700407
-25.129593 -216.29776 -9.8780537
-28.79405 -216.23471 -10.211055
-26.957108 -216.2484 -10.237932
-25.673561 -216.33488 -10.47154
-25.463203 -216.22153 -10.459876
-27.539322 -216.23 -10.764129
-26.629362 -216.27643 -10.77611
-24.247066 -216.35606 -10.790396
-27.269005 -216.24728 -10.936437
-26.497154 -216.22513 -10.845121
-24.489861 -216.33856 -10.89267
-24.364828 -216.21538 -10.921227
-26.996622 -216.27672 -11.362123
-23.425852 -216.19164 -5.776011
-38.712761 -216.19431 -5.9902682
-37.055843 -216.14819 -5.9927702
-35.300957 -216.19199 -5.972074
-33.952595 -216.12805 -5.9022918
-31.865705 -216.086 -5.8783679
-25.519785 -216.02121 -5.9260569
-24.541786 -216.08917 -5.9580612
-25.524109 -216.04169 -6.0653639
-24.455399 -216.15842 -6.1801019
-28.552998 -216.00386 -6.3799362
-26.40646 -216.19202 -6.3869061
-26.244989 -216.18414 -6.3738809
-24.360043 -216.07092 -6.571969
-28.54007 -216.0062 -8.082386
-28.06892 -216.1347 -8.572155
-28.471863 -216.10236 -9.1232309
-27.300434 -216.00752 -9.2074432
-27.096737 -216.10767 -9.2105455
-26.758762 -216.105 -9.2190809
-28.65675 -216.14392 -9.7220945
-27.533655 -216.09415 -9.6822653
-25.427223 -216.14012 -9.7790194
-29.392042 -216.03085 -10.362919
-28.995033 -216.03519 -10.251535
-26.460918 -216.05162 -10.272165
-26.377281 -216.02187 -10.266426
-25.268368 -216.07365 -10.354247
-25.136864 -216.07281 -10.351701
-29.280685 -216.15524 -10.42371
-26.376612 -216.07703 -10.51474
-28.434414 -216.15466 -10.777142
-28.58181 -216.16437 -10.981579
-28.216446 -216.10057 -10.99221
-27.79311 -216.1853 -10.920432
-26.938572 -216.14604 -10.885959
-26.662205 -216.15079 -10.822535
-26.283443 -216.12903 -10.878849
-25.719082 -216.09363 -10.849737
-23.080099 -215.80464 -5.7583308
-38.605904 -215.80206 -5.9696422
-37.647881 -215.832 -5.9354811
-36.939133 -215.8553 -5.980103
-36.091896 -215.99451 -5.9706779
-35.139717 -215.8485 -5.9574108
-34.137688 -215.96384 -5.9162879
-32.480095 -215.91365 -5.9199772
-31.635109 -215.81931 -5.8641348
-30.675499 -215.91405 -5.9528518
-29.140812 -215.91055 -5.9295292
-24.802299 -215.97978 -5.9379191
-24.778801 -215.89517 -5.8306532
-25.382441 -215.8145 -6.0807571
-24.60008 -215.93761 -6.0912662
-29.161407 -215.80132 -6.3318701
-28.320515 -215.94041 -6.385107
-27.258202 -215.80585 -6.3539319
-26.457993 -215.96878 -6.3916841
-26.182297 -215.86307 -6.38627
-24.508947 -215.87981 -6.468246
-28.532181 -215.9025 -7.9654441
-28.527302 -215.89359 -8.0408897
-28.392147 -215.81657 -8.0462685
-28.509314 -215.80286 -8.597249
-26.964104 -215.85162 -9.1721992
-26.858418 -215.98325 -9.2160997
-27.751854 -215.8981 -9.7448406
-27.082499 -215.8862 -9.7521381
-26.5268 -215.8947 -9.8475151
-26.379822 -215.92261 -9.8048878
-25.026392 -215.94354 -9.8359518
-29.282059 -215.89386 -10.276582
-29.059975 -215.86673 -10.232985
-26.654234 -215.86668 -10.308538
-26.268446 -215.87933 -10.309668
-24.656641 -215.8252 -10.371985
-28.923962 -215.94843 -10.425023
-26.079996 -215.82166 -10.541581
-25.69014 -215.91211 -10.489538
-26.123146 -215.92213 -10.856228
-24.310722 -215.82198 -10.868143
-26.41272 -215.91949 -12.336552
-39.033653 -215.75044 -5.9873438
-36.168884 -215.77458 -5.9750848
-33.92165 -215.78584 -5.907814
-29.325653 -215.68805 -5.9089098
-25.360954 -215.78839 -5.9309249
-25.792593 -215.78558 -6.1837902
-24.955956 -215.71083 -6.1813731
-29.252445 -215.75505 -6.2215071
-28.496693 -215.76953 -6.3918262
-28.197475 -215.71857 -6.3879719
-29.743855 -215.67265 -8.5277901
-29.481678 -215.70149 -8.5173607
-30.281849 -215.71957 -9.133791
-28.178925 -215.76691 -9.1108942
-26.715908 -215.68755 -9.1635818
-26.933834 -215.79831 -9.2273645
-26.478365 -215.66696 -9.2331753
-24.52438 -215.63297 -9.2830038
-26.368225 -215.72931 -9.4154015
-29.37834 -215.69713 -9.7010984
-28.914261 -215.75523 -9.7383575
-28.70607 -215.72882 -9.7012997
-26.236132 -215.67889 -9.8592587
-25.432739 -215.71236 -10.356451
-25.169563 -215.70499 -10.288318
-29.396782 -215.76392 -10.432325
-24.298386 -215.74309 -10.457034
-29.836464 -215.61917 -10.876699
-29.788361 -215.64819 -10.897085
-29.321705 -215.67682 -10.872667
-29.176313 -215.63324 -10.835295
-25.926886 -215.78374 -10.905875
-24.634571 -215.76869 -10.979612
-20.189831 -215.47656 -5.6653018
-38.850471 -215.51466 -5.9792261
-37.587009 -215.44463 -5.9159598
-36.836807 -215.57323 -5.9674869
-36.133644 -215.42589 -5.9648628
-32.266087 -215.46677 -5.9014568
-30.482157 -215.43796 -5.931457
-29.65361 -215.54358 -5.824852
-29.311226 -215.47849 -5.8843222
-25.072798 -215.51895 -5.8055472
-24.902969 -215.40558 -5.9779801
-24.871601 -215.41109 -6.1397462
-27.79389 -215.4362 -6.3913589
-26.139948 -215.59384 -6.3803458
-24.767384 -215.47917 -6.3249478
-24.564939 -215.53551 -6.5683041
-29.578861 -215.53436 -8.5699711
-28.517313 -215.4716 -8.5983772
-27.846884 -215.45982 -8.5162382
-26.843771 -215.47556 -8.6401463
-26.703623 -215.44223 -8.6546745
-29.001816 -215.44034 -9.1687927
-26.922432 -215.47534 -9.145402
-26.456081 -215.53769 -9.1509571
-28.871864 -215.40436 -9.2603149
-25.5541 -215.44724 -9.3019457
-29.273304 -215.49771 -9.7082958
-29.0033 -215.40143 -9.7490606
-26.762577 -215.48213 -9.7266636
-26.242508 -215.43715 -9.7497129
-25.576717 -215.51025 -9.7402544
-26.040546 -215.53506 -10.297421
-25.904503 -215.41342 -10.370518
-25.425106 -215.48497 -10.383829
-30.15299 -215.43823 -10.515461
-29.643026 -215.52075 -10.57556
-29.437492 -215.52271 -10.492695
-25.417503 -215.53827 -10.466809
-24.563778 -215.46652 -10.442703
-24.354565 -215.56937 -10.523758
-27.321764 -215.43333 -10.650928
-30.121216 -215.43356 -10.848619
-29.864828 -215.48422 -10.858206
-27.463085 -215.47398 -10.895788
-25.307655 -215.54579 -15.24773
-24.317131 -215.30484 -5.7634158
-21.850885 -215.36449 -5.722446
-35.924042 -215.30496 -5.9351959
-29.463079 -215.3418 -5.824429
-25.174669 -215.38176 -5.8480382
-27.414131 -215.32304 -6.3821449
-26.743328 -215.24162 -6.3203702
-28.604713 -215.35562 -6.4143772
-27.340797 -215.25095 -6.4763741
-27.26848 -215.24373 -6.6892552
-27.233379 -215.2108 -7.0117579
-27.131193 -215.20575 -7.0592241
-27.298706 -215.22131 -7.5248108
-27.052639 -215.28766 -7.539279
-26.924578 -215.21335 -7.517334
-27.896137 -215.20918 -7.990695
-27.553413 -215.21666 -7.921936
-27.03964 -215.2608 -7.927959
-27.727171 -215.30762 -8.0694199
-27.431091 -215.2196 -8.1155272
-27.02129 -215.28043 -8.1266499
-25.824123 -215.20073 -8.140687
-27.251965 -215.31874 -8.5242634
-25.407747 -215.25717 -8.5505514
-27.075577 -215.37245 -8.6592588
-29.829208 -215.35651 -9.1333866
-29.308929 -215.29095 -9.1570034
-25.315924 -215.33014 -9.1704473
-26.383587 -215.38841 -9.2404118
-25.78894 -215.29897 -9.2616663
-25.047829 -215.30745 -9.3097372
-24.859747 -215.24393 -9.332448
-24.686581 -215.35776 -9.3212566
-28.669558 -215.32712 -9.7382565
-28.039001 -215.31816 -9.8598633
-26.902565 -215.23717 -9.8591843
-26.205835 -215.25568 -9.8567648
-25.770617 -215.31686 -9.8249321
-25.560318 -215.34879 -9.801878
-24.685833 -215.34117 -10.192034
-29.370331 -215.36084 -10.288276
-29.054918 -215.33095 -10.306901
-28.737745 -215.27943 -10.318871
-26.960527 -215.28928 -10.352552
-29.142063 -215.21806 -10.433716
-28.680075 -215.31531 -10.462676
-27.763578 -215.33401 -10.596644
-25.892864 -215.36031 -10.416677
-24.899868 -215.30614 -10.424177
-29.397537 -215.349 -10.87124
-28.926647 -215.32892 -10.978085
-28.417862 -215.32535 -10.990162
-28.032986 -215.38651 -10.877501
-27.944254 -215.38501 -10.891614
-37.423866 -215.07495 -5.9013648
-33.8591 -215.04616 -5.8767748
-32.029823 -215.10727 -5.8890052
-30.70414 -215.00084 -5.8293662
-29.392948 -215.16554 -5.895237
-25.221169 -215.11877 -5.8731079
-24.951544 -215.19826 -5.8665781
-29.281895 -215.03345 -6.3610511
-26.99581 -215.03889 -6.3801508
-26.081066 -215.03442 -6.3551798
-25.448601 -215.05161 -6.31037
-28.138081 -215.03802 -6.5040741
-27.640848 -215.05913 -6.5608659
-27.528811 -215.16777 -6.526762
-27.057804 -215.12059 -6.4881892
-27.473392 -215.14952 -6.6138859
-27.612789 -215.08707 -6.9368629
-27.516781 -215.14003 -6.940083
-27.039095 -215.14095 -6.9843521
-27.452312 -215.11383 -7.0687938
-27.479336 -215.11252 -7.3098931
-26.968393 -215.17773 -7.3256898
-27.446686 -215.14084 -7.5320978
-27.882648 -215.0506 -7.7996559
-27.481346 -215.17252 -7.7602172
-28.087677 -215.13052 -8.0784779
-27.864428 -215.15132 -8.0021038
-25.869049 -215.13611 -8.1729183
-30.076418 -215.07794 -8.5703259
-29.959389 -215.02968 -8.5600166
-29.32243 -215.13881 -8.5799999
-28.3773 -215.04359 -8.5976181
-28.423683 -215.13412 -8.6088028
-27.45211 -215.01501 -8.6580219
-29.84054 -215.17757 -9.1725197
-29.465755 -215.1084 -9.186039
-28.242155 -215.16096 -9.1623192
-27.711969 -215.0481 -9.1725368
-25.928934 -215.0799 -9.1726761
-29.83724 -215.13135 -9.2802162
-25.853821 -215.0078 -9.2829742
-25.38485 -215.11592 -9.2668247
-24.907856 -215.1441 -9.3997612
-26.877365 -215.16351 -9.7770252
-28.979788 -215.00275 -9.8163757
-28.599497 -215.04143 -9.8235207
-26.147278 -215.00096 -9.8368502
-25.935699 -215.06628 -9.8958015
-29.22208 -215.04898 -10.328959
-28.849932 -215.15482 -10.342607
-27.002544 -215.05913 -10.326857
-26.126492 -215.19745 -10.377914
-25.696732 -215.06581 -10.3799
-24.607336 -215.0762 -10.308929
-24.340405 -215.00386 -10.222412
-29.088692 -215.00999 -10.512141
-25.817383 -215.00552 -10.430775
-28.737761 -215.0694 -10.907145
-28.952389 -215.1199 -11.029387
-25.482069 -215.02979 -11.068407
-30.545967 -215.00938 -11.279747
-38.604015 -214.9227 -5.9326839
-35.806461 -214.96664 -5.9389281
-30.91964 -214.987 -5.8173571
-27.766338 -214.84769 -6.9877329
-27.732616 -214.96646 -7.5215068
-26.855577 -214.93011 -7.5521541
-28.191143 -214.94595 -7.9538951
-25.740931 -214.96376 -8.4989843
-27.728373 -214.98938 -8.667098
-25.571857 -214.89536 -9.1740808
-28.746117 -214.995 -9.2078152
-28.005718 -214.91312 -9.2841549
-25.120239 -214.89857 -9.3950958
-28.379438 -214.99861 -9.783165
-26.449558 -214.98291 -9.7523909
-27.692011 -214.91043 -9.8600807
-27.270298 -214.89137 -9.8074074
-25.2992 -214.85359 -9.8395214
-24.712757 -214.99232 -9.8842411
-24.261536 -214.8934 -9.8831329
-24.940191 -214.87961 -10.045837
-28.597025 -214.92178 -10.345311
-28.197506 -214.91711 -10.358505
-27.825481 -214.83862 -10.370674
-27.466995 -214.99588 -10.380064
-25.467573 -214.85426 -10.366382
-29.973 -214.96304 -10.534901
-29.436928 -214.9007 -10.472677
-28.71003 -214.93018 -10.42398
-28.259535 -214.90517 -10.481175
-27.758261 -214.97583 -10.515613
-27.440548 -214.88892 -10.453827
-30.085434 -214.97455 -10.990964
-28.331184 -214.90971 -10.919776
-27.777685 -214.9333 -10.949657
-27.405251 -214.95334 -10.961246
-25.105289 -214.96356 -10.950537
-29.917236 -214.93658 -11.084366
-39.582947 -214.62018 -5.940589
-38.539631 -214.60236 -5.9168029
-38.099289 -214.60965 -5.9141388
-35.579178 -214.79034 -5.9172258
-34.547264 -214.61264 -5.905118
-33.68293 -214.77036 -5.866662
-30.53607 -214.7153 -5.8130031
-29.962994 -214.61368 -6.2700381
-25.418114 -214.60873 -6.348619
-28.018211 -214.68549 -6.5551801
-27.728458 -214.66397 -6.527379
-27.778467 -214.73035 -7.0048199
-27.890741 -214.79456 -7.383296
-25.962223 -214.67999 -8.561512
-28.112013 -214.64369 -8.6479406
-27.893848 -214.72421 -8.6555824
-26.099049 -214.75815 -8.6721935
-24.212204 -214.65396 -8.7591457
-25.290762 -214.6028 -8.9421406
-28.039694 -214.62912 -9.1711798
-29.352024 -214.62036 -9.2103329
-28.987196 -214.60196 -9.2199249
-25.078386 -214.7589 -9.2245255
-25.309788 -214.67786 -9.4616756
-29.680161 -214.70779 -9.734663
-28.62851 -214.61578 -9.7814121
-29.38459 -214.67511 -9.8131676
-25.073666 -214.69165 -9.8603725
-24.674345 -214.69437 -9.9209785
-24.269913 -214.62306 -9.980587
-28.659475 -214.63582 -10.362164
-27.985298 -214.76804 -10.389324
-27.473362 -214.71133 -10.363087
-26.068398 -214.70157 -10.339108
-29.666063 -214.70137 -10.551716
-28.743523 -214.66281 -10.438932
-26.155424 -214.75594 -10.409365
-25.682173 -214.63351 -10.465178
-28.373854 -214.67317 -10.930118
-27.914507 -214.72467 -10.954814
-27.54661 -214.79808 -10.974413
-29.948647 -214.73846 -11.005985
-38.130653 -214.58716 -5.9114718
-35.633038 -214.46898 -5.9340572
-35.52887 -214.55327 -5.9047451
-33.541824 -214.58636 -5.8607888
-32.526787 -214.48103 -5.8378811
-30.249882 -214.59134 -5.831862
-29.866638 -214.47847 -5.9022732
-30.087212 -214.43793 -6.3010068
-26.580704 -214.55173 -6.386107
-26.220638 -214.48557 -6.3493338
-25.731346 -214.54425 -6.3459878
-30.484697 -214.43417 -6.7141662
-30.268032 -214.43967 -6.7019711
-26.99712 -214.44217 -8.4851713
-25.556704 -214.4332 -8.6476898
-25.062933 -214.58813 -8.7655315
-24.618263 -214.55911 -8.7510786
-25.178907 -214.43292 -8.9289141
-24.614422 -214.53629 -8.9134388
-24.333546 -214.46793 -8.8240337
-30.93255 -214.58327 -9.1813946
-30.601776 -214.53619 -9.169034
-29.373234 -214.55711 -9.1921673
-30.559177 -214.51132 -9.2345028
-25.682388 -214.50349 -9.7847004
-29.129045 -214.54228 -9.8174105
-26.829508 -214.40689 -9.8770313
-24.870836 -214.52386 -9.8862591
-28.289249 -214.46886 -10.390729
-28.815546 -214.58173 -10.533853
-27.387789 -214.58177 -10.419041
-29.841793 -214.59418 -11.20409
-30.243843 -214.29086 -5.79422
-23.825996 -214.20557 -5.6489282
-23.324102 -214.21977 -5.713789
-38.203739 -214.21025 -5.9026108
-34.436287 -214.22818 -5.8860612
-33.411274 -214.26048 -5.8459668
-31.826622 -214.2914 -5.848031
-25.195166 -214.30113 -5.8719659
-30.108982 -214.36697 -6.2649298
-30.202496 -214.36154 -6.520402
-30.659203 -214.24878 -6.6970282
-30.150986 -214.34634 -6.720233
-29.619972 -214.29407 -8.5763426
-29.573215 -214.25011 -8.5463495
-25.486 -214.25601 -8.7516384
-24.569202 -214.21323 -8.9954395
-30.607433 -214.29758 -9.1965427
-30.29772 -214.29294 -9.1578293
-29.813856 -214.22633 -9.1658297
-30.54497 -214.25253 -9.2509308
-29.495033 -214.30528 -9.2001333
-27.077551 -214.30331 -9.7964354
-29.593962 -214.20735 -9.8055553
-26.73628 -214.25385 -9.8280458
-24.723267 -214.32431 -9.9353733
-28.597252 -214.21387 -10.378456
-28.311899 -214.38022 -10.393212
-28.272158 -214.28679 -10.420818
-26.856361 -214.38797 -10.434552
-29.782019 -214.1311 -5.7879939
-23.151562 -214.06302 -5.7077012
-35.452534 -214.18304 -5.8851728
-32.26717 -214.17766 -5.8192091
-30.759857 -214.03 -5.9302468
-25.2145 -214.00618 -6.1116791
-30.686443 -214.10117 -6.288084
-27.235897 -214.11508 -8.6965961
-27.02553 -214.12128 -8.6364899
-24.484879 -214.16998 -8.7523394
-24.181339 -214.10779 -8.9108505
-30.209045 -214.12537 -9.2177553
-29.708183 -214.15915 -9.2175274
-24.061296 -214.0845 -9.2135735
-29.692741 -214.18915 -9.8029804
-24.353725 -214.12222 -9.9531565
-28.53384 -214.08118 -10.466057
-28.429308 -214.00145 -11.010336
-29.529472 -213.9261 -5.779582
-39.174248 -213.8149 -5.903439
-37.911537 -213.90181 -5.8767209
-35.280762 -213.96663 -5.8786569
-33.230053 -213.95018 -5.833961
-33.110634 -213.81541 -5.830256
-31.782635 -213.81313 -5.8111229
-31.027632 -213.85356 -5.8469758
-30.880505 -213.95427 -5.8639941
-31.227106 -213.80676 -6.187295
-30.952353 -213.93199 -6.1538219
-30.98004 -213.95311 -6.4257789
-26.544983 -213.91046 -8.6662598
-24.610922 -213.83205 -8.8301468
-29.713591 -213.93202 -9.1814985
-30.507336 -213.86331 -9.2378254
-30.173534 -213.8298 -9.2274857
-29.781948 -213.82349 -9.2648697
-28.631153 -213.92082 -9.2571182
-24.563274 -213.95448 -9.7894154
-29.389832 -213.88301 -9.9279118
-24.295259 -213.90562 -9.8880348
-31.096439 -213.96935 -10.003048
-28.336502 -213.89221 -11.049541
-26.135473 -213.96536 -11.198812
-24.313248 -213.71475 -5.6862688
-23.689089 -213.75021 -5.626617
-22.914822 -213.73196 -5.6895809
-35.236423 -213.78709 -5.869451
-31.250252 -213.78337 -5.9802098
-28.560404 -213.69693 -8.606328
-24.206179 -213.78474 -8.7244883
-26.092613 -213.76654 -9.1023703
-23.698971 -213.69766 -9.4630966
-23.713667 -213.62401 -9.7273636
-30.927666 -213.74673 -9.8264685
-30.690342 -213.67578 -9.851697
-30.193369 -213.7352 -9.8426838
-28.593153 -213.79187 -9.8641386
-29.615887 -213.60797 -10.447838
-28.556572 -213.7661 -10.472549
-28.557564 -213.78212 -11.066298
-31.428679 -213.4939 -5.795022
-21.415895 -213.46318 -5.6310911
-36.857838 -213.43504 -5.830564
-36.061394 -213.41052 -5.8703432
-32.990196 -213.43889 -5.8120079
-25.422432 -213.55618 -6.0870838
-30.941357 -213.48555 -8.5903368
-28.546677 -213.54572 -8.6298475
-24.969063 -213.43938 -8.6880054
-29.684658 -213.46771 -9.2420044
-26.094894 -213.47356 -9.3516531
-24.317163 -213.44331 -9.4463129
-31.275408 -213.51694 -9.8415375
-31.061523 -213.5625 -9.8462162
-30.691746 -213.4612 -9.8582497
-30.220549 -213.44342 -9.8549547
-26.159126 -213.42368 -9.8752403
-25.425995 -213.54648 -9.9497318
-31.059023 -213.49269 -10.023369
-28.731861 -213.54274 -10.490742
-25.603813 -213.4857 -10.512171
-29.693842 -213.51514 -11.186388
-29.264452 -213.42473 -11.097589
-28.988575 -213.45612 -11.100439
-29.076836 -213.40366 -11.285086
-39.564613 -213.53494 -12.272437
-20.368778 -213.37305 -5.6155539
-35.122246 -213.39865 -5.8502431
-34.13998 -213.22757 -5.836741
-24.734489 -213.37173 -8.7136707
-30.306213 -213.38617 -9.2679806
-27.423189 -213.29828 -9.2866993
-29.861883 -213.38037 -9.8606691
-27.062733 -213.35788 -10.520929
-29.099792 -213.28027 -10.618896
-28.129917 -213.26797 -11.136967
-25.802155 -213.25273 -11.147789
-29.301147 -213.29944 -11.339165
-20.626755 -213.07901 -5.573864
-32.841621 -213.14133 -5.7995639
-32.69722 -213.03966 -5.798779
-22.615995 -213.09196 -5.6479959
-21.100842 -213.0098 -5.6057711
-38.57317 -213.0006 -5.872911
-36.86977 -213.15504 -5.8143048
-36.782299 -213.00107 -5.8089762
-35.951225 -213.01743 -5.8514099
-33.918861 -213.03294 -5.8333631
-31.019075 -213.02626 -5.803277
-24.70896 -213.14185 -8.9137859
-25.400826 -213.11032 -9.1048317
-30.484804 -213.10408 -9.2634678
-30.213884 -213.15146 -9.2841501
-30.094103 -213.16992 -9.9951353
-28.189392 -213.01523 -9.9351368
-29.447552 -213.0948 -11.132532
-29.708031 -213.13889 -11.369818
-24.215164 -213.02068 -11.422551
-20.997898 -212.89067 -5.5945158
-32.650635 -212.93738 -5.7943358
-30.424442 -212.90565 -5.76408
-22.483702 -212.95248 -5.6416039
-39.460712 -212.90591 -5.9282279
-24.34428 -212.99939 -9.381115
-30.523298 -212.81888 -10.075309
-25.690033 -212.97714 -10.107431
-25.344574 -212.87567 -10.97113
-25.164505 -212.82535 -10.983912
-24.574188 -212.94519 -11.184711
-25.147877 -212.8335 -11.273538
-24.93413 -212.8631 -11.301786
-36.611553 -212.71121 -5.7991762
-30.868801 -212.76642 -5.7934899
-34.810623 -212.63441 -5.8499031
-29.352306 -212.63809 -9.26474
-29.18821 -212.67383 -9.3164883
-24.622829 -212.64922 -10.940445
-25.581776 -212.74207 -11.019203
-24.801683 -212.79562 -11.021275
-23.651716 -212.67442 -11.362033
-23.702856 -212.72168 -11.478477
-37.494732 -212.67651 -12.0077
-24.633924 -212.66516 -12.215275
-26.711386 -212.71808 -12.420943
-22.175766 -212.56046 -5.6210108
-38.346516 -212.41472 -5.8432388
-34.742256 -212.53838 -5.8295212
-39.646015 -212.5575 -8.7218246
-28.531853 -212.5656 -8.6885099
-39.914143 -212.40781 -9.6493959
-30.745081 -212.52689 -10.099989
-24.857431 -212.59891 -10.675886
-39.761028 -212.59892 -11.172565
-38.724091 -212.52426 -11.05518
-39.836296 -212.51294 -11.321136
-25.886482 -212.54785 -11.399487
-39.405697 -212.45465 -11.476206
-38.589561 -212.44989 -11.679281
-38.185818 -212.48154 -11.856763
-37.672905 -212.43617 -12.067682
-32.610157 -212.26013 -5.7549939
-23.302288 -212.22429 -5.6028342
-35.602848 -212.20576 -5.817297
-33.484844 -212.38124 -5.810401
-39.64027 -212.22495 -9.2927818
-29.563461 -212.24594 -9.2883186
-39.498222 -212.27277 -9.5142422
-39.349079 -212.25414 -10.590449
-38.575764 -212.38322 -10.569867
-39.095551 -212.22224 -10.913496
-26.242863 -212.27292 -11.288286
-38.249119 -212.03764 -5.8223262
-39.49831 -212.14435 -9.7805519
-39.795528 -212.19728 -9.9000139
-39.3876 -212.06393 -10.159523
-39.164253 -212.07147 -10.133582
-38.760948 -212.08751 -10.290579
-39.043926 -212.10753 -10.542113
-38.322075 -212.04257 -10.724689
-38.611706 -212.13913 -10.983556
-38.3223 -212.16046 -10.880981
-20.24608 -211.82222 -5.544445
-32.463867 -211.9641 -5.7425599
-38.656952 -211.97137 -5.893116
-28.736162 -211.99911 -8.0612659
-29.776567 -211.91922 -9.3386564
-39.730293 -211.8085 -9.6519642
-39.285919 -211.85934 -10.168001
-38.638287 -211.88683 -10.355274
-39.464447 -211.93086 -10.502588
-38.908604 -211.83516 -10.61565
-24.491558 -211.80522 -10.674351
-24.078074 -211.83563 -11.400113
-24.256409 -211.72025 -5.5597582
-35.419014 -211.78456 -5.799716
-34.338715 -211.74976 -5.7962842
-32.334934 -211.71684 -5.7324252
-24.148338 -211.69102 -5.6098061
-38.503113 -211.66599 -5.8777728
-37.987236 -211.60579 -5.804009
-39.613079 -211.69368 -9.5865107
-39.423859 -211.68387 -9.4572086
-39.398468 -211.7887 -9.6411629
-39.05323 -211.78275 -10.121387
-38.679756 -211.63451 -10.462063
-38.580055 -211.77699 -10.547237
-30.541172 -211.72644 -10.610445
-23.913555 -211.69124 -11.386621
-25.609472 -211.63918 -11.408426
-23.957237 -211.41858 -5.5952692
-37.054253 -211.51059 -5.7910638
-35.358818 -211.49632 -5.7849798
-38.983887 -211.51047 -10.123116
-37.857964 -211.28947 -5.788249
-36.461761 -211.38419 -5.7745938
-35.239883 -211.37447 -5.7826009
-32.235474 -211.39626 -5.7167768
-29.931175 -211.29599 -9.3666039
-24.742874 -211.15892 -5.5670581
-36.843826 -211.01634 -5.7674088
-34.973248 -211.03842 -5.7735128
-20.511906 -211.02374 -13.731161
-35.015869 -210.9883 -5.7687631
-39.8946 -210.82251 -5.8842521
-39.721333 -210.93347 -5.8976951
-39.567924 -210.99498 -5.9531059
-38.863243 -210.80278 -5.9195142
-39.628326 -210.83273 -6.3520031
-39.541382 -210.86993 -6.282805
-39.432098 -210.80472 -6.481966
-39.319584 -210.89098 -9.3551283
-39.972942 -210.82828 -11.359969
-39.823708 -210.81323 -11.969177
-23.762867 -210.62077 -5.5153251
-31.906958 -210.65804 -5.6844292
-39.99984 -210.76431 -5.9239092
-38.80756 -210.74236 -5.9606838
-38.422787 -210.75299 -5.9527702
-39.715546 -210.7338 -6.3352571
-39.331318 -210.76666 -6.3716302
-38.898521 -210.75256 -6.3074021
-38.559841 -210.70328 -6.3536048
-39.474724 -210.73953 -6.5033441
-38.939713 -210.70482 -6.5632458
-38.674343 -210.64833 -6.4775128
-39.6544 -210.74307 -6.6184568
-39.671646 -210.77432 -11.142108
-39.7519 -210.64159 -11.518898
-20.250656 -210.6351 -11.790462
-39.865166 -210.66992 -12.132459
-20.413765 -210.61479 -12.068434
-20.576221 -210.53127 -5.5131059
-36.636696 -210.56418 -5.7463288
-34.046703 -210.49185 -5.715167
-37.762867 -210.53763 -5.8272161
-39.144394 -210.44263 -11.053669
-39.697517 -210.46445 -11.993334
-20.715324 -210.54962 -11.882869
-39.488873 -210.54712 -12.152807
-36.530479 -210.29625 -5.7332072
-33.921429 -210.2791 -5.7070928
-39.85112 -210.36005 -8.7490864
-39.655029 -210.31488 -11.175473
-39.804554 -210.28827 -11.873081
-39.503471 -210.30872 -11.995191
-39.426964 -210.25073 -12.169531
-22.328882 -210.09872 -5.4978862
-21.926331 -210.04654 -5.4751382
-37.184906 -210.12622 -5.7377009
-36.211967 -210.15114 -5.7063742
-39.977097 -210.1212 -9.3959141
-39.01609 -210.17938 -10.993204
-39.460999 -210.12242 -11.058807
-39.387299 -210.12944 -11.339275
-39.06575 -210.01674 -11.293163
-39.871464 -210.11414 -11.508439
-23.910257 -209.87752 -5.4887481
-33.724426 -209.83527 -5.6877589
-39.22855 -209.90643 -11.099699
-39.099152 -209.90512 -11.177756
-39.214676 -209.97569 -11.304852
-39.157997 -209.95404 -11.367046
-36.28619 -209.6662 -5.7021379
-35.93071 -209.70653 -5.6893411
-33.45219 -209.66344 -5.714623
-20.868418 -209.73531 -11.821346
-33.453308 -209.41315 -5.685616
-32.206467 -209.41574 -5.6794
-39.768894 -209.2896 -5.787848
-35.748848 -209.31311 -5.6716189
-21.697441 -209.32524 -11.949064
-23.153957 -209.10962 -5.4515061
-22.670206 -209.10347 -5.4565282
-35.581619 -209.07419 -5.6631021
-33.341644 -209.00073 -5.651895
-33.020027 -209.10257 -5.6960201
-36.648365 -208.62682 -5.7171059
-21.690292 -208.54837 -11.923691
-28.786282 -208.28061 -5.3982878
-24.171663 -208.38828 -5.3901348
-39.415817 -208.37869 -5.7404342
-35.412075 -208.14621 -5.5876222
-36.578751 -208.17427 -5.6791182
-30.012943 -207.9604 -5.4555068
-36.457932 -207.95154 -5.6643238
-35.261692 -207.97491 -5.6061411
-21.025381 -207.95528 -10.93582
-26.017281 -207.75481 -5.5478802
-22.515865 -207.68842 -5.5430479
-20.081821 -207.70018 -5.4440422
-30.555296 -207.74341 -5.7658291
-35.206142 -207.42351 -5.5547452
-26.374462 -207.43945 -5.522542
-27.455524 -207.57478 -11.845867
-36.195301 -207.34949 -5.5939541
-26.977673 -207.29312 -11.97743
-33.943459 -207.10135 -5.5807028
-27.445034 -206.71014 -5.5194731
-25.777645 -206.65656 -5.5795598
-23.077572 -206.68353 -5.5747099
-20.682802 -206.71307 -5.4513302
-32.490295 -206.61838 -5.6968598
-31.088493 -206.60306 -5.7813559
-31.420748 -206.60492 -5.8720088
-32.36171 -206.62328 -6.2699752
-33.751553 -206.59155 -5.5581388
-39.417427 -206.56883 -5.6425738
-31.635807 -206.46274 -5.798583
-32.307785 -206.50459 -5.8122129
-30.721495 -206.52257 -5.8373642
-30.981363 -206.40819 -6.055593
-32.518745 -206.55533 -6.2664008
-31.433857 -206.31726 -5.8513241
-31.416405 -206.21838 -6.0428548
-30.576733 -206.2028 -6.394135
-38.791607 -206.18956 -5.6185522
-31.722914 -206.16949 -5.8842621
-20.591894 -206.12563 -12.294507
-21.496883 -205.86407 -5.312665
-25.695715 -205.81087 -5.4724398
-21.610115 -205.80872 -5.4831791
-21.652439 -205.83606 -5.672296
-30.556427 -205.90125 -6.5697718
-30.191765 -205.6646 -5.3333158
-25.557814 -205.76852 -5.5778661
-23.415762 -205.75195 -5.4722099
-28.070454 -205.75171 -5.7205968
-25.542482 -205.71161 -5.713902
-23.511 -205.75226 -5.6915202
-21.492723 -205.73917 -5.6844468
-30.217623 -205.67644 -5.8561478
-27.882746 -205.70164 -5.81182
-25.717657 -205.70453 -5.808702
-30.9182 -205.71771 -6.078794
-32.086639 -205.6987 -6.4268761
-26.983131 -205.60289 -10.316771
-34.572994 -205.44072 -5.496676
-39.113453 -205.53917 -5.6046948
-30.16396 -205.57907 -5.8443561
-26.902794 -205.54083 -10.289764
-26.758064 -205.44672 -10.320452
-32.156067 -205.3721 -5.717566
-24.080761 -205.23944 -9.0129309
-25.564512 -205.29608 -10.079323
-26.069962 -205.27264 -10.473473
-25.868225 -205.36754 -10.532102
-32.234463 -205.17882 -5.5488601
-31.209633 -205.03094 -5.5539832
-31.348454 -205.00458 -5.9419808
-24.113068 -205.12396 -9.03722
-23.952278 -205.18497 -9.0394621
-28.147585 -204.89114 -6.5267272
-24.002153 -204.94978 -9.3685246
-24.175545 -204.99803 -9.7569828
-23.854908 -204.84909 -9.8250866
-25.498772 -204.90599 -10.630459
-31.36031 -204.6693 -5.780992
-27.800953 -204.6239 -5.847898
-28.468826 -204.60165 -6.3024449
-23.991869 -204.68716 -9.3791761
-24.120682 -204.72362 -9.8552084
-23.702377 -204.67862 -9.8441257
-27.318249 -204.73038 -11.32817
-33.929008 -204.54276 -5.4415212
-29.02759 -204.46086 -6.1851072
-28.118061 -204.57329 -6.2614241
-27.798038 -204.55991 -6.3079872
-27.536375 -204.50493 -6.3148952
-28.539543 -204.51595 -6.4710469
-28.166603 -204.49243 -6.5706611
-27.804287 -204.55698 -6.556849
-27.555536 -204.49252 -6.467608
-28.882944 -204.57605 -6.6115398
-29.158129 -204.42912 -7.0622559
-23.30703 -204.53598 -9.1073227
-25.06123 -204.48672 -9.6586704
-24.95821 -204.46562 -9.7076073
-24.524496 -204.58775 -9.8695879
-26.502777 -204.57251 -11.36083
-26.102808 -204.5824 -11.312179
-25.945599 -204.54559 -11.339867
-38.724823 -204.23155 -5.5301838
-35.225254 -204.34567 -5.4347148
-34.996716 -204.28355 -5.441895
-31.415604 -204.2946 -5.5777602
-28.740831 -204.30945 -6.2518239
-27.052759 -204.31485 -6.2955012
-28.465847 -204.28304 -6.488904
-27.803679 -204.29977 -6.4621391
-28.919849 -204.39433 -6.6097941
-28.604195 -204.25354 -7.1684551
-28.917376 -204.22156 -7.2509251
-24.208014 -204.28098 -9.8158836
-27.901279 -204.28488 -10.42018
-26.283278 -204.34807 -11.363779
-25.795204 -204.24382 -11.380473
-28.054996 -204.12479 -5.564446
-29.285192 -204.00169 -5.7265348
-28.049749 -204.09732 -5.726377
-27.874304 -204.10103 -5.630971
-32.831268 -204.08626 -5.94103
-31.42305 -204.14375 -5.9317689
-32.7197 -204.06598 -6.102963
-28.93824 -204.17284 -6.332212
-27.015297 -204.15582 -6.2794571
-28.255182 -204.05537 -6.4862919
-27.513906 -204.17885 -6.553967
-28.962364 -204.16495 -7.1378932
-28.165525 -204.09949 -7.0738282
-27.690346 -204.08614 -7.0720229
-28.540628 -204.17828 -7.2796998
-28.211895 -204.18539 -7.277688
-27.88776 -204.17789 -7.3063388
-27.449619 -204.05414 -7.3567381
-29.221964 -204.08719 -10.386402
-29.101612 -204.08429 -10.457231
-27.316412 -204.19412 -11.365515
-27.081896 -204.19255 -11.34905
-24.496927 -204.16095 -11.481733
-24.191624 -204.07397 -11.475393
-26.744812 -204.15558 -12.283824
-27.901464 -203.81802 -5.6932259
-27.038742 -203.90938 -6.3466492
-29.070053 -203.85214 -6.4953232
-27.298971 -203.94904 -6.491107
-28.65556 -203.93755 -7.0935941
-28.094574 -203.94522 -7.1073031
-27.841444 -203.82288 -7.074183
-28.867914 -203.83292 -7.273087
-28.214096 -203.91696 -7.3092132
-27.739286 -203.87177 -7.2837739
-27.701546 -203.8792 -10.634863
-26.098497 -203.9026 -11.264148
-23.830629 -203.96283 -11.527784
-24.15102 -203.86375 -11.781925
-26.045246 -203.83972 -12.315729
-29.976189 -203.68608 -5.525187
-28.020531 -203.73889 -5.516664
-30.054367 -203.78577 -5.6756978
-28.257925 -203.69987 -5.7458668
-28.065575 -203.71616 -6.0591922
-29.975948 -203.60687 -6.3785729
-29.427889 -203.71661 -6.2630382
-29.102285 -203.76346 -6.2940731
-27.90374 -203.77969 -6.2212348
-30.031485 -203.6225 -6.406023
-27.126873 -203.70901 -6.4545622
-29.438951 -203.71101 -6.9689279
-29.107092 -203.75781 -7.1448121
-27.412952 -203.72047 -7.1547408
-27.318657 -203.74957 -7.2678518
-27.196445 -203.76765 -7.3348889
-30.077625 -203.72699 -7.9425259
-32.032875 -203.66809 -9.7060518
-29.069889 -203.79559 -10.472163
-24.130541 -203.73621 -10.666318
-23.934803 -203.72064 -10.642514
-25.089668 -203.76178 -11.449515
-24.589443 -203.76474 -11.936909
-25.829109 -203.65822 -12.339597
-24.63373 -203.72723 -12.2549
-34.89843 -203.4017 -5.3855028
-38.329529 -203.51967 -5.4955268
-37.994942 -203.45767 -5.5021529
-34.483391 -203.46922 -5.4054589
-34.173214 -203.56503 -5.4252892
-27.844622 -203.52222 -5.649478
-28.243961 -203.43616 -5.8164291
-29.749546 -203.53635 -6.3907809
-26.917885 -203.42296 -6.232091
-29.641911 -203.4563 -6.46034
-29.015762 -203.40929 -6.4781809
-26.933445 -203.4978 -6.473165
-26.745852 -203.47803 -6.5148659
-27.421398 -203.42287 -7.0404458
-29.311951 -203.45369 -7.253252
-28.686552 -203.55185 -7.30053
-29.14797 -203.42938 -7.4169722
-30.167507 -203.51266 -7.8848758
-23.965027 -203.57864 -10.655898
-24.945431 -203.52354 -11.477726
-24.076473 -203.55824 -12.192512
-24.531935 -203.4917 -12.33818
-29.394077 -203.20728 -6.3836551
-29.410112 -203.35056 -6.4628921
-28.791086 -203.37796 -6.437871
-27.179222 -203.22775 -7.0042782
-30.437904 -203.34778 -7.935276
-30.455593 -203.25739 -8.118784
-29.901325 -203.24219 -8.1578169
-23.345005 -203.32703 -8.3067436
-23.811113 -203.34285 -8.5242186
-26.438656 -203.27028 -11.518259
-24.406311 -203.2486 -11.700331
-23.385454 -203.28285 -11.715203
-27.0408 -203.39468 -12.365015
-26.479275 -203.36653 -12.3662
-26.280119 -203.36398 -12.392231
-28.57358 -203.19313 -5.7005558
-31.252731 -203.06506 -6.3324771
-29.36433 -203.1918 -6.3971109
-31.295101 -203.05188 -6.548265
-29.383089 -203.08148 -6.4075961
-28.690033 -203.16122 -6.4318762
-23.766821 -203.17052 -8.44063
-31.403912 -203.06241 -8.8709011
-30.912535 -203.00763 -8.909873
-28.090385 -203.00838 -11.522874
-23.387068 -203.04198 -11.56546
-26.587042 -203.17934 -12.380629
-26.357986 -203.12036 -12.39142
-25.545395 -203.10513 -12.347797
-24.469849 -203.05872 -12.274742
-24.236368 -203.12849 -12.391336
-26.715374 -203.12589 -12.40608
-24.401854 -203.07736 -12.400878
-23.841911 -203.06863 -12.559899
-37.888527 -202.99744 -5.474957
-27.475668 -202.97115 -5.654635
-31.189569 -202.8118 -5.9123082
-31.183022 -202.85275 -6.0074081
-32.509556 -202.95514 -6.245904
-32.613197 -202.83398 -6.4764409
-31.285618 -202.92047 -7.159709
-30.551193 -202.93443 -7.1778221
-27.017113 -202.99379 -7.1278992
-31.389774 -202.87347 -7.3992658
-30.273146 -202.84853 -7.200304
-31.296638 -202.8812 -7.7713628
-31.190538 -202.86694 -7.9285712
-31.243889 -202.83165 -8.0606556
-31.143475 -202.8437 -8.055418
-31.286983 -202.92661 -8.657052
-30.848015 -202.95731 -10.584401
-33.401691 -202.63466 -5.3901
-37.674122 -202.65228 -5.45889
-25.065092 -202.61913 -5.4534192
-32.463631 -202.74539 -6.2555981
-29.232666 -202.71542 -6.492713
-30.304413 -202.74245 -7.088326
-30.597078 -202.7787 -7.2198038
-30.29327 -202.7872 -7.2122121
-30.180094 -202.65588 -7.9481802
-32.19389 -202.69141 -8.0270329
-31.405743 -202.68872 -8.0934906
-31.133263 -202.69205 -8.1211157
-23.0711 -202.69572 -8.2647448
-23.321083 -202.73991 -8.494175
-30.920422 -202.67577 -8.6317654
-30.35183 -202.71083 -8.8636522
-32.338318 -202.62846 -9.7771368
-28.950579 -202.62833 -11.487243
-24.190193 -202.75786 -12.477076
-25.340952 -202.46683 -5.4468918
-25.140713 -202.5787 -5.5065751
-24.943535 -202.54437 -5.4634962
-25.042143 -202.58926 -5.7423391
-24.927715 -202.54866 -5.7260532
-25.180519 -202.55786 -6.0012412
-25.028246 -202.56158 -6.293242
-24.912277 -202.53152 -6.2297549
-25.074924 -202.51733 -6.589242
-24.929024 -202.5575 -6.5986381
-24.904289 -202.48889 -7.1503901
-24.767849 -202.41388 -7.0010581
-25.042089 -202.46527 -7.3870101
-24.972343 -202.48831 -7.395164
-24.794231 -202.41536 -7.2072282
-32.906429 -202.4993 -7.9551082
-32.695808 -202.4487 -7.9729261
-31.001093 -202.45709 -7.9707279
-33.262856 -202.46082 -8.000411
-33.069515 -202.48706 -8.0264349
-32.542183 -202.56128 -8.0183725
-31.658995 -202.47318 -8.0348282
-30.770393 -202.49869 -8.7946472
-31.946884 -202.52118 -8.8846149
-37.074482 -202.41446 -9.0224876
-24.907568 -202.59775 -10.760123
-25.3811 -202.58142 -12.374716
-23.916372 -202.58376 -12.276108
-37.329601 -202.24109 -5.4320598
-31.317333 -202.21971 -5.8878498
-25.139687 -202.2207 -7.1433349
-31.503548 -202.27567 -7.545445
-24.503902 -202.20386 -7.4414158
-32.045685 -202.30542 -7.9343271
-31.853083 -202.26147 -7.9643178
-31.111906 -202.35126 -7.898263
-25.093351 -202.32782 -7.991241
-32.696461 -202.39754 -8.0326366
-31.860895 -202.23901 -8.0331707
-25.252033 -202.27176 -8.2464542
-25.115025 -202.33701 -8.2518625
-32.244583 -202.38049 -8.6619253
-39.243065 -202.26071 -9.034462
-38.612072 -202.29814 -9.0645285
-38.233696 -202.34256 -9.0276527
-37.737808 -202.22118 -9.0293217
-37.491936 -202.34196 -9.0253696
-31.953848 -202.29047 -9.4134855
-31.973392 -202.24422 -9.6191483
-25.934 -202.22559 -10.698112
-23.92893 -202.38242 -10.726463
-27.519686 -202.31438 -11.590506
-28.658878 -202.38812 -11.60058
-36.906246 -202.07938 -5.43786
-29.81509 -202.04025 -5.6711411
-24.375717 -202.18797 -7.423213
-30.261793 -202.00577 -7.9496312
-29.929054 -202.19489 -8.0210133
-24.216356 -202.1886 -8.1345892
-24.400875 -202.02643 -8.2818708
-25.447466 -202.03279 -8.9352856
-30.749836 -202.14191 -9.329855
-26.047466 -202.17906 -10.70597
-36.581757 -201.86885 -5.4274478
-37.705463 -201.81592 -6.8993812
-32.76886 -201.99335 -7.872375
-30.245598 -201.87778 -7.9281359
-30.220469 -201.9771 -8.04986
-24.57649 -201.99826 -8.1545362
-31.040184 -201.84502 -8.7107582
-30.749279 -201.89429 -8.8835049
-25.487892 -201.8873 -9.1362553
-30.270292 -201.92595 -9.214035
-25.334677 -201.82993 -9.8894777
-26.339884 -201.90674 -10.727047
-24.667324 -201.87962 -10.777868
-26.744862 -201.80484 -11.403953
-36.397503 -201.71153 -5.4373589
-39.823036 -201.64587 -5.9725728
-39.369812 -201.66722 -5.962605
-38.984024 -201.68153 -5.9542928
-38.707428 -201.70111 -5.8947201
-38.136543 -201.72185 -5.9063959
-37.865437 -201.72601 -5.940907
-39.820389 -201.6485 -6.1690612
-39.339233 -201.66258 -6.1177678
-38.537178 -201.70566 -6.1832099
-37.954727 -201.72275 -6.0424309
-38.904816 -201.68906 -6.2224302
-38.23996 -201.71118 -6.2084088
-37.917732 -201.72174 -6.2297468
-37.794197 -201.69513 -6.2725201
-39.73571 -201.61731 -6.5768428
-39.386536 -201.62656 -6.7305398
-38.939346 -201.64822 -6.7361312
-38.609848 -201.66689 -6.740397
-38.180454 -201.67818 -6.74578
-37.800564 -201.61734 -6.7490678
-39.80452 -201.72983 -6.9409862
-39.303356 -201.70003 -6.9572949
-39.077957 -201.75542 -6.9519
-38.937157 -201.7601 -6.9397869
-38.553017 -201.77646 -6.9330411
-37.865829 -201.66779 -6.9143839
-38.133858 -201.68655 -7.0358338
-37.94891 -201.61243 -7.8632331
-29.888428 -201.6496 -7.9343681
-23.747589 -201.7867 -8.3093958
-23.428669 -201.6954 -8.3225403
-36.997498 -201.71924 -9.0417099
-23.960011 -201.72339 -9.0709295
-25.479113 -201.79968 -9.510211
-38.22937 -201.61139 -9.778574
-38.585777 -201.60176 -9.8938446
-37.831314 -201.61241 -9.8005695
-37.733696 -201.62279 -9.8279314
-25.672325 -201.75395 -9.8563786
-37.927708 -201.60657 -10.033398
-37.728577 -201.61397 -10.030518
-25.778582 -201.77884 -10.05097
-28.304893 -201.71442 -10.563087
-25.404766 -201.78323 -11.723311
-36.247791 -201.42084 -5.3951368
-37.778435 -201.4883 -5.9311452
-37.862648 -201.57776 -7.063993
-37.923973 -201.48907 -7.4613099
-30.473066 -201.49521 -7.5481448
-30.378334 -201.41943 -7.5434141
-37.862251 -201.53149 -7.889256
-29.708084 -201.46445 -7.9380088
-37.897301 -201.545 -8.1244888
-23.72123 -201.47075 -8.2781305
-23.269905 -201.45879 -8.3470421
-23.631386 -201.56577 -8.5928001
-37.895882 -201.55386 -8.7896271
-38.02618 -201.57581 -8.8858652
-37.887146 -201.54852 -8.8675642
-39.422787 -201.55865 -9.7689552
-39.00668 -201.57516 -9.7768002
-38.607178 -201.58791 -9.7554321
-31.233631 -201.48016 -9.6279526
-39.842285 -201.54234 -9.8093395
-38.118324 -201.58836 -9.9377928
-22.800987 -201.46695 -9.8225899
-39.365105 -201.54202 -10.057196
-38.822163 -201.56001 -10.048004
-38.32111 -201.58618 -10.039615
-30.085102 -201.53766 -10.010205
-39.744743 -201.49687 -10.697012
-39.404606 -201.53552 -10.68514
-38.977287 -201.54572 -10.684711
-38.559357 -201.55881 -10.682921
-38.142914 -201.56491 -10.690009
-37.800533 -201.49951 -10.701163
-37.723671 -201.5672 -10.702618
-39.80125 -201.49422 -10.840572
-39.330009 -201.51582 -10.871858
-39.003666 -201.51651 -10.894501
-38.740021 -201.54092 -10.8512
-38.336948 -201.55453 -10.842666
-37.906197 -201.57834 -10.889687
-37.736 -201.47147 -10.884928
-21.752079 -201.41779 -11.000495
-37.869244 -201.44873 -11.63906
-37.724964 -201.41037 -11.765793
-37.815514 -201.43486 -12.01111
-37.870457 -201.40479 -12.552919
-37.738991 -201.40659 -12.743731
-37.841656 -201.40436 -12.971437
-31.012814 -201.35034 -5.4297042
-21.022112 -201.25943 -5.5214939
-37.766254 -201.29782 -6.0456538
-25.564602 -201.29765 -6.5255752
-25.672665 -201.29149 -6.6084418
-24.883114 -201.35693 -7.28022
-32.126793 -201.3286 -8.0343542
-37.047695 -201.3916 -9.1044693
-30.59903 -201.37202 -9.3284435
-22.934799 -201.27484 -9.5692225
-37.67968 -201.26396 -10.849957
-38.258263 -201.35342 -11.599303
-39.67907 -201.20349 -11.741776
-39.371517 -201.22758 -11.674728
-38.959904 -201.28452 -11.672278
-38.642143 -201.34665 -11.632587
-38.203735 -201.37228 -11.651491
-37.730923 -201.33087 -11.625673
-25.830275 -201.27528 -11.716936
-39.810879 -201.2141 -12.032062
-39.370453 -201.22299 -12.074382
-39.100418 -201.24487 -12.015928
-38.890633 -201.29851 -12.067971
-38.560989 -201.33163 -12.045977
-38.248379 -201.34216 -12.036644
-38.202274 -201.36897 -12.59473
-37.742363 -201.34842 -12.568846
-39.682419 -201.21201 -12.629908
-39.291649 -201.20892 -12.619858
-38.903328 -201.29834 -12.64744
-38.628681 -201.3419 -12.613239
-39.778179 -201.20642 -12.934793
-39.416954 -201.23904 -12.886308
-38.184616 -201.36461 -12.972866
-38.891586 -201.28265 -13.040704
-38.606628 -201.32341 -13.034352
-37.760345 -201.13655 -6.1445169
-24.99062 -201.03127 -7.5868549
-37.691963 -201.10825 -9.7617092
-25.129339 -201.16557 -10.144309
-37.679131 -201.08478 -10.707632
-30.269348 -201.06117 -10.790401
-37.708611 -201.02759 -10.931322
-26.175964 -201.11725 -11.708441
-39.7635 -201.18745 -12.995641
-25.89362 -200.80864 -5.2215829
-24.701771 -200.9281 -7.1307678
-25.162231 -200.96881 -7.3682208
-26.18998 -200.95648 -7.400703
-25.382099 -200.90585 -7.471334
-25.59354 -200.93051 -8.2324886
-36.995079 -200.88557 -9.096283
-37.655289 -200.90939 -9.8605156
-25.286263 -200.99924 -12.53676
-25.579494 -200.60361 -5.5003109
-25.808441 -200.61371 -6.1996531
-25.062971 -200.79709 -7.104569
-24.668211 -200.71133 -7.1685109
-26.129789 -200.61455 -7.3514199
-25.337997 -200.64355 -7.3759341
-24.623055 -200.60075 -7.403543
-26.118729 -200.6447 -8.2268333
-26.273815 -200.62341 -8.5356436
-21.892227 -200.72266 -9.3087645
-37.651726 -200.63231 -9.8394146
-37.669189 -200.67934 -10.729803
-25.670387 -200.78969 -11.940901
-25.61972 -200.55972 -5.5262251
-25.644157 -200.55992 -5.8799591
-37.745239 -200.59061 -6.1751451
-25.595394 -200.58078 -6.2124338
-26.254896 -200.45071 -6.4335022
-25.881012 -200.59534 -6.435441
-25.306015 -200.51109 -6.4497638
-26.094259 -200.4397 -7.0735669
-25.657072 -200.49326 -7.1019359
-25.867468 -200.59027 -7.3617668
-26.563984 -200.59312 -8.1173668
-25.777054 -200.50516 -8.2263508
-25.504234 -200.56995 -8.2594204
-37.4846 -200.44926 -11.086375
-37.777634 -200.59641 -11.709078
-37.751312 -200.57571 -12.631394
-26.165474 -200.36389 -6.4564719
-25.612629 -200.29703 -6.5773501
-37.573769 -200.38667 -6.9359221
-26.226044 -200.33731 -7.1283622
-24.849173 -200.34912 -7.1560678
-25.680283 -200.32664 -7.3313632
-25.452324 -200.30199 -7.3481922
-25.857647 -200.30591 -8.2269726
-37.034485 -200.20448 -9.1398983
-37.640697 -200.29504 -9.8514557
-37.658588 -200.20929 -10.062769
-37.633286 -200.29286 -10.907026
-27.092157 -200.37462 -10.829723
-35.82349 -200.19215 -5.3462372
-37.723206 -200.07578 -6.158546
-25.261791 -200.18222 -6.5973411
-25.121637 -200.16115 -6.48212
-25.765787 -200.17726 -7.1288209
-26.216484 -200.18213 -8.0508356
-25.304457 -200.05809 -8.145175
-25.023382 -200.03879 -9.0805607
-24.936123 -200.02602 -9.0259485
-25.118097 -200.06374 -11.824152
-24.323812 -200.03273 -11.813216
-22.731762 -200.15742 -11.933358
-37.862061 -200.00877 -12.004538
-22.982964 -200.1839 -12.018648
-20.636219 -219.83948 -5.7700338
-32.201744 -219.92102 -5.9876242
-31.06324 -219.91521 -5.9727879
-25.062445 -219.82758 -5.871871
-23.920095 -219.96492 -5.8782182
-23.705948 -219.82227 -5.8693109
-21.790152 -219.86391 -5.8642788
-39.90152 -219.88875 -6.0827851
-38.554283 -219.98581 -6.1187401
-35.919189 -219.92581 -6.0596852
-35.610828 -219.92882 -6.0747061
-35.569977 -219.89059 -6.0668712
-33.329178 -219.89935 -6.0653272
-32.954544 -219.81586 -6.0361071
-23.934011 -219.76115 -5.7906361
-29.837402 -219.72394 -5.936914
-29.462303 -219.66431 -5.923605
-25.228544 -219.65549 -5.8576608
-24.655441 -219.69989 -5.8845339
-24.146828 -219.77121 -5.88484
-23.719845 -219.75098 -5.8394599
-23.486244 -219.74493 -5.8366642
-23.077902 -219.69955 -5.8204398
-22.614563 -219.68401 -5.8294282
-22.258167 -219.70044 -5.8443351
-21.337563 -219.66664 -5.8454809
-37.765709 -219.73312 -6.0719118
-35.420017 -219.76477 -6.0613761
-35.274574 -219.66479 -6.066401
-34.523575 -219.69791 -6.040473
-32.68512 -219.67914 -6.0299439
-32.245872 -219.62106 -6.0293331
-22.216702 -219.57141 -5.7975392
-21.380209 -219.50923 -5.7535672
-33.870605 -219.54965 -5.996767
-32.430477 -219.49226 -5.9901638
-30.766792 -219.58961 -5.9510241
-30.55728 -219.43295 -5.952498
-30.291323 -219.46494 -5.954329
-29.289553 -219.52562 -5.9496999
-28.205919 -219.47841 -5.9813938
-27.065561 -219.57159 -5.91045
-26.128475 -219.51224 -5.8624768
-39.679325 -219.50858 -6.0833349
-38.290901 -219.41719 -6.0942292
-37.365284 -219.46959 -6.0646901
-35.049591 -219.52148 -6.0479298
-20.306395 -219.33667 -5.7352881
-30.451603 -219.31023 -5.954711
-29.937082 -219.36101 -5.9443631
-29.784103 -219.33641 -5.9465842
-28.6033 -219.39642 -5.9312291
-28.236649 -219.36826 -5.9284639
-27.908493 -219.28607 -5.912508
-26.576641 -219.39941 -5.9042339
-26.01062 -219.29794 -5.9198909
-25.391663 -219.34488 -5.8851638
-39.428745 -219.31252 -6.088212
-39.208176 -219.20995 -6.0558028
-38.871964 -219.21503 -6.1007318
-38.541161 -219.37563 -6.0567479
-37.030853 -219.26242 -6.0548258
-34.657764 -219.38728 -6.0391011
-33.298786 -219.02155 -5.9843779
-31.895538 -219.08536 -5.9794741
-29.994471 -219.11259 -5.9411821
-29.392033 -219.02026 -5.928216
-28.994308 -219.00952 -5.9227901
-27.364956 -219.08508 -5.8998132
-26.974075 -219.02829 -5.8981171
-25.865948 -219.01038 -5.8950291
-39.326481 -219.08533 -6.09905
-38.984867 -219.07076 -6.0668392
-38.139587 -219.09805 -6.0559349
-36.885612 -219.12561 -6.0484219
-36.76284 -219.14587 -6.0534482
-33.697407 -218.92554 -5.980907
-31.349503 -218.91005 -5.964632
-30.978941 -218.97778 -5.992743
-30.643089 -218.96161 -5.9774661
-39.867012 -218.90367 -6.0767632
-39.398396 -218.96008 -6.0447121
-38.605309 -218.88789 -6.0683932
-37.837948 -218.93784 -6.0635071
-36.608036 -218.93321 -6.0381088
-33.802864 -218.91577 -6.0132251
-28.064379 -218.81316 -12.056734
-21.832108 -218.61476 -5.7925549
-28.966076 -218.60161 -5.9192672
-28.702541 -218.62259 -5.8977652
-28.594271 -218.78427 -5.921073
-38.552242 -218.61368 -6.0812812
-27.70285 -218.66702 -11.814932
-21.112492 -218.5394 -5.7798719
-33.407921 -218.59637 -5.9742908
-27.251831 -218.56288 -5.9251161
-27.119514 -218.56267 -5.9223981
-24.624557 -218.53447 -5.9221892
-39.86639 -218.52597 -6.0707111
-39.364799 -218.52863 -6.0530052
-37.754051 -218.58005 -6.048552
-37.331974 -218.56454 -6.0320411
-27.449612 -218.52386 -11.440886
-28.070467 -218.53236 -12.062838
-26.619743 -218.42607 -13.75836
-26.037386 -218.44922 -13.665804
-20.244547 -218.33211 -5.710938
-30.150307 -218.27472 -5.9513869
-29.744114 -218.21414 -5.941566
-29.375439 -218.31204 -5.926918
-27.804379 -218.26825 -5.88308
-27.607561 -218.228 -5.881557
-39.755894 -218.2047 -6.0828171
-38.982246 -218.30385 -6.0412912
-27.677788 -218.20276 -11.698616
-27.008493 -218.3213 -13.692089
-26.205704 -218.34222 -13.740049
-23.997114 -218.21776 -13.606582
-22.216656 -218.21542 -14.502672
-35.910603 -218.08151 -5.997076
-34.954689 -218.01529 -5.9880929
-31.98457 -218.06078 -5.964478
-30.015427 -218.10904 -5.9227638
-29.602133 -218.01376 -5.9216719
-29.051586 -218.16339 -5.930016
-28.571291 -218.11955 -5.9269338
-28.218132 -218.18973 -5.8834271
-27.392902 -218.129 -5.8735108
-24.990648 -218.16612 -5.8722439
-39.492203 -218.09396 -6.063694
-36.237591 -218.18381 -6.0259051
-28.502045 -218.02841 -9.1476078
-27.810026 -218.13376 -11.384313
-26.934164 -218.07025 -11.449089
-26.9534 -218.14709 -13.083897
-26.620583 -218.15117 -13.062818
-26.601284 -218.16275 -13.316109
-26.253517 -218.07333 -13.296902
-25.993507 -218.14822 -13.426814
-24.429272 -218.11203 -14.184648
-22.486122 -218.1069 -14.557133
-21.841389 -218.14728 -15.117941
-24.106022 -218.01021 -15.232199
-34.788315 -217.95273 -5.9864531
-32.54364 -217.92038 -5.9404302
-32.177414 -217.90144 -5.9363232
-31.823151 -217.86887 -5.943069
-39.554398 -217.97644 -6.0384979
-39.377792 -217.92606 -6.0800729
-39.050766 -217.86156 -6.0539818
-38.255539 -217.89452 -6.020205
-37.366074 -217.89142 -6.059227
-36.112984 -217.83519 -6.0406628
-27.311523 -217.97891 -11.020493
-27.796103 -217.84901 -11.307674
-27.423548 -217.83876 -11.452388
-26.69809 -217.81409 -11.604195
-26.881607 -217.89479 -11.803593
-27.582926 -217.9911 -12.147324
-27.076294 -217.96613 -12.775328
-27.831385 -217.84106 -12.833317
-26.652279 -217.85147 -12.970001
-27.00856 -217.83017 -13.027944
-27.305885 -217.80966 -13.468948
-26.891897 -217.84943 -13.411457
-25.920441 -217.8443 -13.45607
-34.445278 -217.78699 -5.9787998
-34.360435 -217.72147 -5.9741039
-29.439301 -217.78302 -5.9329782
-27.381144 -217.6842 -5.8995161
-27.009436 -217.66916 -5.9296179
-26.685925 -217.68372 -5.9030051
-39.950569 -217.69138 -6.065227
-38.619896 -217.76648 -6.0299439
-37.825134 -217.7258 -6.0343332
