# .PCD v0.7 - Point Cloud Data file format
VERSION 0.7
FIELDS x y z
SIZE 4 4 4
TYPE F F F
COUNT 1 1 1
WIDTH 1470
HEIGHT 1
VIEWPOINT 0 0 0 1 0 0 0
POINTS 1470
DATA ascii
-24.87991 -231.45601 -6.15801
-24.29826 -231.58009 -6.1414719
-23.953789 -231.53693 -6.1655269
-23.715282 -231.51341 -6.187572
-23.539612 -231.50296 -6.144834
-23.100685 -231.46692 -6.146873
-22.849518 -231.45215 -6.170311
-22.665724 -231.43864 -6.1575518
-22.307409 -231.44554 -6.1155791
-21.441166 -231.4534 -6.086987
-20.855015 -231.56519 -6.073482
-20.271845 -231.51028 -6.0492659
-37.971348 -231.47462 -6.300478
-37.631969 -231.42584 -6.3250408
-37.49575 -231.4903 -6.3122082
-37.1063 -231.50616 -6.2929869
-36.014526 -231.5596 -6.3168278
-35.716591 -231.4552 -6.310688
-34.986603 -231.49652 -6.2924852
-33.762966 -231.45757 -6.2909341
-32.872955 -231.51166 -6.2732048
-32.656319 -231.46313 -6.272171
-31.832096 -231.41714 -6.266912
-31.466616 -231.42805 -6.2674599
-30.492809 -231.51276 -6.267118
-30.25016 -231.45004 -6.2543211
-29.931789 -231.46695 -6.2612119
-28.583714 -231.41022 -6.226346
-28.107733 -231.45392 -6.2153668
-27.671577 -231.51422 -6.243041
-26.917879 -231.498 -6.215817
-23.868912 -231.42482 -6.2649331
-38.231964 -231.43823 -6.422029
-38.174057 -231.42705 -6.4486918
-37.982197 -231.47397 -6.415247
-23.895771 -231.40216 -6.436604
-38.547684 -231.56116 -6.6470108
-38.367287 -231.4109 -6.6059918
-23.846489 -231.40964 -6.6672449
-23.767103 -231.42001 -6.8592181
-23.869513 -231.42361 -7.074316
-23.838753 -231.45334 -7.3283372
-23.735222 -231.44678 -7.2785468
-23.864058 -231.46948 -7.553771
-31.080368 -231.41647 -7.674015
-23.87228 -231.476 -7.7268
-30.165834 -231.52603 -7.9712629
-23.870544 -231.46423 -7.8739958
-32.514992 -231.41473 -8.0311794
-31.37117 -231.49078 -8.1515417
-23.859797 -231.48526 -8.1046762
-32.355896 -231.40024 -8.2316132
-23.922224 -231.47693 -8.272337
-23.749029 -231.5061 -8.3290377
-23.888905 -231.48355 -8.524744
-23.743633 -231.49524 -8.7230072
-30.671564 -231.45213 -8.9436617
-23.920219 -231.50359 -8.9044123
-23.923941 -231.47079 -9.0745544
-28.529362 -231.53806 -9.2614136
-23.931396 -231.52019 -9.2983189
-26.684471 -231.4816 -9.5000906
-23.889578 -231.51157 -9.5182877
-23.732109 -231.50974 -9.5936804
-23.848022 -231.55429 -9.7559891
-23.798788 -231.59476 -10.209962
-26.939394 -231.42337 -10.890998
-26.656185 -231.38853 -6.186265
-25.870691 -231.33475 -6.169888
-25.476288 -231.37837 -6.1663041
-24.666759 -231.3689 -6.1447549
-24.567537 -231.31723 -6.1517758
-24.306149 -231.33655 -6.146771
-23.267164 -231.32101 -6.141304
-23.067081 -231.31973 -6.1607299
-22.894142 -231.3475 -6.1764312
-22.715033 -231.31744 -6.1611142
-22.284626 -231.26779 -6.1300368
-21.876127 -231.33861 -6.0952611
-20.780499 -231.38277 -6.0651269
-37.694427 -231.36502 -6.3528528
-37.585098 -231.28595 -6.3353038
-37.201279 -231.29204 -6.3194399
-37.191357 -231.32687 -6.3187509
-36.705082 -231.30521 -6.293046
-35.438702 -231.30984 -6.3047252
-34.660622 -231.37836 -6.292973
-34.201439 -231.32898 -6.29915
-33.288139 -231.24707 -6.2843161
-32.302731 -231.34979 -6.2651339
-31.046638 -231.27786 -6.248601
-29.48951 -231.34912 -6.233644
-29.089912 -231.28009 -6.230082
-27.813902 -231.33344 -6.2317829
-27.488007 -231.27788 -6.2367158
-27.228079 -231.23627 -6.241334
-27.097061 -231.29697 -6.219461
-23.889961 -231.38351 -6.2887468
-23.734627 -231.31717 -6.3277521
-38.305061 -231.25031 -6.5058341
-38.089798 -231.30119 -6.4297032
-23.892431 -231.35251 -6.502315
-23.707405 -231.36754 -6.532876
-38.656311 -231.36996 -6.6677799
-23.930172 -231.24286 -6.6232691
-23.719763 -231.36969 -6.6468439
-39.629589 -231.30283 -6.871171
-39.469231 -231.36649 -6.920774
-39.108315 -231.38908 -6.8451781
-23.89012 -231.33636 -6.8984442
-30.279762 -231.20895 -7.28865
-23.918972 -231.26845 -7.277698
-31.04475 -231.28134 -7.5261579
-30.94701 -231.22189 -7.505672
-23.913317 -231.35092 -7.4639459
-31.096779 -231.33507 -7.699789
-30.961861 -231.20349 -7.61201
-32.584915 -231.38844 -7.8796878
-31.402939 -231.36374 -7.9528751
-30.616486 -231.34053 -7.869369
-29.732691 -231.34485 -7.9180431
-30.102009 -231.31766 -8.0612869
-23.943367 -231.38525 -8.3190012
-30.684761 -231.22031 -8.5569191
-29.564049 -231.30441 -8.8793449
-28.515713 -231.31683 -9.2740021
-28.191023 -231.27826 -9.454051
-26.60618 -231.10669 -6.179976
-26.461508 -231.08572 -6.189477
-26.286671 -231.10059 -6.1679358
-25.471474 -231.05621 -6.1679912
-25.156363 -231.07072 -6.1527882
-24.727728 -231.03604 -6.1386518
-24.209448 -231.01755 -6.167644
-23.461336 -231.07205 -6.1361141
-23.369225 -231.0502 -6.1356802
-23.102776 -231.05275 -6.1367092
-22.754692 -231.07025 -6.1439519
-21.462788 -231.08618 -6.0848742
-20.247894 -231.15237 -6.0413189
-38.152237 -231.13353 -6.3238292
-37.853237 -231.07886 -6.3203812
-37.449059 -231.03299 -6.3143601
-37.214764 -231.01501 -6.3243351
-37.07542 -231.11523 -6.31039
-36.417953 -231.05469 -6.282774
-35.631203 -231.16078 -6.307322
-35.348488 -231.07188 -6.311173
-35.115368 -231.1273 -6.3065562
-34.527275 -231.11075 -6.3041539
-34.27507 -231.08745 -6.2877131
-33.926994 -231.07263 -6.2904639
-33.014568 -231.03883 -6.2664781
-32.242981 -231.01892 -6.2599568
-31.904999 -231.03728 -6.269928
-31.471455 -231.13248 -6.2581739
-31.06337 -231.09297 -6.228559
-30.519184 -231.04883 -6.2385082
-30.192947 -231.02823 -6.2384138
-29.889847 -231.03918 -6.2320871
-28.326107 -231.00241 -6.2154341
-27.415937 -231.08786 -6.2670741
-27.2999 -231.16605 -6.308742
-27.138502 -231.1292 -6.2661591
-26.958309 -231.12823 -6.2094798
-26.663919 -231.00601 -6.200357
-23.934635 -231.13959 -6.2823119
-23.673864 -231.17563 -6.3378878
-38.270538 -231.11554 -6.4295998
-27.332809 -231.1256 -6.4365072
-27.130089 -231.0549 -6.4977088
-23.958925 -231.15985 -6.5267549
-23.679352 -231.17587 -6.4917769
-27.32058 -231.11044 -6.6481972
-27.162701 -231.10599 -6.6390891
-23.927324 -231.17329 -6.697413
-39.727341 -231.00084 -6.809134
-27.33704 -231.1076 -6.8508458
-27.148655 -231.06332 -6.9032292
-23.934673 -231.18961 -6.8165359
-27.415548 -231.03908 -7.0154538
-27.323975 -231.04141 -7.123106
-27.143951 -231.07411 -7.0583181
-30.924854 -231.15108 -7.3447418
-30.351898 -231.14594 -7.3827791
-27.331253 -231.04767 -7.338769
-27.109253 -231.05991 -7.3200669
-30.889065 -231.17366 -7.5759759
-30.567608 -231.13617 -7.451746
-30.353388 -231.14444 -7.453002
-27.30287 -231.04147 -7.4702291
-27.091793 -231.10388 -7.5490241
-30.845211 -231.13544 -7.6668911
-30.644327 -231.1003 -7.7014499
-30.269768 -231.06934 -7.7000089
-27.096094 -231.10864 -7.6545448
-27.270494 -231.03279 -7.8877511
-27.098627 -231.08568 -7.8698969
-32.508327 -231.11069 -8.055479
-27.083591 -231.10312 -8.1666231
-32.190586 -231.09244 -8.2025347
-27.652386 -231.14265 -8.2884378
-27.158661 -231.10992 -8.3580685
-30.457012 -231.12407 -8.5787191
-27.153759 -231.14896 -9.0070839
-26.691175 -231.04533 -9.8618336
-30.542114 -231.03911 -10.516959
-27.019587 -231.05444 -10.583302
-25.903652 -230.91403 -6.1607251
-24.861568 -230.97984 -6.1497822
-24.295519 -230.89563 -6.1259761
-24.113911 -230.92822 -6.1852331
-23.54583 -230.95926 -6.1342068
-22.70122 -230.93881 -6.1223888
-21.01462 -230.93918 -6.0732741
-20.643141 -230.97697 -6.0626659
-37.792122 -230.9689 -6.3115339
-37.118271 -230.99026 -6.310596
-36.259537 -230.95158 -6.2889152
-35.174362 -230.89946 -6.3195419
-34.978748 -230.95477 -6.2985201
-33.503052 -230.86743 -6.276052
-32.689236 -230.88522 -6.2546549
-29.446686 -230.95854 -6.2244511
-29.041492 -230.99295 -6.217968
-28.739826 -230.98363 -6.2182932
-27.648588 -230.94521 -6.2115259
-27.44479 -230.87592 -6.3651381
-27.462463 -230.89554 -6.4806619
-39.800842 -230.92799 -6.7715082
-27.427923 -230.91589 -6.637085
-27.389854 -230.95868 -6.728735
-27.429497 -230.9072 -6.8223228
-27.383408 -230.92447 -6.917295
-27.429739 -230.87692 -7.029532
-27.366543 -230.90668 -7.1048641
-29.814579 -230.9518 -7.975791
-29.758778 -230.99985 -7.8885822
-27.314814 -230.90804 -8.1515055
-31.810959 -230.96643 -8.931447
-30.86713 -230.80334 -9.7868214
-30.574284 -230.94478 -10.192226
-26.059681 -230.76842 -6.1847062
-25.356009 -230.77402 -6.1634479
-24.915337 -230.68478 -6.1953549
-24.663601 -230.65451 -6.149127
-24.307323 -230.64487 -6.1688008
-23.717773 -230.74371 -6.16746
-22.867247 -230.65201 -6.1918998
-21.861258 -230.75027 -6.0856581
-20.192541 -230.69434 -6.0272198
-38.528282 -230.72903 -6.3196278
-38.08559 -230.68347 -6.299922
-37.415108 -230.65125 -6.3147821
-37.04982 -230.70139 -6.3084641
-36.711044 -230.66232 -6.2995572
-36.062298 -230.71317 -6.2835288
-35.822109 -230.62654 -6.2738719
-34.51701 -230.62627 -6.2842078
-34.103455 -230.61067 -6.2932658
-33.829754 -230.62239 -6.2777691
-33.314415 -230.71341 -6.2681818
-32.619209 -230.60886 -6.249979
-32.260292 -230.60959 -6.246696
-30.321186 -230.62369 -6.2310228
-29.219072 -230.70821 -6.2293072
-29.020958 -230.67297 -6.2179232
-27.57276 -230.75931 -6.2240348
-26.963343 -230.6427 -6.2082062
-23.709063 -230.62216 -6.2787871
-27.107677 -230.77647 -7.5665202
-31.460657 -230.79053 -7.912951
-31.899891 -230.76691 -8.0783806
-29.974937 -230.7663 -8.9014759
-30.890375 -230.63742 -9.8347559
-29.993168 -230.71439 -11.096251
-26.653576 -230.47406 -6.1922688
-26.309282 -230.56387 -6.161654
-25.861828 -230.51945 -6.15626
-25.152195 -230.58923 -6.1533108
-23.760826 -230.59756 -6.1701221
-23.047794 -230.44443 -6.1753311
-22.648521 -230.46707 -6.090096
-21.4613 -230.567 -6.080235
-38.512783 -230.5282 -6.3108468
-38.348587 -230.56332 -6.2997341
-37.803509 -230.55357 -6.2835512
-36.485065 -230.40442 -6.2900348
-35.490311 -230.42307 -6.273046
-35.034878 -230.59071 -6.297369
-33.074802 -230.58841 -6.257021
-31.773252 -230.55408 -6.2414398
-31.333755 -230.51141 -6.2308469
-31.001865 -230.57121 -6.2380929
-30.610058 -230.59177 -6.2374411
-29.823608 -230.5318 -6.21984
-28.644115 -230.52977 -6.2174101
-28.258507 -230.55211 -6.2107611
-27.934296 -230.599 -6.2035532
-23.300575 -230.52356 -6.2664242
-39.761852 -230.51797 -6.551322
-30.538654 -230.41809 -9.366374
-30.541161 -230.5204 -10.205216
-30.306061 -230.49583 -10.665884
-27.305967 -230.31281 -6.1709909
-25.741119 -230.26547 -6.1596408
-24.804819 -230.3819 -6.143322
-23.828957 -230.31174 -6.1611471
-21.917538 -230.20261 -6.05967
-21.05233 -230.35518 -6.0523701
-20.395704 -230.32495 -6.0182819
-38.891373 -230.25327 -6.3338032
-38.552391 -230.24841 -6.317698
-38.216339 -230.24596 -6.3048291
-37.08596 -230.24506 -6.3036051
-36.509682 -230.29092 -6.2963781
-36.331856 -230.22255 -6.284481
-35.925758 -230.28349 -6.2577128
-35.392899 -230.31403 -6.2810469
-35.039883 -230.22636 -6.2640238
-34.115376 -230.30167 -6.270947
-33.402943 -230.24512 -6.259501
-32.652599 -230.25691 -6.2546859
-32.242668 -230.25092 -6.2401528
-31.902124 -230.23863 -6.2350812
-31.403671 -230.24829 -6.226069
-29.483887 -230.27602 -6.2074032
-29.078773 -230.23502 -6.2041259
-23.351391 -230.34134 -6.2328782
-30.946541 -230.28851 -9.816967
-30.491644 -230.27068 -10.579401
-28.255995 -230.10284 -6.1969728
-27.898762 -230.0782 -6.1918259
-26.87063 -230.17621 -6.1679168
-26.296049 -230.11766 -6.1681671
-25.452703 -230.17134 -6.1355491
-25.130894 -230.10294 -6.138341
-24.904289 -230.1788 -6.1254129
-24.642788 -230.09076 -6.1203032
-24.250664 -230.17212 -6.119287
-23.700975 -230.01723 -6.1085558
-21.532404 -230.17943 -6.0560131
-20.682297 -230.08057 -6.0516739
-20.220442 -230.07843 -6.029119
-38.695377 -230.00116 -6.330626
-38.038284 -230.0434 -6.3085909
-37.820068 -230.1917 -6.2897239
-37.66523 -230.07411 -6.3221951
-37.515007 -230.17871 -6.286509
-34.686592 -230.09048 -6.263732
-34.128807 -230.01036 -6.2517662
-33.82663 -230.18793 -6.2657719
-33.056732 -230.11504 -6.249959
-31.576601 -230.07562 -6.2126369
-30.966257 -230.14264 -6.2229471
-30.462099 -230.11426 -6.2208071
-30.291372 -230.13477 -6.214345
-29.95186 -230.19611 -6.2126698
-28.678518 -230.1803 -6.2021618
-39.847801 -230.1524 -6.4994421
-39.119141 -230.02211 -6.4062619
-31.258766 -230.02267 -9.257575
-31.058004 -230.15942 -9.3155785
-30.482964 -230.12311 -9.8513126
-30.518608 -230.14899 -10.157432
-30.30765 -230.19441 -10.680887
-30.252289 -230.08717 -10.841066
-29.839323 -229.83923 -6.1997881
-29.500088 -229.81345 -6.1941381
-29.118935 -229.81741 -6.19348
-28.736572 -229.81577 -6.1904392
-28.277256 -229.87656 -6.19842
-27.872715 -229.83093 -6.1758809
-27.516613 -229.92032 -6.1706882
-23.912819 -229.81145 -6.093873
-21.467243 -229.80142 -6.0501528
-21.20841 -229.92691 -6.0711541
-21.092873 -229.90714 -6.0507331
-20.641724 -229.80249 -6.0336642
-20.560614 -229.93953 -6.0176158
-38.491058 -229.87692 -6.324707
-37.979942 -229.90588 -6.302526
-37.677372 -229.90178 -6.3170519
-36.081501 -229.9328 -6.2701898
-34.569794 -229.87129 -6.264956
-34.30447 -229.80855 -6.2530231
-33.863514 -229.80841 -6.2527399
-33.417847 -229.84436 -6.2555828
-32.552246 -229.82997 -6.2029481
-31.713318 -229.87869 -6.2298751
-31.022573 -229.85295 -6.2330189
-30.140638 -229.87833 -6.2096291
-39.683403 -229.80334 -6.4626431
-30.920721 -229.96085 -9.3614712
-30.431581 -229.84903 -10.028368
-28.259981 -229.70172 -6.1793489
-27.465881 -229.75084 -6.1640768
-27.051735 -229.76871 -6.150116
-26.802687 -229.71475 -6.1404452
-26.536285 -229.78772 -6.1492929
-24.717495 -229.74146 -6.1060352
-24.238684 -229.77412 -6.0967569
-23.491947 -229.77203 -6.0917401
-21.845373 -229.73006 -6.0477462
-20.284321 -229.77786 -6.036376
-39.11808 -229.75266 -6.3519812
-38.341137 -229.76463 -6.3182168
-38.132515 -229.76988 -6.3314161
-37.320698 -229.72809 -6.2897868
-37.047382 -229.79387 -6.2724981
-36.581875 -229.79846 -6.2925811
-35.779827 -229.76616 -6.2671709
-32.940144 -229.77606 -6.2471008
-32.655132 -229.76009 -6.2354002
-32.371307 -229.66652 -6.230124
-31.870129 -229.77393 -6.2453718
-31.4517 -229.71994 -6.217803
-30.659031 -229.76291 -6.2192011
-39.515274 -229.78201 -6.4472108
-30.587549 -229.78777 -9.7710791
-30.34779 -229.68137 -10.023269
-29.485313 -229.48979 -6.1772642
-27.336315 -229.4549 -6.1620932
-26.258385 -229.49338 -6.1311631
-25.485312 -229.56352 -6.1100178
-24.876541 -229.45053 -6.1335659
-24.316772 -229.42358 -6.0994949
-23.797245 -229.4541 -6.099719
-23.39402 -229.50899 -6.0669322
-22.937157 -229.51579 -6.0802088
-22.746523 -229.4565 -6.0618
-22.307152 -229.49585 -6.0570521
-21.9065 -229.43854 -6.0451059
-21.510197 -229.4675 -6.0385952
-21.083294 -229.56758 -6.0451069
-39.330154 -229.48804 -6.3321919
-38.209595 -229.42513 -6.279644
-36.647499 -229.44351 -6.254447
-35.32061 -229.4382 -6.2565918
-34.134132 -229.51648 -6.2515602
-33.401047 -229.47762 -6.243279
-32.213413 -229.41272 -6.2181239
-31.339289 -229.45352 -6.2108731
-30.643932 -229.48273 -6.207046
-30.579853 -229.47424 -9.8156643
-30.384703 -229.5144 -9.9822521
-30.429642 -229.43446 -10.043737
-29.811882 -229.31323 -6.1900759
-29.022177 -229.38472 -6.1790628
-28.694923 -229.31607 -6.1793442
-27.7299 -229.33698 -6.1585932
-27.025192 -229.39723 -6.145246
-26.642691 -229.36682 -6.132216
-26.365585 -229.39542 -6.119627
-25.89838 -229.29327 -6.1232009
-23.455883 -229.36713 -6.0589242
-39.242332 -229.31845 -6.325254
-39.066902 -229.36737 -6.3240089
-38.779678 -229.28389 -6.289474
-37.919144 -229.32693 -6.293611
-37.43895 -229.38976 -6.2932329
-37.001137 -229.33479 -6.2739358
-36.732742 -229.25098 -6.2486358
-36.086475 -229.39888 -6.2623649
-35.746471 -229.36664 -6.248435
-35.087616 -229.34064 -6.2476401
-33.798977 -229.38989 -6.245647
-33.041046 -229.34471 -6.238327
-32.643929 -229.3492 -6.2289081
-31.859814 -229.28769 -6.2118812
-30.986076 -229.28851 -6.21035
-30.267677 -229.34991 -6.2023311
-29.395636 -229.00542 -6.1816602
-24.537569 -229.13843 -6.1117172
-24.235771 -229.05782 -6.1065249
-23.898672 -229.01514 -6.0913548
-23.030695 -229.04745 -6.057044
-22.529688 -229.03938 -6.062974
-21.771183 -229.11676 -6.051847
-39.826294 -229.03362 -6.3424001
-39.060833 -229.00114 -6.2817602
-38.581139 -229.01227 -6.2938151
-38.08588 -229.16214 -6.291101
-37.774971 -229.08983 -6.2927551
-37.399879 -229.00375 -6.2871709
-36.161144 -229.06946 -6.252337
-35.838272 -229.02673 -6.236629
-34.870026 -229.12125 -6.2444968
-33.704224 -229.15054 -6.249042
-33.434929 -229.04059 -6.238308
-32.699829 -229.11902 -6.2321262
-32.287052 -229.02779 -6.2146602
-31.823664 -229.035 -6.2015548
-30.978912 -229.03761 -6.2062011
-29.867168 -229.04291 -6.201055
-31.535313 -228.93698 -6.1967869
-29.144394 -228.9187 -6.1705842
-28.89843 -228.94199 -6.1716061
-28.257214 -228.88263 -6.1722841
-27.819645 -228.94684 -6.1463408
-27.049835 -228.97673 -6.147027
-26.651855 -228.98434 -6.1283102
-26.157629 -228.97989 -6.1224132
-25.675079 -228.9899 -6.1193638
-25.078691 -228.88084 -6.101306
-23.472965 -228.90868 -6.0888581
-22.204529 -228.87234 -6.0435462
-20.925663 -228.91916 -6.0206389
-39.452103 -228.9958 -6.2788091
-37.029083 -228.88651 -6.2605209
-36.659592 -228.93561 -6.2463589
-35.435326 -228.89955 -6.2455678
-34.629536 -228.91182 -6.2340841
-33.046448 -228.93042 -6.224978
-29.137697 -228.89275 -6.2034578
-31.383381 -228.71933 -6.1884909
-31.018419 -228.6613 -6.182662
-30.549236 -228.66554 -6.185195
-30.209568 -228.67331 -6.1785078
-29.846806 -228.60013 -6.1826658
-28.250475 -228.68521 -6.1535368
-25.074846 -228.6684 -6.0926628
-24.326942 -228.69009 -6.099185
-23.013992 -228.63693 -6.0684738
-39.607113 -228.73018 -6.3349948
-39.501247 -228.63451 -6.3281379
-38.900681 -228.72839 -6.273159
-38.283249 -228.67746 -6.2767062
-37.660732 -228.60201 -6.2714009
-37.441994 -228.64099 -6.2579012
-35.451641 -228.71286 -6.2254748
-34.567291 -228.66199 -6.2170911
-33.403507 -228.68263 -6.2416759
-33.027008 -228.63136 -6.2311449
-30.827442 -228.52219 -6.1709418
-29.470608 -228.51634 -6.1761789
-29.045139 -228.58051 -6.1696229
-28.710327 -228.56796 -6.1593108
-27.87936 -228.56316 -6.1438751
-27.464432 -228.49741 -6.1317172
-26.978262 -228.54312 -6.1388202
-26.723598 -228.53065 -6.1300802
-26.327618 -228.59564 -6.1129651
-25.804316 -228.50037 -6.1060281
-25.750311 -228.50684 -6.1270928
-25.429253 -228.48767 -6.099544
-24.861507 -228.59485 -6.0838628
-24.5439 -228.57845 -6.0861659
-24.214272 -228.49893 -6.092813
-23.844566 -228.53212 -6.0760889
-22.571238 -228.46025 -6.039001
-39.446167 -228.56827 -6.3077021
-38.569199 -228.56447 -6.275774
-37.062565 -228.54623 -6.2604961
-36.679634 -228.52711 -6.2310328
-36.269447 -228.48781 -6.2257199
-35.912975 -228.50806 -6.2420139
-35.015732 -228.55457 -6.223351
-34.273411 -228.57422 -6.215179
-33.997375 -228.53773 -6.214294
-32.672085 -228.59744 -6.223484
-32.246349 -228.42451 -6.2106938
-31.813303 -228.56071 -6.201488
-20.540911 -228.22343 -5.9891171
-31.433426 -228.21854 -6.1843438
-30.532669 -228.2883 -6.1747541
-30.137756 -228.2464 -6.1817799
-29.076017 -228.25543 -6.173965
-28.593525 -228.29645 -6.1400809
-28.262787 -228.31381 -6.148387
-27.841665 -228.23082 -6.1359119
-26.920179 -228.23145 -6.1264939
-25.859455 -228.27902 -6.1147161
-25.451384 -228.22285 -6.100214
-25.091236 -228.267 -6.0910449
-24.645477 -228.22815 -6.0873671
-24.272537 -228.27487 -6.077673
-23.863762 -228.24728 -6.0645761
-23.464306 -228.23428 -6.0530272
-23.0287 -228.25366 -6.0434709
-39.368271 -228.2179 -6.2985048
-38.153431 -228.26065 -6.2907581
-37.001251 -228.26711 -6.2000508
-36.657547 -228.21188 -6.2394462
-35.770107 -228.24983 -6.2348418
-34.645576 -228.24913 -6.2178221
-33.648712 -228.36539 -6.2094808
-33.485252 -228.27719 -6.2056441
-31.798998 -228.2579 -6.2089858
-20.211397 -228.05598 -5.9553199
-34.205223 -228.12625 -6.1985669
-30.948792 -228.15034 -6.1787872
-29.702991 -228.0798 -6.1588898
-28.909191 -228.02603 -6.1750178
-27.446827 -228.15036 -6.1347909
-27.288132 -228.18913 -6.128201
-27.080858 -228.18808 -6.125535
-26.669645 -228.13721 -6.1114669
-26.556271 -228.09628 -6.0977859
-26.264233 -228.17416 -6.1188889
-24.46133 -228.02974 -6.080586
-20.978539 -228.1851 -6.0070348
-39.935535 -228.08891 -6.3182902
-39.182816 -228.16197 -6.2472048
-37.924026 -228.06516 -6.2735658
-37.500385 -228.15733 -6.2421489
-36.267818 -228.14557 -6.2128992
-35.435932 -228.16449 -6.2320662
-33.180641 -228.15384 -6.2041979
-32.610176 -228.09784 -6.2180042
-32.284637 -228.10138 -6.2006092
-21.45813 -227.83284 -5.9923511
-33.85358 -227.91479 -6.1935592
-33.461716 -227.83295 -6.1914711
-32.942299 -227.80685 -6.1919479
-32.248207 -227.82037 -6.1877041
-30.958374 -227.81639 -6.1750522
-30.674994 -227.83249 -6.1754222
-29.528057 -227.84857 -6.1581192
-29.04858 -227.87257 -6.1578999
-28.470036 -227.81265 -6.1273642
-27.354382 -227.9086 -6.1064868
-27.001293 -227.85674 -6.076643
-26.591604 -227.88269 -6.0930099
-26.140305 -227.90379 -6.1261182
-25.274975 -227.88095 -6.088582
-25.113358 -227.89484 -6.0733061
-24.821419 -227.81059 -6.082016
-24.751694 -227.87801 -6.0654278
-24.282532 -227.90074 -6.0631018
-22.631699 -227.92403 -6.0245552
-22.283836 -227.91615 -6.0201688
-21.908863 -227.87955 -6.012794
-21.522732 -227.91757 -6.0050688
-39.051682 -227.92329 -6.2780409
-36.479225 -227.91978 -6.2397718
-35.33445 -227.87733 -6.2315192
-35.079479 -227.85461 -6.2294679
-21.560207 -227.76358 -5.9979081
-21.018568 -227.72572 -5.9823732
-20.278427 -227.77443 -5.9594188
-20.125128 -227.65733 -5.9657931
-31.872414 -227.70621 -6.1846652
-30.284002 -227.66806 -6.1657438
-28.240898 -227.75504 -6.1273232
-26.891376 -227.78201 -6.098021
-39.85762 -227.76683 -6.3093362
-39.282806 -227.69989 -6.2638922
-38.780155 -227.61148 -6.2725682
-37.868866 -227.75917 -6.2609091
-37.345982 -227.72847 -6.2329302
-36.229755 -227.76378 -6.2284241
-35.897572 -227.66794 -6.2062778
-34.595184 -227.7117 -6.201931
-34.26833 -227.78873 -6.201036
-32.530952 -227.79633 -6.2027001
-20.498825 -227.51347 -5.9714541
-20.134787 -227.53088 -5.9589071
-36.131218 -227.5025 -6.1865458
-35.510933 -227.44601 -6.187366
-33.847847 -227.41318 -6.1779132
-32.662365 -227.42595 -6.1762948
-32.159706 -227.41736 -6.1780462
-31.714478 -227.48059 -6.17379
-30.986916 -227.45374 -6.1944628
-30.641718 -227.46797 -6.1526332
-29.892696 -227.47234 -6.1488729
-28.750425 -227.53859 -6.1247339
-27.014681 -227.58914 -6.0957279
-26.169815 -227.45947 -6.0765252
-25.779848 -227.43257 -6.101007
-25.105585 -227.54932 -6.046802
-24.24229 -227.46078 -6.0766978
-23.979778 -227.42099 -6.0705981
-23.295788 -227.46199 -6.0444469
-22.882744 -227.48758 -6.0428019
-39.743301 -227.51483 -6.295764
-38.95253 -227.44354 -6.2628269
-38.64703 -227.43448 -6.2623162
-37.758324 -227.51503 -6.2563028
-34.526283 -227.45326 -6.2096329
-21.373289 -227.38965 -5.9902592
-34.150528 -227.33177 -6.1887932
-33.55621 -227.2771 -6.19063
-31.435223 -227.31801 -6.177804
-29.367254 -227.26958 -6.1456852
-29.147499 -227.3291 -6.13765
-27.902527 -227.27907 -6.1186962
-26.544315 -227.31117 -6.086534
-25.454332 -227.25542 -6.083847
-24.581764 -227.27036 -6.048964
-22.610914 -227.30591 -6.0356779
-39.521095 -227.26282 -6.2900262
-38.573959 -227.31807 -6.2545862
-38.39019 -227.205 -6.254086
-37.428936 -227.34007 -6.2433219
-36.917709 -227.27765 -6.215692
-35.753002 -227.37177 -6.2098541
-34.953133 -227.38339 -6.2020741
-27.161051 -227.22992 -10.23916
-33.009438 -227.31921 -11.025383
-32.458511 -227.20026 -11.459834
-35.412445 -227.05005 -6.1954908
-35.008713 -227.01836 -6.1902051
-34.564293 -227.03877 -6.1806908
-34.199265 -227.01424 -6.1695309
-33.367607 -227.03519 -6.1706309
-33.097515 -227.01366 -6.1846771
-32.210075 -227.0798 -6.1645918
-31.420584 -227.07812 -6.1585231
-30.477512 -227.02609 -6.1906891
-29.365273 -227.02438 -6.1355529
-27.446312 -227.01746 -6.1019721
-27.012541 -227.01534 -6.0943489
-26.823591 -227.18388 -6.069346
-25.294422 -227.01892 -6.0807252
-25.1047 -227.05472 -6.0770831
-23.62356 -227.07315 -6.055933
-21.061073 -227.12762 -6.0131001
-39.891739 -227.10269 -6.2835321
-39.266422 -227.07849 -6.2785602
-39.149708 -227.03264 -6.2831311
-38.79575 -227.05898 -6.2415371
-37.366364 -227.11008 -6.2458
-35.820747 -227.08804 -6.2154112
-27.247581 -227.064 -9.0253601
-27.180897 -227.06351 -9.3226719
-27.235851 -227.10655 -9.4833345
-27.24538 -227.1376 -9.6248465
-27.17918 -227.09 -9.7134113
-27.162685 -227.17188 -10.104479
-27.127455 -227.18553 -10.416679
-21.388924 -226.95567 -5.9799109
-20.144753 -226.92404 -5.9602871
-36.604809 -226.99854 -6.1971278
-33.821571 -226.99875 -6.1694822
-29.561056 -226.93771 -6.129787
-28.258068 -226.92957 -6.1223822
-27.801847 -226.94551 -6.1183171
-27.136633 -226.9039 -6.146266
-26.557327 -226.92966 -6.080605
-26.257246 -226.91304 -6.0806632
-26.171814 -226.91447 -6.0823712
-25.880407 -226.92404 -6.084775
-25.048214 -226.90178 -6.0724201
-24.921097 -226.97607 -6.0675802
-24.632671 -226.97047 -6.0446382
-24.267244 -226.91006 -6.032711
-23.08547 -226.87 -6.0328469
-39.137863 -226.91119 -6.2698698
-38.223438 -226.99904 -6.2424622
-38.162498 -226.9938 -6.2456622
-37.859016 -226.9494 -6.2123251
-37.082504 -226.91435 -6.210176
-27.24754 -226.81697 -7.9286642
-27.268471 -226.90619 -8.2468548
-27.185278 -226.82892 -8.3243809
-27.292381 -226.98666 -8.6071215
-27.175526 -226.87671 -8.6296883
-27.185926 -226.9809 -8.9805956
-32.28973 -226.86562 -10.288507
-32.498653 -226.81583 -10.898809
-32.478333 -226.92786 -11.426433
-21.716393 -226.63879 -5.9897099
-21.361382 -226.62834 -5.9773378
-20.537247 -226.70947 -5.9512558
-36.235924 -226.65527 -6.195529
-35.419884 -226.64665 -6.1876969
-34.962715 -226.67786 -6.1451392
-34.675766 -226.61475 -6.175488
-34.163307 -226.61642 -6.1439629
-33.293648 -226.72833 -6.1628151
-33.020645 -226.60532 -6.1712122
-30.96928 -226.65262 -6.1482511
-30.577763 -226.61765 -6.1455498
-30.124237 -226.66376 -6.182714
-29.732639 -226.65231 -6.1344042
-29.393902 -226.62408 -6.1293559
-27.797832 -226.75037 -6.1156979
-27.486187 -226.72345 -6.1109171
-27.199907 -226.61891 -6.1014719
-26.245419 -226.60258 -6.0818081
-25.821255 -226.72769 -6.0736971
-22.891434 -226.72821 -6.0253139
-22.652271 -226.63684 -6.0292969
-39.769394 -226.6156 -6.2618079
-39.385323 -226.77771 -6.2740979
-39.052162 -226.64774 -6.2514949
-37.746136 -226.62694 -6.231596
-27.31391 -226.68143 -7.4699268
-27.185146 -226.60748 -7.505692
-27.276917 -226.7309 -7.702929
-32.247097 -226.67743 -10.575998
-32.820866 -226.62979 -10.627653
-32.636536 -226.67484 -10.64336
-31.414371 -226.66481 -10.939157
-31.64859 -226.63672 -11.24199
-20.87615 -226.46974 -5.971693
-20.12192 -226.5162 -5.9462981
-33.855747 -226.58484 -6.166225
-32.699982 -226.46542 -6.1787448
-32.080948 -226.452 -6.1693501
-31.37986 -226.51877 -6.14995
-29.012321 -226.54227 -6.123764
-28.622017 -226.53137 -6.124084
-28.254944 -226.44971 -6.1255031
-27.025188 -226.5806 -6.0977879
-26.698833 -226.53375 -6.0972381
-25.420666 -226.54752 -6.061358
-24.514715 -226.51115 -6.0450492
-23.818787 -226.53253 -6.0276771
-22.244919 -226.55147 -6.0211692
-39.041595 -226.44887 -6.2379532
-38.651207 -226.49695 -6.2300439
-37.537697 -226.42934 -6.2226882
-36.858776 -226.46904 -6.2249799
-36.654984 -226.58073 -6.2088919
-27.176781 -226.4482 -6.96663
-27.276134 -226.53159 -7.035357
-33.306301 -226.51422 -9.8566647
-32.317062 -226.4585 -9.8366966
-31.935116 -226.46423 -9.8641977
-33.279648 -226.4176 -10.166059
-32.623257 -226.4702 -10.203941
-32.203033 -226.57693 -10.238861
-31.920734 -226.46544 -10.560582
-32.653374 -226.50449 -10.906931
-32.210617 -226.48128 -10.894713
-33.094288 -226.5506 -11.057926
-21.770811 -226.24919 -5.988956
-20.811451 -226.20688 -5.9557409
-35.909336 -226.22456 -6.1600151
-35.412254 -226.32327 -6.1734529
-34.25259 -226.30566 -6.1588268
-33.413551 -226.21948 -6.1593108
-32.696873 -226.2753 -6.1472478
-31.859558 -226.27342 -6.157506
-30.872089 -226.29956 -6.1499209
-29.846701 -226.35707 -6.1313801
-28.626026 -226.22678 -6.1113162
-28.119953 -226.33508 -6.1137509
-27.893234 -226.23776 -6.0965748
-27.713371 -226.295 -6.1038561
-27.310776 -226.25589 -6.113184
-25.137756 -226.28949 -6.050045
-24.638622 -226.20738 -6.0527692
-22.410004 -226.3932 -6.0007882
-22.114429 -226.22903 -6.0189781
-38.78093 -226.24597 -6.2359748
-37.393539 -226.28824 -6.21591
-36.547897 -226.20905 -6.2097731
-27.230728 -226.32352 -6.6881318
-27.169243 -226.33902 -6.734406
-32.264389 -226.35106 -9.8510933
-32.009281 -226.36911 -9.9982224
-31.939096 -226.27338 -9.830574
-32.988605 -226.20818 -10.155667
-32.60577 -226.32016 -10.160249
-32.179424 -226.35501 -10.125769
-31.957525 -226.25037 -10.141798
-33.392708 -226.36461 -10.211035
-32.652184 -226.28064 -10.432312
-32.176003 -226.34503 -10.478992
-31.725304 -226.2932 -10.518486
-33.10601 -226.23915 -11.013244
-22.674763 -226.11246 -5.9777112
-22.292892 -226.11282 -5.9919071
-21.38759 -226.1917 -5.9877539
-21.02644 -226.11345 -5.9871368
-20.953117 -226.02467 -5.9800239
-20.647821 -226.16565 -5.9721508
-20.213362 -226.18292 -5.9561362
-36.233162 -226.1489 -6.194016
-35.029606 -226.16418 -6.1678028
-33.814034 -226.15411 -6.1647
-32.289787 -226.19586 -6.146492
-31.531908 -226.07974 -6.1489358
-30.499023 -226.15128 -6.146163
-30.311445 -226.10072 -6.1342969
-29.432632 -226.12933 -6.1193309
-27.493977 -226.10304 -6.1396661
-25.851027 -226.11084 -6.0407348
-25.436897 -226.17911 -6.051538
-23.592152 -226.03984 -6.0367441
-23.364805 -226.07115 -6.0241318
-23.067751 -226.08383 -6.0144992
-21.82814 -226.08194 -6.008903
-39.855576 -226.12891 -6.2354341
-39.486862 -226.17973 -6.2459579
-39.329643 -226.05139 -6.2056322
-38.857201 -226.18698 -6.2439089
-38.569351 -226.04356 -6.223423
-38.212685 -226.16846 -6.2038798
-37.158405 -226.10657 -6.209867
-27.145252 -226.07175 -6.2691622
-33.015404 -226.15442 -9.5779171
-32.998169 -226.09822 -9.8700495
-31.852047 -226.14418 -10.537527
-31.655844 -226.10046 -10.872128
-23.659164 -225.93317 -5.9946728
-23.381826 -225.81595 -5.9957762
-21.868008 -225.85768 -5.9867721
-21.403734 -225.91148 -5.9871631
-21.085487 -225.87659 -5.9784598
-20.832771 -225.92604 -5.9729142
-20.726603 -225.83647 -5.9613271
-20.585888 -225.87741 -5.9601369
-20.179705 -225.8564 -5.949687
-36.958332 -225.90508 -6.1994181
-35.83152 -225.83755 -6.1852479
-35.392242 -225.80785 -6.1469288
-34.64769 -225.89243 -6.1599951
-34.244064 -225.80661 -6.1496229
-33.434525 -225.8421 -6.1442571
-31.314585 -225.88513 -6.148942
-30.098164 -225.85336 -6.1330361
-28.287733 -225.80057 -6.0918398
-27.713402 -225.92255 -6.120553
-27.210991 -225.85687 -6.1336131
-27.174129 -225.85645 -6.1656642
-26.687077 -225.86847 -6.067482
-26.288166 -225.90854 -6.0659719
-25.89757 -225.92198 -6.0533562
-25.488087 -225.85875 -6.0257049
-25.067509 -225.84413 -6.0363622
-24.106356 -225.8772 -6.0311952
-23.954954 -225.85735 -6.0150189
-23.519659 -225.94357 -6.0186481
-23.020004 -225.89478 -6.0106211
-21.912613 -225.89755 -6.0696559
-21.562389 -225.94296 -6.00878
-39.173367 -225.82246 -6.226315
-38.615631 -225.823 -6.2291932
-36.194603 -225.82031 -6.2053218
-27.318886 -225.88342 -6.322906
-27.142649 -225.91649 -6.281117
-27.266401 -225.89743 -6.5055728
-22.235218 -225.80548 -8.9720707
-22.096806 -225.81607 -8.9125347
-22.217079 -225.82413 -9.3210239
-22.314625 -225.83157 -9.7090149
-22.252714 -225.83417 -10.079726
-31.533772 -225.8679 -10.320459
-22.289309 -225.83936 -10.41534
-24.252243 -225.63689 -5.9980192
-23.739574 -225.78635 -5.9984961
-22.285929 -225.79082 -5.981267
-21.867683 -225.70114 -5.9640732
-20.415892 -225.72806 -5.9703708
-37.944588 -225.70285 -6.1978049
-36.546829 -225.77039 -6.1996169
-35.063263 -225.6498 -6.1168451
-34.61335 -225.7713 -6.1499591
-33.819008 -225.72971 -6.1585722
-32.96344 -225.78125 -6.1485958
-32.576576 -225.65437 -6.1480699
-32.082283 -225.77899 -6.1281848
-31.882248 -225.69635 -6.1250648
-31.084301 -225.75925 -6.1426702
-30.675627 -225.77612 -6.1379218
-29.788536 -225.70847 -6.1190329
-29.513351 -225.7527 -6.1315241
-28.991501 -225.76801 -6.0968161
-27.82638 -225.78789 -6.09479
-24.691256 -225.70697 -6.0215721
-24.379524 -225.6675 -6.022481
-23.839647 -225.78156 -6.0274868
-21.945023 -225.62698 -6.018157
-39.500137 -225.75793 -6.2253728
-39.026451 -225.69916 -6.2539272
-22.0662 -225.65863 -6.3313098
-21.929323 -225.64948 -6.3115139
-21.947243 -225.67148 -6.5185308
-22.103451 -225.67474 -6.7140169
-21.939539 -225.68295 -6.708426
-22.023014 -225.71304 -6.9123702
-22.088531 -225.68886 -7.1428909
-21.959389 -225.68677 -7.0876479
-22.107269 -225.72385 -7.3311458
-22.153835 -225.72891 -7.719461
-22.246601 -225.68277 -8.1002522
-22.116253 -225.74017 -8.2339506
-22.250032 -225.70563 -8.5398455
-22.432304 -225.79474 -9.705596
-22.356237 -225.7769 -9.6980267
-32.771011 -225.77858 -10.278672
-31.784157 -225.64874 -10.24894
-31.516981 -225.67722 -10.579407
-32.040413 -225.68513 -10.614847
-31.876905 -225.65878 -10.605918
-34.556656 -225.72751 -10.937751
-31.804024 -225.76385 -10.934723
-33.722275 -225.79694 -11.022239
-23.455624 -225.59677 -5.9970622
-23.043222 -225.48276 -5.9937849
-22.681763 -225.45613 -5.9860182
-22.307903 -225.45517 -5.978076
-21.803526 -225.49716 -5.97578
-21.445892 -225.42088 -5.9616771
-20.675114 -225.43274 -5.9475279
-37.744034 -225.5386 -6.1935768
-34.903297 -225.46588 -6.1450849
-34.298256 -225.42838 -6.1290898
-33.6716 -225.53108 -6.145421
-33.394161 -225.48296 -6.1580009
-33.065086 -225.43762 -6.1527872
-32.37635 -225.55164 -6.1491361
-30.822271 -225.58362 -6.1436319
-30.599888 -225.54022 -6.1346588
-29.668777 -225.46281 -6.1155491
-29.087711 -225.48952 -6.106482
-28.90724 -225.46527 -6.0851579
-26.712772 -225.47646 -6.095634
-26.03223 -225.49529 -6.0476298
-25.312452 -225.56245 -6.0255442
-25.133566 -225.47211 -6.051497
-24.929306 -225.42374 -6.0336199
-24.686926 -225.51242 -6.026854
-24.226139 -225.56863 -6.017962
-23.825722 -225.5248 -6.026154
-23.453587 -225.46637 -6.032177
-23.16333 -225.42751 -6.0083499
-22.512964 -225.5038 -6.0247569
-38.465523 -225.50838 -6.2331209
-38.222488 -225.45959 -6.2026548
-22.267273 -225.41602 -6.3149791
-22.185259 -225.53217 -6.3331151
-22.246311 -225.4977 -6.7047162
-21.910622 -225.52838 -6.7227302
-22.255661 -225.51064 -7.0793209
-22.233112 -225.56686 -7.2969222
-22.250927 -225.59935 -7.6357832
-22.273809 -225.59445 -7.805912
-22.04949 -225.54504 -8.0532322
-32.463436 -225.51175 -9.093956
-32.46069 -225.46606 -9.4210491
-32.410187 -225.45818 -9.7683964
-31.903786 -225.46196 -9.7564774
-32.864162 -225.46973 -10.32271
-32.331322 -225.49347 -10.353773
-31.540623 -225.53996 -10.247777
-33.063221 -225.44582 -10.481386
-32.225719 -225.51767 -10.440601
-31.324677 -225.41106 -10.714573
-34.152985 -225.55406 -10.986255
-21.390676 -225.32162 -5.9564271
-21.070131 -225.28535 -5.9344001
-20.721956 -225.3522 -5.9361119
-20.252995 -225.32239 -5.923018
-37.57111 -225.29637 -6.1928921
-36.156178 -225.39334 -6.188097
-35.780792 -225.28806 -6.187777
-35.428493 -225.34863 -6.1709442
-34.586983 -225.37057 -6.1309929
-32.570663 -225.39606 -6.1363358
-32.221996 -225.39243 -6.137455
-31.881115 -225.34175 -6.1276441
-31.446472 -225.35965 -6.109756
-30.310207 -225.34485 -6.121799
-30.058372 -225.26424 -6.1098661
-29.347654 -225.38197 -6.1056132
-28.600574 -225.32718 -6.0851951
-28.267477 -225.30077 -6.0748239
-27.972351 -225.39639 -6.0729198
-27.012074 -225.28531 -6.074367
-26.557688 -225.39958 -6.058538
-25.743168 -225.29402 -6.0442562
-24.844238 -225.26736 -6.0397801
-21.785967 -225.34311 -6.109345
-39.288712 -225.34604 -6.209569
-39.000828 -225.38435 -6.2041988
-22.244413 -225.38266 -6.3036089
-21.833374 -225.38036 -6.2637162
-32.360779 -225.2458 -7.9675889
-32.100861 -225.28583 -9.0765152
-31.932665 -225.24655 -9.0252132
-32.262829 -225.34857 -9.5218229
-31.934956 -225.36058 -9.4185524
-32.283951 -225.38943 -9.8379173
-31.419456 -225.25047 -9.9499626
-34.1366 -225.26712 -10.292984
-33.8064 -225.22418 -10.266076
-33.584297 -225.21463 -10.246476
-31.749525 -225.38245 -10.230837
-34.134701 -225.28641 -10.464591
-33.297466 -225.20477 -10.510612
-32.668694 -225.39125 -10.487147
-31.634325 -225.34091 -10.617434
-33.415924 -225.33673 -11.16721
-20.920315 -225.32426 -11.425127
-22.627829 -225.07013 -5.993443
-20.589285 -225.15869 -5.9419188
-39.053097 -225.01735 -6.1949129
-38.667511 -225.04724 -6.1787372
-37.972687 -225.19479 -6.1945319
-37.372047 -225.09871 -6.1827731
-35.701736 -225.08463 -6.1803751
-35.447247 -225.14635 -6.1678109
-35.044273 -225.07083 -6.1653261
-34.587402 -225.07253 -6.1611881
-34.099777 -225.05545 -6.1349549
-33.99057 -225.18701 -6.110117
-33.209724 -225.19748 -6.1365838
-32.822384 -225.129 -6.1600318
-32.282059 -225.09981 -6.1326518
-31.697485 -225.10681 -6.1157961
-31.389122 -225.08954 -6.1081052
-30.990128 -225.08099 -6.098639
-29.496635 -225.04417 -6.104136
-29.371342 -225.09238 -6.1155429
-28.866711 -225.16054 -6.1350551
-28.488991 -225.13361 -6.0713272
-28.098278 -225.0002 -6.0822811
-27.818449 -225.16447 -6.0601182
-27.028854 -225.11728 -6.0643721
-26.142727 -225.10446 -6.0387492
-25.528019 -225.15129 -6.0422392
-24.978308 -225.155 -6.0110402
-24.513546 -225.13591 -6.0401258
-24.307514 -225.0748 -6.0303841
-38.109211 -225.19055 -6.2277031
-32.153648 -225.05695 -8.3113232
-32.16732 -225.08167 -8.4048033
-32.055832 -225.10159 -8.6635532
-31.946718 -225.10339 -8.6817703
-31.892895 -225.10892 -8.9616985
-31.890463 -225.10829 -9.4122515
-33.451244 -225.02872 -9.784008
-31.229023 -225.07529 -9.7559938
-32.634815 -225.01427 -9.8822994
-31.836611 -225.11865 -9.831789
-32.675797 -225.10368 -10.054983
-34.774696 -225.08131 -10.362069
-32.909065 -225.04195 -10.204666
-31.774977 -225.04176 -10.229144
-33.236801 -225.0741 -10.565363
-34.466679 -225.13687 -10.721961
-22.42338 -224.90216 -5.9833622
-21.108463 -224.9527 -5.9476109
-20.604177 -224.94423 -5.9770441
-38.876328 -224.8403 -6.1895571
-38.496346 -224.89481 -6.1948538
-37.79847 -224.9527 -6.1840382
-37.130726 -224.91122 -6.1758342
-35.369247 -224.88531 -6.1686478
-34.81432 -224.91476 -6.1639681
-33.754417 -224.86909 -6.092063
-33.45647 -224.80481 -6.0607529
-32.79158 -224.92563 -6.131093
-31.787663 -224.90523 -6.1235809
-31.339058 -224.94374 -6.1001658
-30.696505 -224.95169 -6.0939922
-30.012432 -224.9855 -6.105824
-29.790888 -224.81021 -6.1040702
-29.378086 -224.95349 -6.1034732
-28.213287 -224.95767 -6.0645752
-27.891495 -224.84183 -6.0699129
-27.40259 -224.85916 -6.0471702
-27.015039 -224.98839 -6.041985
-25.824623 -224.91086 -6.0276361
-22.896427 -224.99123 -6.009048
-32.131443 -224.84077 -7.9406648
-32.046871 -224.91226 -8.1609526
-32.13517 -224.97351 -8.3051338
-31.960817 -224.91528 -8.3164825
-32.600967 -224.98611 -8.7413578
-32.602905 -224.94684 -9.0718718
-31.921438 -224.94141 -9.073843
-33.428864 -224.88344 -9.5381021
-32.596565 -224.93558 -9.4488773
-32.218021 -224.81664 -9.5514812
-31.95158 -224.92409 -9.4282722
-31.523849 -224.86003 -9.4414759
-32.610138 -224.95856 -9.7352333
-31.259663 -224.92186 -9.7341747
-31.147903 -224.92453 -9.7509184
-33.678352 -224.82611 -9.8559275
-33.48835 -224.89496 -9.8816814
-32.069336 -224.88837 -9.840436
-31.90094 -224.92529 -9.8050976
-32.550514 -224.83603 -10.001459
-32.053791 -224.89308 -10.027144
-31.176559 -224.98651 -10.033263
-33.479942 -224.87572 -10.220566
-33.01754 -224.91829 -10.201471
-31.781231 -224.97578 -10.220298
-34.820412 -224.85815 -10.469866
-34.625122 -224.86755 -10.523048
-34.30471 -224.85251 -10.522985
-33.442078 -224.91391 -10.507069
-33.08128 -224.94217 -10.49938
-38.521351 -224.66568 -6.1936631
-38.263268 -224.71585 -6.1810641
-37.860283 -224.6759 -6.1911812
-36.945129 -224.6584 -6.156013
-35.276958 -224.71332 -6.175118
-33.760578 -224.66949 -6.13133
-32.415905 -224.6964 -6.1271582
-31.746283 -224.75911 -6.0537052
-31.357468 -224.7207 -6.1003518
-30.380222 -224.63004 -6.0832882
-29.632845 -224.65184 -6.1001711
-28.969086 -224.74852 -6.098731
-25.837589 -224.6463 -6.0273018
-22.692404 -224.75264 -6.0345039
-32.238884 -224.66147 -7.5419002
-32.127815 -224.63695 -7.4795308
-32.097252 -224.71753 -7.7356558
-31.982288 -224.65732 -7.9341898
-33.809872 -224.70979 -9.5790968
-33.290752 -224.72194 -9.4920015
-31.958252 -224.69902 -9.4487047
-33.792618 -224.78989 -9.686799
-33.166744 -224.68597 -9.6614132
-32.041084 -224.76308 -9.7070255
-31.711573 -224.7607 -9.7986374
-31.58577 -224.74548 -9.635334
-33.371037 -224.62192 -9.8761082
-34.643196 -224.72681 -10.027997
-33.708687 -224.60031 -10.188946
-33.392319 -224.72432 -10.069099
-38.531918 -224.59354 -6.1870828
-36.585125 -224.52878 -6.1637821
-34.974201 -224.58566 -6.1615858
-34.659115 -224.54092 -6.1541128
-34.341831 -224.48285 -6.1427102
-33.501717 -224.44286 -6.1160789
-32.141609 -224.51315 -6.148335
-31.032932 -224.5867 -6.109704
-30.976395 -224.43037 -6.1085382
-30.601673 -224.58151 -6.1104102
-28.603201 -224.59296 -6.0864139
-28.180544 -224.5737 -6.0611601
-27.809752 -224.4942 -6.038229
-27.475149 -224.57884 -6.054656
-27.035812 -224.58195 -6.0342999
-26.606655 -224.54498 -6.040616
-25.797495 -224.58347 -6.0330939
-25.378021 -224.53265 -6.021275
-39.923141 -224.45276 -6.2346458
-37.553429 -224.40561 -6.2018051
-32.267342 -224.44159 -7.1329641
-32.148331 -224.44504 -7.1251478
-32.293945 -224.4987 -7.2259049
-32.195061 -224.54845 -7.3836708
-32.326885 -224.5015 -7.421989
-33.009674 -224.49213 -10.080185
-33.87664 -224.58876 -10.510594
-36.589638 -224.26111 -6.1389961
-34.835365 -224.35336 -6.1692629
-34.653069 -224.29849 -6.151454
-34.555557 -224.30603 -6.1595521
-33.330227 -224.2735 -6.1162052
-33.101574 -224.31036 -6.131712
-32.877037 -224.29562 -6.0992212
-32.0214 -224.29401 -6.1369801
-31.928082 -224.25124 -6.1051259
-31.772243 -224.29778 -6.1503372
-31.541733 -224.22964 -6.1569772
-30.829241 -224.2554 -6.075367
-30.701553 -224.37764 -6.0910802
-30.086868 -224.25095 -6.082171
-29.779104 -224.26862 -6.079958
-32.26527 -224.32605 -6.9421959
-32.194534 -224.21066 -6.909687
-32.084881 -224.3477 -7.4149761
-33.456821 -224.32301 -9.9967871
-33.751503 -224.32141 -10.172648
-33.463577 -224.39418 -10.007441
-34.014687 -224.37727 -10.313921
-39.621593 -224.16992 -6.16994
-38.16452 -224.13475 -6.1678519
-37.309418 -224.10162 -6.1688509
-36.23011 -224.13342 -6.1453362
-35.963428 -224.10574 -6.149961
-34.233261 -224.17838 -6.1389451
-34.100636 -224.01633 -6.1396432
-33.989098 -224.17758 -6.1281738
-32.90976 -224.16351 -6.1110792
-32.792984 -224.0575 -6.1120758
-31.769447 -224.14632 -6.1021848
-30.564873 -224.07077 -6.0847802
-29.410072 -224.095 -6.079721
-32.565643 -224.07854 -6.596169
-32.540916 -224.10779 -6.6996179
-32.318081 -224.16035 -6.7123518
-32.521004 -224.16081 -6.8265629
-32.909813 -224.1871 -9.9284801
-33.680923 -224.14722 -10.554161
-24.057501 -223.836 -5.9864159
-22.639658 -223.95654 -5.9666281
-39.33968 -223.81833 -6.1810489
-36.963779 -223.88446 -6.1530809
-36.047169 -223.80019 -6.130228
-35.696083 -223.93379 -6.1446519
-35.53241 -223.82832 -6.1412282
-33.209595 -223.93259 -6.1113849
-32.945171 -223.8259 -6.0971079
-32.650387 -223.83446 -6.1994052
-31.758137 -223.83597 -6.0765948
-30.42223 -223.87773 -6.0763431
-29.797255 -223.83179 -6.0624928
-28.985073 -223.89276 -6.0702748
-27.052799 -223.88889 -6.0302162
-39.876427 -223.80716 -6.204206
-32.528816 -223.90103 -6.3258429
-32.388279 -223.90654 -6.3279958
-32.503155 -223.95569 -6.4125538
-32.329475 -223.9646 -6.4727721
-36.613701 -223.66318 -6.1357398
-35.18111 -223.64743 -6.1385808
-33.908241 -223.78517 -6.1245012
-32.923233 -223.66823 -6.0737338
-31.435005 -223.79778 -6.0843139
-31.132313 -223.65857 -6.0815601
-30.222662 -223.74832 -6.0654578
-30.162655 -223.76427 -6.0794301
-28.229671 -223.77518 -6.0637689
-39.186832 -223.67111 -6.2063618
-32.77282 -223.70935 -6.275733
-33.678116 -223.79793 -10.364637
-21.077326 -223.43042 -5.913178
-37.74334 -223.47241 -6.1521182
-34.079292 -223.43742 -6.1407008
-32.929623 -223.41411 -6.199285
-31.667547 -223.48856 -6.0921121
-31.43697 -223.41605 -6.094594
-30.066399 -223.43687 -6.0596452
-29.764835 -223.42358 -6.0625429
-26.538776 -223.52731 -6.0074992
-25.760048 -223.58173 -6.0142388
-25.372375 -223.47556 -6.004343
-39.777878 -223.4601 -6.2042971
-32.701733 -223.41512 -6.6007671
-21.21796 -223.38483 -5.9711499
-39.465126 -223.34908 -6.1880188
-38.93647 -223.36993 -6.1702638
-38.708591 -223.29878 -6.141511
-37.328125 -223.31601 -6.1072459
-35.399353 -223.20303 -6.1150818
-34.729485 -223.33473 -6.1256471
-32.445969 -223.30655 -6.1375661
-31.31052 -223.39479 -6.0773849
-31.108315 -223.29489 -6.073946
-30.70035 -223.29324 -6.0629139
-29.538397 -223.27675 -6.0578289
-29.041731 -223.28397 -6.0339532
-32.679554 -223.27824 -6.3521142
-32.852341 -223.39386 -6.593298
-26.979649 -223.16029 -5.9818678
-23.4168 -223.11032 -5.9642258
-21.058929 -223.03564 -5.9453878
-20.711208 -223.07645 -5.947104
-39.254238 -223.0383 -6.1749368
-38.477753 -223.0701 -6.1472578
-36.160511 -223.17039 -6.1809168
-35.894169 -223.00369 -6.1514759
-33.775387 -223.07245 -6.0911198
-31.220137 -223.1512 -6.0744901
-29.836843 -223.16452 -6.0496559
-29.365301 -223.0325 -6.0396061
-28.915953 -223.14516 -6.0344119
-28.726387 -223.07092 -6.0302448
-28.375843 -223.02612 -6.0334539
-27.366346 -223.11774 -6.029942
-25.43795 -222.87218 -5.9733982
-22.227865 -222.9729 -5.9321952
-21.388983 -222.91042 -5.939621
-20.256014 -222.9556 -5.918056
-39.16114 -222.85403 -6.1516838
-37.041435 -222.9808 -6.0966501
-34.327717 -222.92561 -6.0988951
-33.453819 -222.9301 -6.1011162
-32.429672 -222.9209 -6.0442901
-30.92712 -222.9957 -6.0564108
-30.665161 -222.93289 -6.056478
-39.843231 -222.97311 -6.2097058
-25.47447 -222.67165 -5.9688649
-25.13843 -222.6954 -5.9694262
-24.623854 -222.63828 -5.9669619
-22.872185 -222.62277 -5.9163809
-22.171278 -222.73993 -5.931376
-20.999947 -222.67511 -5.931417
-20.662516 -222.70601 -5.9251771
-38.997906 -222.66838 -6.1630239
-35.735878 -222.75406 -6.1721249
-35.426434 -222.64859 -6.1154108
-34.933739 -222.61513 -6.0903769
-30.556602 -222.65901 -6.0656939
-30.186802 -222.64148 -6.03899
-28.42487 -222.74579 -6.0156679
-28.149427 -222.70911 -6.0174942
-27.956188 -222.73499 -6.0055099
-27.442612 -222.71048 -6.0064569
-39.504177 -222.62137 -6.2013221
-26.473211 -222.48163 -5.9694762
-26.364025 -222.49216 -5.9579859
-22.542601 -222.55933 -5.9190869
-20.252846 -222.45805 -5.8969789
-38.16095 -222.58655 -6.1353941
-35.465149 -222.58582 -6.1402001
-32.980141 -222.43835 -6.070776
-31.843771 -222.58064 -6.0604482
-31.513988 -222.48474 -6.070641
-29.703537 -222.43768 -6.0157499
-28.109695 -222.20969 -5.9797201
-26.250668 -222.27727 -5.9804268
-24.952061 -222.2227 -5.9450541
-24.211731 -222.27768 -5.964839
-23.616465 -222.30281 -5.9644728
-23.113224 -222.31625 -5.9303751
-22.676487 -222.20387 -5.9187789
-22.178484 -222.21007 -5.9098802
-21.346905 -222.34865 -5.924191
-20.927401 -222.27603 -5.9136858
-39.287113 -222.23108 -6.1859579
-38.819168 -222.38106 -6.1357861
-38.601982 -222.2383 -6.1470599
-38.037727 -222.33923 -6.1498318
-36.610218 -222.2186 -6.113224
-36.289429 -222.22595 -6.0872312
-36.143623 -222.31065 -6.086741
-35.333755 -222.32837 -6.161891
-34.12323 -222.24606 -6.0794029
-33.710255 -222.2374 -6.0722718
-31.720984 -222.35847 -6.054841
-31.434921 -222.25757 -6.0589051
-31.054058 -222.2287 -6.0541682
-30.18853 -222.21576 -6.0397749
-28.574871 -222.33566 -6.0008359
-27.744038 -222.1552 -5.9724221
-25.976112 -222.08415 -5.9811368
-24.766891 -222.0854 -5.9285679
-23.385296 -222.15001 -5.9590769
-22.058064 -222.12747 -5.9079819
-20.555744 -222.16232 -5.8970208
-39.926884 -222.04718 -6.1680188
-38.303391 -222.03442 -6.1469698
-37.81086 -222.19203 -6.1180239
-35.068275 -222.15517 -6.0916181
-34.549858 -222.1185 -6.0686049
-29.917963 -222.19801 -6.0224872
-29.03207 -222.08406 -6.0034599
-26.515518 -222.1476 -6.0172968
-27.954348 -221.87422 -5.9783392
-26.052399 -221.93794 -5.948895
-25.810837 -221.8414 -5.9541092
-22.976097 -221.91516 -5.9529438
-21.861919 -221.87994 -5.8915172
-21.466965 -221.85368 -5.8936958
-20.290409 -221.82297 -5.895648
-39.822548 -221.8947 -6.1863132
-38.276314 -221.85014 -6.1263399
-36.474884 -221.82393 -6.1202531
-35.821655 -221.83722 -6.0786719
-35.749893 -221.8181 -6.092114
-34.993446 -221.96263 -6.1528888
-34.284355 -221.85379 -6.0599289
-33.372932 -221.92291 -6.0716
-32.621273 -221.90674 -6.0851998
-31.291904 -221.93684 -6.0390081
-29.80197 -221.82175 -6.0190291
-29.332733 -221.7157 -5.9911852
-29.01922 -221.68423 -5.9828768
-27.350889 -221.7361 -5.9704351
-24.15176 -221.64444 -5.924901
-20.992548 -221.77161 -5.8805852
-20.581608 -221.69521 -5.8706789
-38.975143 -221.74078 -6.1681552
-37.841499 -221.75183 -6.1257882
