# .PCD v0.7 - Point Cloud Data file format
VERSION 0.7
FIELDS x y z
SIZE 4 4 4
TYPE F F F
COUNT 1 1 1
WIDTH 1529
HEIGHT 1
VIEWPOINT 0 0 0 1 0 0 0
POINTS 1529
DATA ascii
-21.832932 9.438364 -5.382175
-28.534065 9.4364014 -5.5060682
-25.308578 9.4182529 -5.4767771
-25.192049 9.5126076 -5.5498738
-22.873808 9.429678 -5.4474249
-28.883596 9.5113926 -5.7571001
-28.520569 9.4783974 -5.757237
-26.965214 9.4406385 -5.8702531
-28.217728 9.5071087 -6.1730332
-28.506168 9.5142956 -6.7806702
-28.675488 9.4203978 -6.8461761
-36.369316 9.4872894 -7.1044059
-29.533567 9.7355051 2.332092
-22.352734 9.6729832 2.2454469
-26.945904 9.733366 2.1882751
-24.857168 9.7052393 1.9543149
-24.536522 9.6730595 1.967376
-24.133116 9.7892742 1.930275
-26.554489 9.7542896 0.41689301
-25.827538 9.7591553 0.41124699
-24.639622 9.6501923 0.444787
-24.388195 9.6793404 0.40197501
-21.321198 9.6865883 0.45010799
-21.083879 9.7475224 0.45113301
-39.898014 9.7025642 0.342219
-39.751266 9.7045918 0.334117
-39.519772 9.6946087 0.30629599
-39.300312 9.7177439 0.32151699
-39.160728 9.6891518 0.30095801
-38.896023 9.7284193 0.29678801
-38.732971 9.7039661 0.316416
-38.598248 9.7874727 0.317009
-38.315346 9.7157412 0.281432
-38.12249 9.7432518 0.29807201
-37.712517 9.7652473 0.32276699
-37.492706 9.7928877 0.31281301
-37.264023 9.7128468 0.31760699
-37.060028 9.7090073 0.29444301
-36.946941 9.6987085 0.27272099
-36.697384 9.6261673 0.30079001
-36.466019 9.7769346 0.272392
-36.303295 9.7030001 0.283858
-36.093819 9.634346 0.22395401
-35.283871 9.6061077 0.200643
-35.086632 9.733511 0.212835
-34.900242 9.752553 0.219817
-34.531036 9.7504063 0.228642
-34.228348 9.6675129 0.22571599
-34.031406 9.7371092 0.24462
-33.831013 9.7478952 0.258284
-33.680382 9.7535505 0.27238399
-33.509338 9.6637592 0.25890699
-33.183746 9.6242161 0.27546799
-32.64695 9.6911097 0.26105499
-32.528461 9.7674007 0.295908
-31.433788 9.7909937 0.30726501
-31.075747 9.6837025 0.29758999
-30.895554 9.6891527 0.26886401
-29.977774 9.7599449 0.36155099
-29.461811 9.6838112 0.36620301
-29.395844 9.7706451 0.35292399
-28.741039 9.6420794 0.35616001
-28.472843 9.7005501 0.335006
-28.122677 9.7849874 0.38514099
-27.856861 9.6786804 0.36722699
-26.67355 9.6541138 0.36129999
-26.529076 9.7006588 0.375992
-26.089437 9.7425804 0.377314
-25.814674 9.6948261 0.37392399
-25.32305 9.7408257 0.350656
-24.947056 9.6523943 0.34863499
-24.536879 9.6918392 0.352231
-21.288147 9.719245 0.27610001
-35.4888 9.7462034 0.175589
-35.311745 9.6411381 0.199587
-33.271049 9.6754208 0.168907
-33.190361 9.6062298 0.19295099
-20.819334 9.7629509 -0.34131801
-24.836546 9.6454258 -0.474525
-29.380476 9.7068033 -0.70649302
-24.679888 9.717536 -1.134294
-24.476109 9.7436323 -1.178691
-24.057098 9.6315441 -1.701456
-22.709383 9.6505566 -1.679461
-20.576771 9.7175856 -2.748672
-29.090595 9.7468548 -2.9512341
-28.897596 9.7014313 -2.959548
-20.637312 9.7289305 -2.8825271
-20.414906 9.7993813 -2.872808
-20.117569 9.686676 -2.9520111
-35.650513 9.7995186 -3.029458
-28.899372 9.6875715 -3.0319619
-23.883358 9.7614117 -3.0567219
-34.48476 9.7458658 -3.3299689
-27.469898 9.738184 -3.2502961
-22.280746 9.7642879 -3.373071
-20.574726 9.6633701 -3.2936771
-20.211773 9.7117949 -3.39696
-25.125153 9.6618118 -3.479655
-25.365387 9.7912664 -3.616015
-25.127384 9.6908417 -3.654109
-24.19709 9.7117586 -3.766952
-21.415455 9.7643843 -3.7647159
-20.274704 9.7203999 -3.6434159
-34.595512 9.7934189 -3.8634319
-27.952888 9.7348671 -3.8234799
-23.472931 9.7076035 -3.9372871
-22.751095 9.7698956 -3.95421
-23.501348 9.7077303 -4.0739241
-22.874157 9.7502136 -4.1276431
-22.715542 9.6620235 -4.0646248
-21.687279 9.660367 -4.0717959
-25.070618 9.7935171 -4.5335021
-23.775412 9.7907343 -4.4795151
-29.876215 9.6709633 -4.7585349
-29.85018 9.6496487 -4.9099941
-29.540092 9.7969198 -4.840971
-22.63015 9.7847195 -4.9847741
-30.139654 9.618679 -5.1859932
-23.804653 9.7489758 -5.1384072
-23.008308 9.7637863 -5.0447211
-30.039532 9.6562452 -5.3253078
-29.800623 9.7737093 -5.3141012
-29.28854 9.7077141 -5.3487568
-23.495403 9.7304821 -5.3278828
-22.986437 9.7691212 -5.2192168
-22.104488 9.7376471 -5.2578239
-25.196461 9.621088 -5.4669929
-28.672138 9.7046556 -5.7928681
-28.1952 9.6579714 -6.1442742
-26.432117 9.746027 -6.1430168
-35.613331 9.7431793 -6.329061
-35.755981 9.7877131 -6.5354481
-34.049759 9.693634 -6.502059
-26.372765 9.7991819 -6.6158671
-20.067625 9.6939087 -6.902329
-31.06319 9.9496632 2.2697921
-30.101038 9.859808 2.303683
-23.52976 9.84373 1.314225
-38.898346 9.9119301 0.41162899
-29.424618 9.9569798 0.40487599
-29.113878 9.9440308 0.403597
-28.077267 9.9697104 0.41998801
-27.47928 9.9364004 0.41680801
-26.545692 9.8390656 0.437372
-26.295471 9.8921824 0.44028401
-24.880049 9.8805809 0.50157303
-24.612457 9.8538504 0.43076199
-24.359371 9.9120989 0.42060399
-23.059639 9.8217735 0.47797
-21.681038 9.9244156 0.55497998
-21.481834 9.9092035 0.442224
-39.875072 9.9297628 0.364582
-39.596504 9.8027668 0.32571301
-39.381615 9.8540449 0.34910899
-39.08252 9.8567896 0.322707
-38.842381 9.8276691 0.31722099
-38.60788 9.8654747 0.31585699
-38.56068 9.9199066 0.35548699
-38.244583 9.8877211 0.329321
-38.157875 9.875123 0.31642199
-37.637817 9.9399204 0.36624101
-37.14711 9.9337645 0.309513
-36.270432 9.8922119 0.308743
-36.123901 9.866209 0.28207099
-35.902798 9.9020853 0.26471499
-35.628101 9.9072018 0.228211
-35.465229 9.8781834 0.23479199
-35.297585 9.928875 0.23670299
-35.085381 9.8628731 0.240604
-34.748833 9.8732252 0.253723
-34.295139 9.8083467 0.23765901
-33.853733 9.8213854 0.242088
-33.694229 9.8741341 0.27930799
-32.242119 9.8806562 0.32579401
-32.131264 9.8934956 0.338388
-31.792097 9.8481445 0.31765601
-31.374371 9.8839846 0.28151399
-31.03145 9.8280287 0.30672699
-30.719173 9.8932943 0.31832501
-30.373425 9.8497257 0.327609
-29.905548 9.8139219 0.38622499
-28.639112 9.8014545 0.387007
-27.37923 9.8249416 0.39853501
-25.845905 9.8788815 0.38934299
-24.945393 9.8832092 0.31937301
-24.624413 9.9721355 0.38721499
-24.0968 9.9228201 0.322736
-23.963987 9.9021702 0.381336
-23.652527 9.9835777 0.351697
-23.568478 9.9466457 0.371631
-20.944431 9.9540281 0.20872
-20.623741 9.9542866 0.29880399
-20.873901 9.9730148 0.116827
-20.740934 9.9731102 0.17206199
-25.521652 9.9071875 -0.183495
-20.844788 9.9356308 -0.026811
-20.61969 9.9325066 -0.091564998
-20.914036 9.9867973 -0.22921
-20.771854 9.9021339 -0.24457701
-20.594624 9.8826494 -0.232659
-20.884941 9.8337278 -0.47030199
-20.758636 9.9329033 -0.485479
-20.452442 9.9046726 -0.483776
-29.113226 9.9213467 -0.61760497
-20.635365 9.9663258 -0.630458
-20.52177 9.9567051 -0.60415
-20.712925 9.9873934 -0.91676003
-20.497433 9.9483347 -0.84158701
-24.70607 9.9271832 -1.156812
-21.062416 9.8897638 -1.041049
-20.701649 9.946002 -1.063926
-24.746513 9.8961926 -1.376889
-24.549788 9.8969994 -1.2972749
-24.353832 9.8738556 -1.27668
-23.96413 9.9050198 -1.425061
-36.554958 9.9174719 -1.737875
-26.343876 9.8552532 -1.848982
-28.642315 9.9932709 -2.5087571
-28.535717 9.9911957 -2.515918
-20.063921 9.9563646 -2.5309451
-29.364101 9.8526545 -2.7053609
-28.607683 9.9822874 -2.638927
-21.209145 9.9250975 -2.7702551
-29.090694 9.840004 -2.973151
-27.221088 9.8254194 -2.827826
-21.276785 9.94804 -2.8837349
-20.910744 9.8487854 -2.978076
-35.561317 9.9399872 -3.0538249
-34.94622 9.8984699 -3.044656
-34.699764 9.9445343 -3.1763251
-29.115396 9.9170818 -3.051054
-28.873802 9.8263149 -3.177619
-28.566669 9.8071671 -3.0680261
-25.352839 9.9970369 -3.015099
-23.403149 9.8562431 -3.0745261
-22.164337 9.9127007 -3.1858511
-29.040653 9.9195518 -3.2325039
-28.894936 9.9090157 -3.25423
-28.736773 9.9372435 -3.209697
-26.303947 9.9883385 -3.3879449
-25.894775 9.9300652 -3.3289161
-23.472502 9.8861771 -3.3462911
-21.065672 9.8640623 -3.2494769
-35.281815 9.9119272 -3.5203221
-35.122623 9.8606644 -3.4610269
-28.608959 9.8511143 -3.4715149
-28.270031 9.8399649 -3.540277
-26.466473 9.8656425 -3.499105
-26.263418 9.9202375 -3.468111
-25.923351 9.8788891 -3.442507
-25.300781 9.8812799 -3.4665229
-24.054485 9.9993267 -3.5912011
-21.813461 9.896636 -3.475239
-21.305016 9.8812323 -3.4749579
-35.269218 9.8940439 -3.691679
-35.099113 9.9105921 -3.748487
-28.88546 9.9311409 -3.7435839
-28.74246 9.8342648 -3.7147441
-28.527439 9.8900023 -3.7637441
-28.252323 9.8663654 -3.6968391
-26.504074 9.9010706 -3.644093
-23.895802 9.8483982 -3.7057271
-22.083828 9.8878832 -3.6501651
-20.940464 9.8262196 -3.6138029
-28.142756 9.8678493 -3.80914
-26.045712 9.8997726 -3.83321
-25.887056 9.8396473 -3.8043449
-24.45821 9.9411221 -3.986325
-23.023788 9.9170084 -3.823513
-21.818794 9.8041878 -3.826432
-35.64896 9.8422871 -4.0570121
-35.429729 9.8009129 -4.1073222
-34.978928 9.8827181 -4.0409722
-34.334702 9.9550724 -4.1767049
-24.436413 9.9959936 -4.040617
-24.378363 9.9200001 -4.0586891
-23.770521 9.8142939 -4.18787
-28.852608 9.9446297 -4.2910161
-28.556738 9.9269867 -4.2230749
-27.873064 9.9153337 -4.2534838
-34.628578 9.9948473 -4.5721588
-23.481594 9.9366531 -4.5762391
-25.281137 9.8322668 -4.6928911
-23.075176 9.8513355 -4.7227359
-22.588425 9.8674402 -4.6431761
-34.290359 9.8532858 -4.9781799
-25.250443 9.9631767 -4.8691592
-34.580128 9.9704638 -5.0300078
-29.716244 9.8761997 -5.0762649
-23.321758 9.8080711 -5.0295062
-23.704044 9.8669453 -5.353302
-34.525684 9.9678917 -5.4274092
-29.012783 9.9627895 -5.4701042
-24.077314 9.8989429 -5.504921
-34.135406 9.8719931 -5.7052321
-29.299412 9.9197979 -5.8705301
-29.154402 9.9865437 -5.9608412
-25.697773 9.935051 -5.9426451
-27.785057 9.8686247 -6.1938748
-25.913034 9.892108 -6.1571598
-34.201889 9.9457397 -6.2808719
-25.497986 9.9791412 -6.225678
-28.673187 9.8217106 -6.574697
-33.960701 9.8800468 -6.6958818
-28.310673 9.8321857 -6.6262212
-25.470865 9.8847027 -6.6853728
-34.118752 9.8414402 -7.0535512
-29.075577 9.8427963 -7.3008242
-22.749187 9.9753361 -9.6937151
-28.529402 10.148729 1.942248
-35.284325 10.192526 0.91834801
-39.552097 10.157672 0.40643001
-39.347527 10.091059 0.416713
-38.705051 10.133735 0.43101799
-29.446346 10.089771 0.44301799
-29.308531 10.121946 0.444653
-29.080063 10.142771 0.44901901
-28.918228 10.183241 0.430931
-28.645643 10.170769 0.43550301
-28.505939 10.135396 0.42428699
-27.635412 10.165362 0.43728501
-27.534203 10.11549 0.444417
-26.635689 10.075274 0.44662699
-25.884541 10.094894 0.444581
-25.488161 10.189684 0.44982401
-25.097788 10.088101 0.52011597
-24.982929 10.145155 0.43275899
-24.783386 10.16283 0.44706401
-24.307495 10.077192 0.45842201
-22.817238 10.157916 0.54073697
-21.900393 10.162845 0.56190801
-20.855614 10.011734 0.49814901
-39.814236 10.04741 0.391067
-39.731983 10.010788 0.37384799
-39.504997 10.109907 0.380602
-39.240486 10.149818 0.36435601
-39.068611 10.167546 0.37318701
-38.909485 10.149396 0.375029
-38.689964 10.089835 0.355721
-38.289688 10.131138 0.366552
-38.125843 10.116877 0.37330899
-37.705452 10.067036 0.339955
-37.569538 10.086029 0.32745001
-37.303383 10.12604 0.34905499
-37.043434 10.096055 0.368442
-36.92627 10.153683 0.370002
-36.470604 10.152444 0.32799599
-36.322853 10.183784 0.36243999
-36.167286 10.014587 0.29606199
-35.769524 10.112756 0.28886101
-35.573017 10.070166 0.289085
-35.394371 10.168026 0.26857099
-35.057999 10.161417 0.28808701
-34.127914 10.110628 0.256396
-33.934105 10.087732 0.272102
-33.773842 10.043447 0.28884101
-32.900425 10.142161 0.304243
-32.513458 10.104628 0.342381
-31.81955 10.077054 0.357425
-31.558722 10.041065 0.384112
-31.047169 10.040228 0.37267801
-30.996233 10.076696 0.375655
-29.963041 10.110126 0.320979
-28.18659 10.070124 0.384285
-24.950752 10.080141 0.32474101
-24.262466 10.061742 0.28080001
-24.19327 10.045322 0.200969
-23.915672 10.03107 0.240246
-23.759644 10.031916 0.276344
-21.626068 10.053822 0.35433799
-20.915035 10.035295 0.28133699
-30.035322 10.07217 0.193929
-24.31385 10.075274 0.15051299
-23.919838 10.082635 0.113392
-23.720417 10.035034 0.118133
-21.260225 10.097254 0.105034
-21.036816 10.081171 0.070284002
-20.878025 10.007353 0.096561998
-20.780035 10.021137 0.091686003
-24.805387 10.01061 -0.000149
-24.577532 10.152808 -0.14836501
-20.866714 10.102626 -0.096560001
-20.903055 10.158848 -0.33307901
-29.075327 10.040853 -0.61040902
-20.921352 10.123334 -0.70047897
-20.722893 10.045317 -0.687334
-20.596329 10.007014 -0.79843998
-23.172409 10.156416 -0.86642998
-20.900042 10.102573 -0.98243898
-20.728989 10.016335 -0.93119198
-24.845125 10.112743 -1.1432
-24.694077 10.057748 -1.064862
-24.19352 10.148678 -1.199699
-20.796963 10.007204 -1.093452
-24.819429 10.086647 -1.221107
-24.6465 10.097878 -1.351054
-23.860989 10.115661 -1.349588
-24.449762 10.157112 -1.414696
-24.23951 10.119083 -1.497533
-20.149897 10.081857 -2.3750801
-28.815897 10.194944 -2.551585
-28.656801 10.160454 -2.5237501
-28.57114 10.032114 -2.574887
-25.060764 10.142277 -2.5607641
-24.939577 10.083045 -2.5490561
-20.299454 10.079832 -2.523927
-24.837675 10.105548 -2.6062281
-22.462669 10.140602 -2.7011199
-25.538719 10.162909 -2.8388231
-22.470741 10.184975 -2.971472
-22.289907 10.116389 -2.898463
-21.350771 10.076702 -2.9648881
-35.488811 10.198604 -3.0485129
-29.241898 10.091211 -3.0209501
-29.032623 10.101999 -3.081007
-26.422295 10.031212 -3.1389921
-26.234711 10.129485 -3.0613279
-25.342628 10.131704 -3.0916941
-22.86904 10.12628 -3.1407821
-22.399473 10.161409 -3.112052
-22.16699 10.187133 -3.120559
-21.052635 10.118347 -3.174006
-35.665516 10.157766 -3.295507
-29.023001 10.121406 -3.2962921
-28.914745 10.086904 -3.247896
-26.452126 10.070403 -3.294605
-26.246086 10.102654 -3.3563499
-25.369102 10.094392 -3.37994
-21.084099 10.093163 -3.267823
-28.53125 10.070076 -3.522306
-28.248419 10.062304 -3.5227051
-26.545609 10.037881 -3.5612791
-25.777229 10.100827 -3.4530859
-23.371105 10.161374 -3.4121621
-21.815928 10.199231 -3.4757991
-29.061934 10.078096 -3.71156
-28.651608 10.081799 -3.7686591
-25.775614 10.180636 -3.78438
-24.11969 10.117241 -3.786932
-22.553751 10.139454 -3.7925661
-22.25783 10.11558 -3.6680679
-20.467869 10.199379 -3.700624
-35.31208 10.121971 -3.9159269
-29.120655 10.186447 -3.9766531
-28.201141 10.176702 -3.9770889
-25.727283 10.112514 -3.9219971
-23.879139 10.172872 -3.8292551
-23.374119 10.084488 -3.807807
-35.545799 10.025423 -4.0040441
-34.885796 10.004951 -4.0524521
-34.504738 10.14257 -4.135366
-34.336346 10.121393 -4.0221028
-28.543957 10.122556 -4.1038771
-27.69895 10.199792 -4.1528468
-22.69511 10.161542 -4.2580428
-34.586777 10.19161 -4.53617
-28.935682 10.067682 -4.5436502
-28.139305 10.175728 -4.5022621
-25.016815 10.171611 -4.524725
-24.972313 10.073024 -4.4743829
-24.172258 10.093528 -4.5499868
-24.960516 10.168225 -4.6258202
-23.123886 10.124756 -4.667172
-22.450289 10.135372 -4.654624
-22.353069 10.03439 -4.7198262
-29.881052 10.073759 -4.9401231
-23.047653 10.054182 -4.8117862
-22.125652 10.172586 -4.9281631
-29.082161 10.073973 -5.154891
-25.187069 10.127574 -5.0826259
-29.729233 10.055957 -5.321651
-27.095373 10.182362 -5.5593519
-25.292427 10.169918 -5.5268588
-29.397242 10.1865 -5.7779951
-27.313068 10.107037 -5.771349
-26.734264 10.186939 -5.9762802
-35.326405 10.068356 -6.2853608
-35.126358 10.19286 -6.3435731
-34.168835 10.00877 -6.2540751
-25.514214 10.090355 -6.2486482
-35.744774 10.061599 -6.6775632
-35.109371 10.167715 -6.9513988
-20.236805 10.039062 -6.8063412
-35.071823 10.246874 1.3965369
-23.574944 10.299061 0.725779
-39.686989 10.324008 0.43621701
-39.449093 10.2453 0.43281099
-39.336422 10.340406 0.41417
-39.068306 10.328094 0.419642
-38.649841 10.299644 0.4316
-38.572098 10.37429 0.41850099
-38.369545 10.398993 0.46320501
-37.813431 10.332044 0.40828899
-37.132294 10.367817 0.410606
-36.749199 10.382145 0.419893
-31.842381 10.309677 0.409536
-31.683064 10.216266 0.41183099
-31.445343 10.221094 0.41464001
-30.879951 10.278013 0.42854199
-30.160233 10.238956 0.437958
-29.687504 10.284722 0.44479001
-29.479527 10.303493 0.44837201
-28.214802 10.310421 0.43893
-28.097687 10.296369 0.426368
-27.700071 10.256744 0.43990999
-27.469349 10.242007 0.450643
-26.590454 10.209661 0.47088799
-26.202986 10.304383 0.494311
-25.826788 10.330145 0.432401
-25.29364 10.25358 0.44091401
-24.901375 10.226957 0.453931
-24.640213 10.205149 0.41860801
-22.085754 10.23863 0.56192797
-21.862797 10.295824 0.41784301
-39.110161 10.228682 0.38192901
-38.984436 10.214696 0.38902801
-38.719543 10.350325 0.381338
-37.123959 10.267653 0.36787501
-36.640785 10.296394 0.36884299
-36.511795 10.31724 0.388217
-36.349449 10.297014 0.320847
-36.106312 10.223678 0.33591601
-35.83358 10.220596 0.32604599
-35.761395 10.291508 0.310568
-35.490723 10.324125 0.274737
-35.337807 10.267653 0.24926899
-35.05439 10.367931 0.34156001
-34.662254 10.299466 0.257321
-34.526779 10.325251 0.221016
-34.221127 10.23757 0.264974
-34.097126 10.292658 0.27718401
-33.677322 10.214848 0.32570401
-33.466652 10.26794 0.285054
-32.653847 10.263313 0.36773399
-32.252281 10.226874 0.371573
-32.133911 10.338434 0.38507101
-24.785112 10.340173 0.38578001
-24.509262 10.250183 0.231087
-21.868526 10.324518 0.355665
-21.755222 10.228489 0.38690299
-22.847519 10.285273 -0.365502
-22.776308 10.299569 -0.363132
-23.006735 10.343773 -0.53590202
-22.752237 10.279577 -0.43692201
-23.268204 10.339304 -0.73550898
-35.681747 10.248908 -0.83207297
-23.23093 10.25843 -0.92213702
-23.115273 10.290898 -0.87296897
-22.778778 10.388171 -0.81755298
-28.924679 10.304119 -1.467438
-24.418386 10.2302 -1.550964
-24.258204 10.234768 -1.507542
-28.873955 10.3178 -1.741315
-28.741062 10.280205 -1.667937
-28.587397 10.389824 -1.640306
-24.488701 10.328086 -1.709028
-24.392937 10.387987 -1.744511
-28.767506 10.359379 -1.879334
-23.903677 10.350609 -1.916712
-28.868715 10.307913 -2.0938139
-28.296391 10.389787 -2.093477
-25.043158 10.364663 -2.156055
-24.946728 10.291583 -2.162401
-24.171658 10.386215 -2.141057
-23.855873 10.302973 -2.1764481
-29.403728 10.221179 -2.296737
-28.631355 10.238262 -2.265311
-24.112871 10.289183 -2.2087629
-29.00127 10.233977 -2.5665059
-28.879444 10.228596 -2.567656
-28.771912 10.316481 -2.53775
-25.074917 10.32913 -2.534466
-20.366627 10.246397 -2.5541601
-28.278193 10.219172 -2.694942
-25.501961 10.252136 -2.7801061
-25.177933 10.38964 -2.613729
-24.904057 10.263381 -2.6324589
-34.539536 10.310181 -2.9586389
-28.274002 10.317929 -2.907068
-25.755543 10.259208 -2.876883
-25.303669 10.282387 -2.8855331
-25.164339 10.210199 -2.9290819
-24.898655 10.326001 -2.909049
-24.667965 10.341382 -2.97261
-35.712479 10.254385 -3.1108899
-25.490845 10.255499 -3.119554
-25.319973 10.263529 -3.08535
-23.551226 10.326605 -3.154619
-21.913349 10.226727 -3.069304
-35.369923 10.202299 -3.266032
-35.065842 10.267644 -3.2936831
-34.636929 10.354692 -3.366096
-29.281471 10.228932 -3.2399859
-29.07737 10.220959 -3.260195
-28.844372 10.296982 -3.3748219
-24.728508 10.353838 -3.3962409
-21.444708 10.228889 -3.250855
-24.864368 10.367615 -3.4990139
-22.951332 10.223973 -3.428688
-22.64381 10.232131 -3.4281969
-22.234337 10.240145 -3.421638
-35.100616 10.284153 -3.775959
-34.859142 10.358602 -3.7462649
-34.668411 10.280341 -3.690871
-24.745733 10.312107 -3.7367721
-29.27961 10.278967 -3.8745201
-28.579308 10.254471 -3.8461299
-27.812191 10.315461 -3.809957
-25.535198 10.220333 -3.870805
-25.076397 10.307998 -3.9217911
-24.912598 10.317113 -3.889282
-36.928326 10.265174 -4.1681871
-36.787342 10.332232 -4.0874391
-29.349483 10.361931 -4.1111288
-28.914406 10.220911 -4.1337409
-25.803814 10.248262 -4.1136618
-25.213982 10.218531 -4.110281
-24.848255 10.271809 -4.0880308
-24.196007 10.278639 -4.166862
-23.654776 10.278746 -4.078526
-23.528952 10.223067 -4.0445361
-28.279703 10.235704 -4.2016449
-25.060852 10.28444 -4.2490029
-24.578074 10.324979 -4.3272271
-29.395323 10.255402 -4.5646968
-28.568125 10.279882 -4.5813589
-24.49618 10.295986 -4.4567642
-34.034729 10.337452 -4.674253
-28.027031 10.39369 -4.6345549
-27.954939 10.297739 -4.6639719
-27.371658 10.348963 -4.7662191
-26.679993 10.382491 -4.7806401
-25.361172 10.209901 -4.7008929
-23.869843 10.234849 -4.6673908
-23.362434 10.241705 -4.6742249
-28.686562 10.367086 -4.8970208
-26.68409 10.378656 -4.8353338
-25.285101 10.223871 -4.977922
-23.81381 10.208479 -4.9016752
-23.328918 10.213955 -4.894968
-34.866154 10.319712 -5.1200261
-34.573925 10.266272 -5.123847
-29.734276 10.201675 -5.0548439
-29.432117 10.240929 -5.0200758
-34.896206 10.317068 -5.3554029
-34.594822 10.216878 -5.3309169
-29.361897 10.252296 -5.353693
-25.731091 10.206573 -6.9777422
-33.250866 10.350511 -8.0292244
-32.179348 10.274258 -8.2762728
-26.705517 10.273667 -8.8847332
-24.116558 10.423692 1.965448
-39.929474 10.570566 0.45516101
-39.548828 10.442627 0.456727
-39.337387 10.407577 0.43926999
-39.056633 10.478653 0.44265699
-38.918732 10.481476 0.45822001
-38.600475 10.47855 0.415676
-38.529846 10.54138 0.42303801
-38.270073 10.544911 0.43956
-38.122849 10.468803 0.40514299
-37.469551 10.477954 0.42230299
-37.324524 10.514462 0.42243999
-36.887245 10.568751 0.44119301
-36.455761 10.598283 0.42973101
-32.143837 10.584926 0.44924
-31.933563 10.433268 0.43501699
-31.244398 10.509066 0.44611099
-30.899845 10.513018 0.47073799
-30.350925 10.586917 0.44327101
-29.623724 10.451919 0.44648901
-29.425282 10.428267 0.48147699
-27.852396 10.55798 0.46846899
-27.434406 10.516743 0.49182799
-27.343851 10.553761 0.50573999
-26.686085 10.524635 0.489546
-26.244884 10.588759 0.53719801
-25.841686 10.592427 0.52982497
-25.224878 10.58857 0.489678
-25.092407 10.574876 0.50538999
-22.214287 10.56805 0.53718001
-21.996964 10.433317 0.40108299
-37.519531 10.492802 0.39205199
-37.3218 10.520859 0.397167
-36.579144 10.482442 0.36081299
-36.283493 10.442744 0.37819099
-35.787285 10.585604 0.33617899
-35.394279 10.54138 0.28722799
-35.038551 10.535938 0.27564701
-34.87899 10.583893 0.22168
-34.69268 10.552876 0.22023501
-34.488163 10.536509 0.212272
-34.253815 10.45101 0.24901199
-33.125813 10.414056 0.350366
-24.821194 10.422581 0.393094
-24.732525 10.488239 0.297306
-22.095991 10.585675 0.368422
-34.763062 10.573221 0.187501
-23.776621 10.595788 0.137064
-23.461399 10.51447 0.116629
-24.195221 10.584225 -0.31249201
-24.371237 10.582054 -0.56968898
-24.285994 10.590766 -0.64101303
-23.918018 10.579206 -0.78881299
-23.389111 10.433569 -0.75031102
-22.98772 10.47831 -0.60505003
-24.427217 10.557893 -0.97001302
-24.156946 10.576441 -0.81220597
-23.842857 10.479768 -0.96593499
-23.227039 10.480342 -0.85892701
-23.082199 10.513132 -0.973921
-24.506231 10.575184 -1.0756429
-23.335117 10.511672 -1.030967
-24.747787 10.52426 -1.3780971
-24.144999 10.581378 -1.390206
-28.900915 10.464583 -1.481433
-28.742874 10.49691 -1.560427
-24.835907 10.542544 -1.439446
-24.686237 10.484663 -1.542275
-24.258085 10.500575 -1.551465
-23.559162 10.555955 -1.495921
-28.726566 10.503703 -1.769924
-28.317974 10.511541 -1.7458971
-24.85755 10.513159 -1.715103
-24.621525 10.462933 -1.633836
-24.599449 10.517946 -1.79304
-28.500969 10.525261 -1.843865
-28.291615 10.539808 -1.903443
-25.081095 10.542278 -1.970211
-24.897896 10.485096 -1.882691
-24.615952 10.494971 -1.859049
-24.575626 10.526754 -1.9115649
-24.161804 10.523745 -1.9267
-23.918541 10.52339 -1.846229
-28.747128 10.462996 -2.078373
-28.478649 10.521497 -2.1284909
-26.888302 10.413193 -2.005718
-25.240976 10.581417 -2.1842959
-25.07906 10.525649 -2.164269
-24.948479 10.498335 -2.0941911
-23.969187 10.513287 -2.1682041
-35.294582 10.473102 -2.3988979
-35.084381 10.579583 -2.3036699
-28.304132 10.562494 -2.255923
-25.28075 10.558064 -2.272398
-25.118179 10.525687 -2.2344191
-24.9072 10.487831 -2.2120061
-24.14249 10.520517 -2.2190709
-35.348213 10.485089 -2.4305029
-28.710796 10.527605 -2.557483
-25.283295 10.508915 -2.560806
-25.118626 10.470083 -2.5819781
-20.108749 10.516833 -2.490525
-28.777445 10.47787 -2.6092529
-28.355837 10.472229 -2.7419479
-25.240963 10.428411 -2.620997
-24.987143 10.542332 -2.6226599
-22.470079 10.538904 -2.7419989
-29.109964 10.503622 -2.949641
-28.952126 10.568119 -2.990134
-28.572712 10.499874 -2.810663
-28.296715 10.404908 -2.8083091
-25.473335 10.553095 -2.944303
-22.505196 10.469134 -2.8965509
-22.27421 10.497768 -2.89504
-21.877312 10.524388 -2.8836229
-35.345844 10.585481 -3.083401
-35.107475 10.512169 -3.1301191
-34.713974 10.566484 -3.1212561
-29.293188 10.594835 -3.1610019
-29.039661 10.573366 -3.045366
-23.587139 10.427164 -3.0911369
-35.30056 10.551767 -3.248693
-29.117006 10.478811 -3.2967701
-28.914581 10.412887 -3.2421
-22.44418 10.4076 -3.2956369
-22.19017 10.474483 -3.25424
-29.127811 10.568914 -3.493572
-28.944441 10.479401 -3.546911
-25.667425 10.527538 -3.4228239
-36.220573 10.5966 -3.7870331
-34.905678 10.55934 -3.6375771
-28.940626 10.56003 -3.775435
-27.717182 10.465738 -3.7423561
-25.506205 10.52637 -3.696053
-25.164253 10.554605 -3.7834051
-24.600437 10.571677 -3.797004
-36.886948 10.410727 -3.9908431
-36.633137 10.570427 -3.9672191
-29.294088 10.455706 -3.935066
-26.177248 10.554265 -3.9079051
-25.773979 10.5171 -3.863822
-22.911982 10.416614 -3.919965
-36.825291 10.564684 -4.0333891
-36.590672 10.596213 -4.0460191
-29.278627 10.551013 -4.1176581
-29.089472 10.561981 -4.1991539
-28.658434 10.588272 -4.1815958
-26.163212 10.589512 -4.1555438
-24.237543 10.404819 -4.1606441
-23.680265 10.486525 -4.1225562
-23.430031 10.58613 -4.1882472
-28.796963 10.418098 -4.3925872
-26.476559 10.50976 -4.2780252
-24.878361 10.537976 -4.2154241
-24.610939 10.51276 -4.33533
-35.549194 10.535491 -4.598341
-34.255932 10.548849 -4.511682
-28.838768 10.438902 -4.5559521
-28.698875 10.532496 -4.5823221
-26.206253 10.508171 -4.54177
-23.857784 10.517094 -4.5386639
-27.368908 10.422977 -4.7393961
-26.509632 10.52795 -4.6308088
-24.252787 10.520573 -4.7116971
-22.527163 10.496477 -4.7484851
-22.17724 10.58675 -4.74265
-34.570156 10.54339 -4.9388299
-34.3265 10.437244 -4.824069
-28.855968 10.455228 -4.956357
-27.793894 10.514304 -4.8529792
-22.573282 10.408545 -4.9003348
-22.13138 10.476655 -4.813364
-34.882153 10.572598 -5.0672231
-29.786579 10.556395 -5.0674539
-29.484741 10.548262 -5.1802602
-29.45434 10.470908 -5.2497082
-25.675842 10.479492 -5.676455
-29.403191 10.54884 -5.8765359
-24.112244 10.476843 -6.932364
-27.540863 10.498602 -7.483315
-32.44725 10.436486 -7.9736638
-33.184345 10.490688 -8.148962
-23.308039 10.740117 2.2669289
-39.83065 10.742439 0.51378101
-39.480885 10.602323 0.47335899
-38.153072 10.664273 0.439412
-37.951195 10.720033 0.445602
-37.520752 10.740064 0.42780301
-36.932869 10.728985 0.46849599
-36.611553 10.640358 0.43719101
-36.271847 10.658676 0.422535
-35.889278 10.733559 0.40644601
-33.4282 10.734629 0.41711801
-32.515976 10.625669 0.422622
-32.342136 10.665495 0.446888
-31.685823 10.757957 0.47441801
-30.504816 10.626074 0.46445999
-30.284723 10.6099 0.47605801
-29.458271 10.693672 0.51265103
-29.000776 10.61047 0.49623701
-28.880199 10.627116 0.49797201
-28.650656 10.652702 0.50108498
-28.428696 10.64144 0.46626699
-28.246178 10.721123 0.49501899
-28.16077 10.627681 0.49369201
-27.611341 10.706395 0.48601401
-27.440151 10.654449 0.499488
-26.18866 10.653685 0.53235602
-25.81908 10.775024 0.55688202
-25.056339 10.651615 0.53072
-24.944427 10.661907 0.48189199
-24.759113 10.621854 0.47886899
-22.526661 10.632059 0.55198097
-37.990021 10.601919 0.39473599
-36.24749 10.632591 0.35194901
-35.856087 10.61057 0.32626799
-35.713272 10.691298 0.357292
-35.372421 10.651856 0.324112
-35.122944 10.666788 0.241924
-34.901917 10.629185 0.25485301
-34.749317 10.677718 0.28470099
-34.264076 10.702431 0.25284699
-34.066742 10.611969 0.31306899
-33.227066 10.621655 0.394333
-24.879103 10.689789 0.371097
-34.863956 10.750161 0.183382
-34.709679 10.75009 0.108685
-34.516312 10.695068 0.086508997
-34.373848 10.723079 0.045542002
-24.274368 10.772148 0.06219
-24.170235 10.633532 0.072342999
-23.526194 10.647195 0.148248
-34.648865 10.751429 -0.100828
-34.484879 10.727846 -0.122157
-34.386456 10.740931 -0.029045001
-29.108646 10.604111 -0.191258
-24.255932 10.652888 -0.13978
-24.127203 10.622946 -0.071258001
-23.997204 10.619143 -0.097061001
-34.612724 10.736556 -0.30990899
-34.505409 10.715179 -0.316477
-34.336796 10.723225 -0.310747
-23.860479 10.755284 -0.261922
-34.644161 10.765438 -0.53219098
-34.552559 10.73584 -0.496461
-34.307129 10.757058 -0.54385799
-25.156506 10.780015 -0.57493597
-24.308304 10.665123 -0.51618701
-23.931723 10.737602 -0.597426
-34.736126 10.782385 -0.73156202
-34.521317 10.755662 -0.73004001
-24.465265 10.624092 -0.61255002
-24.228731 10.674128 -0.69786
-23.966087 10.662325 -0.687374
-23.082777 10.603509 -0.60528803
-34.633301 10.785179 -0.90387201
-34.521545 10.793154 -0.92480803
-34.39967 10.799204 -0.82828498
-24.291496 10.708863 -0.90523398
-23.949766 10.618832 -0.93714499
-34.872475 10.790073 -1.182983
-34.686764 10.768208 -1.110546
-24.614479 10.610179 -1.068352
-24.501915 10.638672 -1.051031
-34.867859 10.764271 -1.3650219
-34.659531 10.735663 -1.2946
-25.970293 10.74412 -1.214094
-34.829674 10.748281 -1.427012
-34.675606 10.728009 -1.476473
-34.598331 10.793889 -1.5586489
-23.853962 10.610563 -1.434491
-23.556219 10.631453 -1.7031929
-35.714653 10.611799 -1.876533
-34.70858 10.784297 -1.986765
-34.573536 10.782625 -1.940999
-28.851933 10.645851 -1.899994
-28.782961 10.658117 -1.981787
-28.444859 10.735184 -1.928593
-34.651566 10.753887 -2.065578
-28.910847 10.695812 -2.147831
-28.08753 10.639986 -2.0076771
-25.245598 10.633892 -2.1331301
-24.746439 10.664306 -2.1332369
-35.029594 10.685673 -2.254705
-34.659729 10.726476 -2.321686
-34.588432 10.683357 -2.3227611
-29.026485 10.76412 -2.372252
-28.907433 10.741923 -2.3343921
-28.742268 10.675892 -2.2504721
-28.371618 10.621529 -2.2589359
-25.657642 10.645283 -2.3737011
-35.119881 10.660818 -2.514992
-34.639404 10.701431 -2.440259
-34.514305 10.736268 -2.5262871
-28.866249 10.621548 -2.5596609
-28.616676 10.611619 -2.54247
-24.853943 10.745814 -2.5911491
-24.095476 10.634829 -2.5672841
-23.917074 10.623386 -2.5372801
-35.31073 10.634901 -2.7072821
-34.653526 10.67835 -2.6396699
-34.59177 10.659619 -2.727644
-22.221157 10.622656 -2.7334831
-35.3307 10.642227 -2.9153991
-34.560833 10.68133 -2.879704
-34.352989 10.72467 -2.9072061
-24.778755 10.603292 -2.9785659
-24.046604 10.607754 -2.894979
-23.89975 10.615471 -2.8763649
-22.474085 10.609506 -2.901577
-34.661865 10.642772 -3.12656
-29.286125 10.618113 -3.060662
-25.135708 10.631609 -3.017828
-24.984711 10.707804 -3.0186341
-34.145214 10.794938 -3.3751941
-29.289227 10.700737 -3.2930889
-29.001314 10.606935 -3.290693
-28.990921 10.609919 -3.317631
-27.08202 10.670092 -3.343883
-25.395634 10.667813 -3.3702331
-36.076851 10.680061 -3.5101321
-35.825432 10.607488 -3.5172729
-35.281769 10.722054 -3.439919
-35.048725 10.603682 -3.400723
-34.60815 10.672491 -3.430187
-34.296356 10.769051 -3.4362791
-34.161922 10.740313 -3.57479
-29.496586 10.789288 -3.490396
-29.388723 10.649042 -3.4466169
-28.735142 10.699286 -3.537415
-35.918259 10.713749 -3.6535511
-34.841568 10.705719 -3.7531731
-34.603333 10.74477 -3.7869179
-34.508938 10.642347 -3.6107349
-34.293972 10.713887 -3.7028739
-29.278625 10.657043 -3.6804559
-28.995111 10.67166 -3.618252
-28.638016 10.728317 -3.7498281
-26.100384 10.760211 -3.7940531
-28.393768 10.724026 -3.892606
-26.424124 10.716633 -3.929595
-26.259027 10.657398 -3.9503629
-26.158661 10.656088 -3.8630919
-25.811066 10.603819 -3.8824561
-23.676422 10.64844 -3.8316619
-34.815048 10.794024 -4.1432972
-34.29068 10.64344 -4.1249852
-29.081692 10.671227 -4.0317159
-34.625969 10.751348 -4.2619972
-28.216915 10.612509 -4.2282562
-27.692291 10.786203 -4.2559838
-27.483755 10.641149 -4.2954478
-34.441158 10.609301 -4.5699201
-24.682739 10.61664 -4.5650082
-23.204517 10.772907 -4.5100961
-33.927219 10.649687 -4.7150631
-28.157776 10.621607 -4.6466889
-27.883938 10.711575 -4.7758951
-25.040649 10.645093 -4.7157998
-24.893595 10.707664 -4.6871781
-28.138601 10.683351 -4.9158878
-24.919172 10.620115 -4.8867869
-33.37426 10.646551 -5.0017428
-28.654425 10.657066 -5.0032258
-24.696444 10.676517 -5.0365281
-33.102562 10.67009 -5.3509159
-23.925596 10.784077 -5.5034008
-28.433966 10.784512 -5.6744838
-26.12859 10.712867 -5.642312
-29.651669 10.750906 -5.9451022
-25.134903 10.730165 -5.9958968
-25.858885 10.71351 -6.0568199
-25.552982 10.670326 -6.4533949
-20.291317 10.737081 -6.7472482
-33.368954 10.781309 -8.3077326
-27.771923 10.654684 -8.5711021
-33.754917 10.820848 2.2770269
-31.362158 10.97869 2.3394589
-39.891113 10.89406 0.50786
-39.668991 10.884552 0.48325899
-38.911808 10.942522 0.48788601
-38.743614 10.955911 0.476605
-38.015415 10.947924 0.489779
-37.875309 10.862312 0.48159301
-37.526695 10.843554 0.438326
-37.083271 10.88004 0.484056
-36.669899 10.912549 0.470496
-36.364479 10.91105 0.42896801
-35.945736 10.969656 0.407846
-35.796852 10.964011 0.42135301
-33.770481 10.904666 0.416664
-33.478893 10.947165 0.41527501
-33.345638 10.965683 0.43565899
-33.023388 10.973292 0.42658699
-32.647202 10.946537 0.48005
-32.492996 10.904182 0.49377701
-32.3386 10.987765 0.511437
-31.188446 10.942033 0.520648
-30.612284 10.935456 0.51281202
-29.690384 10.927102 0.518556
-29.501747 10.97071 0.540833
-29.345139 10.806818 0.542045
-29.017548 10.940887 0.54360801
-27.723337 10.873798 0.50807101
-26.72506 10.940587 0.45207199
-26.242495 10.970373 0.55665898
-26.030138 10.81945 0.50563401
-25.864731 10.990118 0.561306
-25.526676 10.871651 0.57897699
-25.02467 10.978693 0.53333902
-24.867485 10.942642 0.468918
-24.75794 10.885725 0.467338
-22.498531 10.872492 0.50425202
-36.063984 10.946323 0.38951001
-35.857376 10.936393 0.38112599
-35.71912 10.892712 0.35301599
-35.479416 10.929594 0.371048
-35.383682 10.917368 0.36356401
-35.085934 10.953554 0.32318401
-34.953068 10.836347 0.31022999
-33.316547 10.978364 0.35749701
-33.145897 10.832579 0.37750301
-27.017597 10.824599 0.33957899
-26.952162 10.826687 0.33097601
-26.725021 10.894781 0.232565
-24.83452 10.963121 0.241844
-24.768341 10.930664 0.33819899
-24.481783 10.902052 0.30479801
-34.754913 10.894791 0.045007002
-34.563866 10.876415 0.09217
-34.308746 10.848748 0.097533002
-24.812618 10.886744 0.17640901
-24.746368 10.886489 0.155176
-24.222748 10.899869 0.086217001
-24.174498 10.93292 0.100137
-23.476221 10.813169 0.130449
-34.809769 10.922959 -0.102571
-34.653877 10.928999 -0.066941001
-34.424961 10.812812 -0.111597
-34.200104 10.909262 -0.055394001
-24.435001 10.934335 -0.157428
-24.244991 10.889966 -0.135796
-24.158312 10.957576 -0.058428999
-34.839264 10.955454 -0.26451099
-34.664627 10.926092 -0.297712
-34.316158 10.956519 -0.28295001
-24.250687 10.878206 -0.27338901
-23.899651 10.963255 -0.260167
-34.806969 10.872989 -0.44828799
-34.705078 10.922096 -0.47051799
-34.49276 10.820022 -0.52775103
-25.13652 10.828848 -0.48631099
-24.246141 10.864872 -0.52156597
-34.826141 10.983176 -0.62554002
-34.705017 10.904583 -0.72723198
-34.440804 10.851693 -0.74109203
-34.303818 10.840564 -0.66889
-24.41888 10.889334 -0.73167598
-24.297544 10.916267 -0.71624398
-23.946054 10.818104 -0.692065
-34.8311 10.894526 -0.88775498
-34.672161 10.850188 -0.896097
-34.283691 10.904037 -0.89165401
-24.427952 10.851995 -0.97122002
-24.277107 10.911835 -0.97642601
-22.924238 10.854436 -0.830006
-34.854416 10.939887 -1.094108
-34.709801 10.903313 -1.123746
-34.496536 10.898954 -1.1009721
-34.331314 10.838434 -1.099014
-23.892662 10.998191 -1.151445
-34.951378 10.818502 -1.342454
-34.699318 10.834917 -1.368571
-34.523209 10.85343 -1.309112
-34.378895 10.867424 -1.3577369
-24.393576 10.82125 -1.281562
-34.868843 10.892527 -1.559716
-34.735367 10.846134 -1.537066
-34.440769 10.925173 -1.5500081
-34.324577 10.865902 -1.5119669
-23.839493 10.999123 -1.444858
-35.051907 10.952161 -1.719837
-34.904903 10.948616 -1.774683
-34.718353 10.858102 -1.731492
-34.568085 10.956133 -1.766982
-34.315659 10.955357 -1.6986099
-35.094948 10.982825 -1.83679
-34.889694 10.953507 -1.919278
-34.69286 10.861801 -1.88728
-34.421452 10.990273 -1.954676
-34.243641 10.986545 -1.9445831
-28.570738 10.847783 -1.831185
-24.10984 10.948582 -1.829157
-34.818138 10.99518 -2.191416
-34.690575 10.884029 -2.1357429
-34.261719 10.990117 -2.1509819
-29.013088 10.929916 -2.130523
-28.829758 10.875589 -2.170382
-23.959526 10.973562 -2.18543
-35.026749 10.975233 -2.36884
-34.935806 10.93984 -2.2645941
-34.672722 10.887214 -2.3443639
-34.548306 10.986396 -2.2424719
-33.993088 10.915137 -2.342937
-29.213314 10.989199 -2.3005061
-28.639927 10.899946 -2.302392
-24.084869 10.968712 -2.2245719
-34.808689 10.971673 -2.497344
-34.722965 10.957542 -2.4953439
-35.262009 10.866898 -2.7394431
-35.101341 10.947201 -2.6873009
-34.883194 10.91186 -2.708915
-34.790264 10.897141 -2.717886
-34.494247 10.887278 -2.6513331
-25.494431 10.996632 -2.683959
-35.238037 10.841602 -2.9873691
-34.604317 10.862954 -2.907058
-34.523483 10.934307 -2.9080081
-34.212826 10.951278 -2.947089
-29.260191 10.883081 -2.8480661
-29.051594 10.921566 -2.8687251
-28.743088 10.92347 -2.864749
-25.017754 10.811946 -2.873492
-34.147366 10.974873 -3.1921229
-25.695232 10.952076 -3.1502061
-25.569813 10.888162 -3.12889
-24.833363 10.860888 -3.052444
-24.760715 10.917137 -3.1082201
-24.057087 10.898168 -3.0993159
-35.30658 10.87513 -3.3546979
-34.511223 10.885458 -3.356149
-34.297264 10.92733 -3.333497
-27.942152 10.975749 -3.2418959
-26.650009 10.939796 -3.3827021
-26.070299 10.829052 -3.315918
-24.916252 10.936666 -3.2647641
-23.852589 10.886809 -3.3280981
-36.170231 10.8979 -3.468884
-35.122734 10.979855 -3.477721
-29.613678 10.882214 -3.5616391
-29.558657 10.943485 -3.524152
-29.147778 10.865039 -3.4793811
-26.956198 10.995471 -3.404264
-26.10952 10.992102 -3.4982591
-25.721193 10.943914 -3.419956
-24.020247 10.893485 -3.4984181
-23.18475 10.926253 -3.42659
-36.083942 10.872185 -3.7181189
-34.619572 10.892523 -3.76317
-34.38158 10.854565 -3.7536371
-29.453102 10.905561 -3.645895
-29.013285 10.936173 -3.74086
-25.532997 10.990606 -3.795496
-24.05994 10.974829 -3.731318
-22.661865 10.997011 -3.646862
-35.972565 10.89111 -3.8164401
-35.138664 10.991023 -3.9675419
-29.314293 10.944654 -3.8791859
-29.065926 10.966344 -3.929729
-28.820332 10.892249 -3.962661
-26.197693 10.979613 -3.913532
-25.933483 10.994551 -3.931443
-23.88475 10.962524 -3.860275
-23.36762 10.938861 -3.846349
-28.915401 10.947806 -4.0450511
-26.232639 10.851791 -4.0721879
-23.847952 10.961534 -4.194941
-36.884575 10.813037 -4.3259988
-36.764297 10.8201 -4.2463522
-36.04435 10.939493 -4.2409091
-35.906151 10.895881 -4.203517
-27.968021 10.861981 -4.3815022
-23.335255 10.961033 -4.2526078
-36.900627 10.813547 -4.418499
-28.496723 10.874542 -4.5997319
-28.223679 10.869303 -4.5709829
-23.87656 10.862127 -4.5454412
-23.353401 10.975029 -4.5388141
-28.831738 10.838232 -4.6244421
-24.16293 10.874684 -4.6105332
-22.12252 10.863778 -4.6485219
-34.625317 10.908706 -4.9400702
-28.492508 10.882753 -4.86092
-27.630056 10.955215 -4.808867
-34.938026 10.946613 -5.0783901
-33.835869 10.816814 -5.0470762
-28.271484 10.965322 -5.0255909
-24.438667 10.884387 -5.0919399
-24.251932 10.95845 -5.0570879
-34.73867 10.90412 -5.3231411
-33.753342 10.804056 -5.21737
-34.324032 10.849539 -5.4358969
-23.906918 10.928108 -5.4221759
-29.681206 10.99492 -5.7659359
-29.433968 10.988297 -5.7477841
-22.99468 10.994965 -5.627337
-29.630209 10.984982 -5.8243828
-29.35713 10.952574 -5.8217478
-28.867426 10.804585 -5.851377
-28.565546 10.982566 -5.8457718
-34.326065 10.873227 -6.3899002
-28.538084 10.822395 -6.9950471
-39.862637 11.16578 0.53332198
-39.430252 11.05485 0.51511401
-38.714687 11.03011 0.47998101
-38.300888 11.06517 0.4991
-38.120068 11.098175 0.52800298
-37.891621 11.033495 0.49476099
-37.667408 11.121596 0.50182903
-37.496643 11.04898 0.50199699
-37.320644 11.068588 0.51208103
-37.07917 11.001236 0.49480799
-36.928078 11.042366 0.51305097
-36.75391 11.071997 0.46202201
-36.530174 11.003048 0.478338
-36.273323 11.083278 0.46865401
-36.060898 11.013671 0.43853801
-35.645046 11.197742 0.43702301
-33.722218 11.016426 0.45183
-33.021629 11.061185 0.43638301
-31.451607 11.079914 0.52089
-30.9653 11.005221 0.53434402
-30.408075 11.14334 0.48964301
-30.266888 11.084237 0.50931299
-29.871983 11.059628 0.516877
-29.105202 11.002337 0.529194
-28.556435 11.069641 0.57412899
-28.163483 11.107515 0.54728597
-27.674805 11.083412 0.55584198
-27.492981 11.009277 0.52768803
-27.112526 11.008579 0.53555602
-25.997761 11.185246 0.56622601
-24.943531 11.125387 0.57043397
-24.698824 11.117416 0.51248902
-35.573917 11.110999 0.374856
-35.341042 11.059416 0.396025
-34.714718 11.0631 0.28247201
-24.687439 11.082382 0.27106899
-24.10845 11.063614 0.306214
-34.828865 11.14621 0.061012
-34.683823 11.047852 0.098089002
-24.814297 11.016723 0.14140899
-34.827446 11.115661 -0.051405001
-34.675133 11.16593 -0.141688
-34.849159 11.069636 -0.28114501
-34.705956 11.12718 -0.28718701
-34.874527 11.062212 -0.47132501
-34.71981 11.070591 -0.51999998
-32.617332 11.193397 -0.55494398
-34.853439 11.046818 -0.66714901
-34.688683 11.040283 -0.68477702
-34.375462 11.063781 -0.70650399
-34.693642 11.060266 -0.90458
-24.207153 11.049999 -0.94315702
-34.8475 11.115444 -1.049171
-34.719009 11.090922 -1.1102509
-34.401817 11.027128 -1.13771
-23.311409 11.189677 -1.066844
-35.031696 11.16117 -1.387516
-34.849133 11.142765 -1.31609
-34.750061 11.079792 -1.272042
-33.789276 11.032543 -1.311398
-24.465921 11.008823 -1.380742
-24.209503 11.045633 -1.384127
-24.198706 11.036536 -1.26747
-23.575542 11.1628 -1.211767
-35.013824 11.188385 -1.443416
-34.901989 11.117739 -1.4652179
-34.778996 11.065369 -1.4031841
-35.080414 11.023491 -1.728972
-34.677822 11.081663 -1.7088701
-34.593143 11.016618 -1.70608
-34.351154 11.189463 -1.76164
-28.838604 11.076538 -1.6927691
-28.76086 11.198195 -1.618757
-24.540745 11.024719 -1.6374969
-35.103363 11.014626 -1.82119
-34.513245 11.011758 -1.985832
-28.582085 11.134224 -1.819994
-28.319038 11.115862 -1.837703
-23.973869 11.010265 -1.861006
-34.865669 11.011008 -2.0854509
-34.493946 11.053267 -2.191746
-34.373592 11.065207 -2.1881559
-28.888241 11.113474 -2.1066689
-35.235363 11.038116 -2.2904651
-35.025799 11.07865 -2.2634871
-34.897316 11.047977 -2.283129
-34.288589 11.06939 -2.3687389
-29.091572 11.028427 -2.3319571
-35.096657 11.090932 -2.5715909
-34.495476 11.117699 -2.515626
-34.070164 11.162226 -2.5706251
-29.39686 11.034845 -2.5900071
-29.174469 11.199462 -2.5983739
-28.99472 11.07652 -2.5506511
-35.215088 11.040018 -2.6109979
-35.026722 11.026052 -2.7237501
-34.905258 11.145437 -2.670233
-34.538925 11.112272 -2.6878951
-34.257427 11.130532 -2.6450169
-34.168873 11.097233 -2.746381
-29.316402 11.057039 -2.6145959
-29.00083 11.037071 -2.6789019
-28.515253 11.060392 -2.7338049
-28.282911 11.065249 -2.619297
-34.28236 11.101995 -2.9102559
-28.887829 11.074507 -2.8714981
-28.627274 11.080052 -2.9029951
-28.143757 11.142902 -2.880976
-35.018528 11.09316 -3.1631229
-34.639778 11.095398 -3.099036
-34.462425 11.11862 -3.044322
-34.270943 11.134085 -3.0711939
-27.787769 11.074998 -3.1222179
-27.583862 11.140388 -3.153805
-34.299332 11.06377 -3.2118621
-29.059061 11.017155 -3.396549
-24.786375 11.163173 -3.2481129
-35.733681 11.063677 -3.55691
-34.997543 11.030398 -3.5160551
-29.432438 11.005117 -3.560009
-28.635727 11.159891 -3.4273829
-28.384342 11.120584 -3.4897189
-25.453371 11.022791 -3.4725981
-23.279238 11.094043 -3.5208149
-35.127155 11.035185 -3.7523291
-34.974228 11.16712 -3.698405
-29.535574 11.066772 -3.653686
-26.43792 11.009074 -3.704433
-26.21093 11.02696 -3.723594
-26.077982 11.071119 -3.7083509
-25.689749 11.000184 -3.7626891
-25.150635 11.054293 -3.7414269
-24.905882 11.058266 -3.7590971
-35.422501 11.134941 -3.835655
-29.321758 11.164627 -3.9485531
-28.643017 11.068729 -3.8274131
-26.127975 11.143809 -3.840836
-35.27507 11.042435 -4.1285462
-35.084129 11.098646 -4.097331
-29.282372 11.094755 -4.0464282
-28.644505 11.030942 -4.1786861
-24.589447 11.122385 -4.0931692
-34.510223 11.143116 -4.2311811
-34.382004 11.192036 -4.2394848
-25.055536 11.171349 -4.2472382
-24.937994 11.110783 -4.2783442
-24.118973 11.146703 -4.2108212
-22.776745 11.174693 -4.3919091
-35.132183 11.085087 -4.5429888
-34.553612 11.04427 -4.598732
-34.324318 11.075479 -4.4385529
-29.478098 11.016371 -4.463758
-25.032566 11.171002 -4.4918408
-24.874567 11.140982 -4.5412359
-24.555084 11.009562 -4.4825449
-22.785639 11.196439 -4.4894338
-35.879959 11.120764 -4.7705312
-35.304947 11.085291 -4.6040812
-27.943377 11.044022 -4.7018991
-26.389618 11.173709 -4.6195679
-35.946663 11.132752 -4.9514971
-35.328117 11.062741 -4.9317389
-23.875072 11.024332 -4.8585901
-25.284279 11.183999 -5.0754328
-35.138657 11.001158 -5.3843331
-27.970158 11.116238 -5.263042
-29.360134 11.08174 -5.4429979
-29.63113 11.184098 -5.704679
-26.08707 11.008787 -5.6747689
-25.742298 11.189133 -5.7163081
-29.325674 11.121228 -6.0334048
-35.327183 11.057793 -6.205616
-20.151133 11.122866 -6.3838229
-20.239151 11.140896 -6.468358
-35.160255 11.03274 -6.9970851
-27.738682 11.021171 -6.9342828
-24.949001 11.063395 -6.8635259
-20.281982 11.085302 -7.050673
-27.319 11.093523 -8.6309252
-23.83568 11.267527 2.2923901
-29.089844 11.398054 0.60722399
-25.782421 11.344818 0.60681999
-25.397316 11.346914 0.61696398
-25.052458 11.380062 0.64511901
-24.743315 11.296627 0.60489899
-39.909317 11.313095 0.54600501
-39.656284 11.343937 0.54942697
-39.404537 11.201119 0.51574898
-39.279209 11.380987 0.53792399
-39.10677 11.280165 0.53505701
-38.958309 11.34416 0.53397602
-38.736717 11.328913 0.52755302
-38.430664 11.354259 0.53330499
-37.807362 11.374847 0.55564201
-37.53582 11.300112 0.53171802
-37.307968 11.319053 0.507617
-36.703636 11.386624 0.510903
-36.420341 11.307101 0.48041201
-36.096832 11.307199 0.44676599
-35.892525 11.290764 0.41300401
-35.497456 11.371806 0.443454
-35.173271 11.33497 0.45385101
-33.879669 11.269224 0.47494501
-32.934002 11.399926 0.537175
-32.533768 11.340366 0.55066103
-31.441063 11.345248 0.55317998
-31.004385 11.371325 0.570104
-30.762817 11.391072 0.564349
-28.425282 11.202123 0.56641102
-27.72575 11.356607 0.57183897
-27.005117 11.331984 0.59725398
-26.496212 11.350257 0.56709301
-26.336704 11.329693 0.58651698
-24.851959 11.338581 0.58068401
-24.679028 11.368448 0.49931699
-35.96661 11.283989 0.39110699
-35.702553 11.231982 0.38332799
-35.550125 11.233862 0.386558
-34.762939 11.226597 0.245373
-24.653387 11.300739 0.226
-25.742758 11.315086 0.130757
-34.629959 11.210697 -0.471623
-34.847439 11.278563 -0.667611
-34.932121 11.236359 -0.98870301
-34.844864 11.219842 -1.024157
-34.704895 11.234943 -1.075641
-24.18574 11.215443 -1.045249
-35.038658 11.202363 -1.355746
-34.926094 11.281025 -1.3467129
-35.048138 11.257734 -1.440256
-34.91127 11.289762 -1.458781
-34.606197 11.359446 -1.4798549
-28.888062 11.353075 -1.567016
-24.434309 11.257183 -1.47857
-34.80138 11.211363 -1.61055
-34.669552 11.312286 -1.7705899
-28.759262 11.308046 -1.647869
-24.412895 11.324963 -1.66675
-34.821526 11.283304 -1.828221
-34.700546 11.309109 -1.860857
-33.994415 11.320351 -1.98695
-28.999195 11.255493 -1.9059581
-24.479675 11.298046 -1.957913
-24.341185 11.259569 -1.8786
-23.911909 11.375086 -1.821293
-35.235695 11.31043 -2.1512151
-34.109825 11.331232 -2.1428499
-33.982399 11.28685 -2.1189239
-29.075964 11.269099 -2.109158
-28.891909 11.264696 -2.1237221
-25.173166 11.399932 -2.129755
-23.894466 11.213528 -2.06229
-35.103283 11.248807 -2.265157
-28.550827 11.384638 -2.319236
-26.057583 11.306417 -2.281776
-25.965141 11.282713 -2.2486539
-24.529131 11.374769 -2.2665491
-35.108517 11.371069 -2.566329
-34.023289 11.203509 -2.5317919
-33.986267 11.217054 -2.5695961
-35.039665 11.243366 -2.663779
-28.965761 11.298815 -2.6293199
-25.34774 11.309799 -2.664602
-34.932846 11.264594 -2.906863
-28.097244 11.365658 -2.8912849
-27.430689 11.366879 -2.995419
-25.304449 11.381045 -2.942405
-25.108456 11.398075 -2.9160581
-24.280613 11.386118 -2.997627
-34.564133 11.370654 -3.0052831
-34.183784 11.379908 -3.1015069
-29.020061 11.261312 -3.119422
-28.933203 11.353412 -3.074394
-26.222534 11.373767 -3.0999401
-26.105125 11.368423 -3.038789
