# .PCD v0.7 - Point Cloud Data file format
VERSION 0.7
FIELDS x y z
SIZE 4 4 4
TYPE F F F
COUNT 1 1 1
WIDTH 1533
HEIGHT 1
VIEWPOINT 0 0 0 1 0 0 0
POINTS 1533
DATA ascii
-27.029945 27.102861 -4.4525661
-32.237854 27.040113 -4.6668701
-27.035418 27.036304 -5.0925512
-26.581448 27.024797 -5.0525212
-22.507792 27.069611 -5.0373182
-32.080669 27.105831 -5.2520061
-28.244049 27.01606 -5.7533031
-27.86091 27.011061 -5.7376118
-27.362438 27.051533 -5.7119732
-27.107689 27.117306 -5.7452641
-26.61697 27.134617 -5.760313
-23.713682 27.041527 -5.706111
-23.551411 27.131134 -5.6877618
-21.475304 27.033596 -5.6642189
-28.128092 27.094112 -6.345603
-23.73871 27.172997 -6.596436
-22.485353 27.196524 -6.6589012
-25.533241 27.104923 -6.9648371
-24.082542 27.11665 -6.9830909
-30.986532 27.143652 -7.018096
-30.522978 27.114283 -7.1238618
-39.424942 27.398588 1.84598
-34.430187 27.295517 1.8220921
-32.28075 27.3908 1.8829221
-31.800674 27.356709 1.901615
-21.245872 27.397278 1.6726609
-20.31366 27.278492 1.672469
-23.470257 27.235828 1.424739
-23.678467 27.239901 1.318966
-20.20454 27.275648 1.0004981
-23.625673 27.30151 0.85145599
-23.536713 27.222639 0.92848599
-23.666628 27.284878 0.64945
-23.426418 27.220974 0.72015703
-23.848267 27.362589 0.096404999
-39.463249 27.306177 -1.147568
-39.359055 27.345064 -1.35936
-38.503754 27.219097 -1.282122
-38.299206 27.378525 -1.369814
-39.149353 27.383509 -1.462332
-21.491932 27.293566 -1.48595
-28.518188 27.378706 -1.691516
-21.795183 27.368553 -1.748811
-21.498827 27.264578 -1.652632
-39.654503 27.244831 -1.973543
-38.892178 27.397461 -1.968996
-38.317616 27.294271 -1.87848
-27.394444 27.275604 -1.94978
-39.718266 27.338175 -2.0482781
-39.071796 27.375237 -2.055845
-27.387856 27.310799 -2.0513771
-27.134762 27.372379 -2.0593591
-38.58028 27.36381 -2.2862549
-35.720993 27.258659 -2.3344049
-38.860382 27.349663 -2.55972
-38.602879 27.29821 -2.596725
-38.375889 27.311661 -2.504565
-28.254761 27.238861 -2.547889
-26.882084 27.349869 -2.570004
-38.67662 27.317652 -2.7314301
-27.928308 27.326927 -2.705375
-22.502403 27.208265 -2.7930241
-35.487267 27.35178 -2.973408
-38.641624 27.370598 -3.0919399
-28.166916 27.342134 -3.3265851
-33.584389 27.364027 -3.544281
-33.745014 27.274694 -3.8102379
-28.071426 27.398893 -3.9339931
-27.807665 27.243948 -3.8877659
-26.623112 27.390074 -3.864759
-34.628365 27.379551 -4.4494481
-27.792843 27.281567 -4.5171099
-27.00864 27.253239 -4.4971919
-26.786127 27.282505 -4.477922
-22.822651 27.286928 -4.4569988
-33.722393 27.299898 -4.7678981
-27.132069 27.349854 -5.1453028
-26.540855 27.21129 -5.164773
-25.881283 27.297985 -5.145009
-32.020409 27.205626 -5.3128209
-29.244526 27.222485 -5.5434532
-27.296804 27.251835 -5.7414999
-26.960983 27.28027 -5.784235
-22.912331 27.208132 -5.7617912
-21.633183 27.271261 -5.6964011
-21.185404 27.312534 -5.751812
-29.302675 27.297747 -5.8031158
-26.606258 27.313866 -5.8088589
-26.39576 27.307621 -5.8108802
-27.036865 27.322973 -6.5201859
-31.242926 27.376532 -7.083972
-30.942078 27.385069 -7.0659261
-30.33041 27.305754 -7.0971241
-27.631859 27.333992 -7.1871018
-27.259809 27.377789 -7.206502
-26.745049 27.27754 -7.2002969
-31.2101 27.349955 -7.702147
-27.238121 27.324474 -7.868814
-38.710873 27.432257 1.907755
-37.665154 27.409859 1.8399431
-34.467529 27.517651 1.827566
-28.71055 27.457796 1.926445
-26.677704 27.586256 1.702117
-23.707245 27.410059 1.67494
-20.411533 27.476936 1.679065
-22.595083 27.506058 1.597541
-21.314976 27.548248 1.588261
-23.4888 27.574324 0.216653
-23.937336 27.443348 -0.043779001
-35.260994 27.589264 -0.58384597
-35.079914 27.52277 -0.57660401
-23.966423 27.556828 -0.445833
-39.303585 27.511875 -0.695041
-24.108334 27.58601 -0.622706
-39.189735 27.417955 -0.82097203
-35.265388 27.538563 -0.99531603
-23.955944 27.593834 -0.87162602
-38.934258 27.44865 -1.456386
-37.280312 27.557695 -1.473166
-37.066406 27.50761 -1.402367
-37.770004 27.569532 -1.729256
-37.416542 27.47971 -1.718857
-22.053642 27.514288 -1.794239
-38.498058 27.45048 -1.823763
-27.913065 27.482845 -1.924403
-38.144882 27.480808 -2.0746429
-37.73632 27.472309 -2.1700699
-37.48019 27.44169 -2.144794
-33.646641 27.481094 -2.1539841
-28.206352 27.413038 -2.0833349
-28.680161 27.531889 -2.6629031
-38.907249 27.436367 -2.940315
-25.057205 27.585482 -2.8409719
-38.936131 27.414423 -3.2413571
-38.68779 27.514526 -3.3411109
-25.785269 27.432163 -3.2350421
-35.573296 27.437115 -3.522722
-26.837837 27.486219 -3.8979459
-34.440144 27.512669 -4.1618562
-34.136013 27.519154 -4.1931901
-33.394783 27.498861 -4.1525588
-33.653732 27.429295 -4.2720509
-36.059769 27.505684 -4.5666718
-25.768196 27.525034 -4.4625468
-22.739506 27.520435 -4.4788361
-34.136246 27.420364 -4.6696839
-33.461475 27.544857 -4.6849022
-32.132145 27.482471 -4.7100992
-27.20406 27.549755 -4.7867069
-31.325943 27.451931 -5.19275
-26.128632 27.502996 -5.1424041
-33.305817 27.443409 -5.2838392
-31.120857 27.541807 -5.2621951
-29.769566 27.469517 -5.8344159
-27.850903 27.557343 -5.8629951
-27.078243 27.445889 -6.3211608
-26.795412 27.478117 -6.551228
-25.782505 27.5534 -6.4034591
-30.568939 27.50806 -7.0799122
-27.313154 27.513123 -7.0701141
-23.515621 27.469433 -7.0438752
-26.291172 27.439224 -7.2945571
-22.692915 27.562777 -7.2209368
-28.206879 27.49567 -8.1324434
-39.772785 27.773796 1.855623
-37.713867 27.788712 1.856515
-35.732864 27.756346 1.857805
-31.576775 27.720026 1.939983
-26.551598 27.649742 1.7233551
-21.32785 27.774343 1.696424
-20.432373 27.721991 1.698247
-37.520203 27.715235 0.015907999
-24.106731 27.617149 0.031877998
-23.747841 27.747717 0.150445
-23.894972 27.793369 -0.138248
-35.213444 27.71043 -0.39869899
-35.618317 27.753536 -0.572366
-35.345306 27.685421 -0.55784899
-24.149471 27.786386 -0.59234297
-36.606823 27.795311 -0.62065798
-35.409103 27.674416 -0.61507201
-33.405884 27.79038 -0.75236601
-24.138729 27.787237 -0.96803302
-39.424644 27.757048 -1.158136
-35.307106 27.705898 -1.03949
-35.023674 27.773998 -1.226465
-24.176119 27.655811 -1.375707
-38.185715 27.78096 -1.480487
-37.840744 27.780281 -1.787392
-37.555786 27.775404 -1.750054
-36.979504 27.776777 -1.793964
-38.908218 27.679996 -1.85417
-38.459167 27.744398 -1.939852
-38.290031 27.794323 -1.8626029
-27.548639 27.693027 -1.826635
-24.213581 27.68502 -1.8042949
-28.322159 27.634169 -2.1257989
-27.523907 27.614977 -2.014194
-37.529358 27.739784 -2.3237059
-39.883785 27.762522 -2.5785611
-39.798698 27.758652 -2.5898271
-37.601997 27.717875 -2.420382
-27.299206 27.721228 -2.5570049
-25.597641 27.709555 -2.4766691
-24.665924 27.78994 -2.513963
-38.854824 27.734215 -2.6894319
-38.620922 27.766241 -2.6365471
-38.263142 27.759445 -2.649873
-28.838314 27.665932 -2.682837
-28.010914 27.636414 -2.7210481
-26.963329 27.726974 -2.649693
-35.383564 27.770239 -2.9508779
-35.719227 27.645004 -3.0704589
-33.79631 27.780151 -3.042793
-38.893013 27.704075 -3.3067181
-39.912491 27.733238 -3.496439
-36.007835 27.710041 -3.4313149
-35.716522 27.698151 -3.509912
-35.490288 27.673853 -3.5959239
-34.353241 27.672325 -3.602699
-26.536926 27.658449 -3.8655701
-36.754879 27.764345 -4.3605371
-34.295509 27.754595 -4.3539019
-36.623158 27.789101 -4.5119209
-34.999039 27.750381 -4.4555001
-34.597477 27.696692 -4.5325398
-33.671272 27.773357 -4.4511719
-34.212654 27.773323 -4.7288651
-31.551094 27.732613 -5.1572251
-26.509886 27.616116 -5.1534252
-26.228905 27.641294 -5.1837478
-25.450827 27.719715 -5.119791
-26.201061 27.671371 -5.2214012
-25.854273 27.795845 -5.2203269
-27.798723 27.626434 -5.8574629
-26.53603 27.711914 -6.586987
-31.728825 27.757751 -7.1683722
-32.050537 27.774099 -7.2049279
-26.894047 27.620558 -7.2579808
-32.702011 27.958447 1.955435
-23.750172 27.95299 1.7261339
-37.842587 27.91674 0.87397498
-37.791943 27.861839 0.88821298
-39.803913 27.931499 0.60015601
-38.019951 27.8645 0.61212099
-37.507469 27.95962 0.601789
-36.912827 27.970556 0.65960002
-39.523026 27.928659 0.55181903
-38.027504 27.912054 0.43713
-37.883869 27.93047 0.492468
-37.606941 27.928446 0.473088
-36.482002 27.913212 0.52234
-37.918842 27.947868 0.30435801
-37.784313 27.89711 0.22988001
-36.943756 27.943113 0.30427101
-36.568176 27.894756 0.23530801
-38.093292 27.913733 0.123851
-37.780167 27.953396 0.141565
-37.671913 27.99814 -0.097273
-37.492542 27.927036 -0.115783
-36.61359 27.920729 -0.10399
-39.704346 27.825394 -0.30059499
-38.84893 27.866852 -0.384345
-38.745407 27.801987 -0.227056
-39.964516 27.967152 -0.58897698
-39.779022 27.910755 -0.51686299
-39.569424 27.811821 -0.560543
-38.915321 27.993855 -0.42478001
-36.941162 27.937469 -0.59701002
-37.027763 27.972441 -0.87248498
-36.282532 27.895851 -0.91776502
-33.677917 27.962406 -0.940871
-33.483006 27.98214 -0.94533199
-38.646053 27.86491 -1.122472
-38.366604 27.949774 -1.155177
-39.398476 27.942108 -1.243301
-38.50267 27.961399 -1.296694
-37.033672 27.807102 -1.2908829
-27.918598 27.818502 -1.49134
-24.734631 27.812862 -1.735798
-26.080292 27.9454 -2.0127759
-34.085369 27.913164 -2.35972
-33.87513 27.861267 -2.297333
-25.651606 27.959051 -2.393692
-25.160498 27.802206 -2.3663249
-24.920633 27.809317 -2.3562591
-22.666372 27.882261 -2.3708551
-34.186115 27.911125 -2.459563
-25.726135 27.849773 -2.5229161
-36.53595 27.945465 -2.7144539
-35.650463 27.933073 -2.7978649
-28.733912 27.826294 -2.732281
-39.821136 27.837837 -2.8348689
-35.096844 27.800999 -2.9913831
-25.784081 27.947231 -2.8628471
-24.524403 27.885973 -2.8232231
-38.6549 27.978222 -3.0112369
-38.59362 27.893806 -3.318717
-38.132992 27.938559 -3.215198
-28.189888 27.84185 -3.337615
-27.952599 27.956568 -3.2649579
-27.40457 27.892347 -3.3084941
-26.978512 27.895113 -3.224788
-36.095467 27.826607 -3.444802
-35.398994 27.942768 -3.5539899
-34.935066 27.986319 -3.553252
-26.712128 27.907757 -3.4936781
-39.809074 27.867735 -3.703028
-35.770035 27.949169 -3.6204729
-38.468319 27.877157 -3.935941
-38.292862 27.880447 -3.9336269
-28.127459 27.938351 -3.9812911
-27.9515 27.976551 -3.9626501
-27.085922 27.888159 -3.891412
-26.361219 27.977316 -3.8878241
-38.527649 27.951752 -4.098496
-36.902641 27.845545 -4.318213
-36.003864 27.893383 -4.4280128
-35.776405 27.910688 -4.4546418
-35.483692 27.989889 -4.449851
-27.304661 27.911062 -4.558598
-23.56432 27.956078 -4.4919939
-34.71455 27.911581 -5.0442481
-27.634209 27.951674 -5.128418
-27.295208 27.980837 -5.191361
-25.855213 27.929855 -5.1869488
-31.262953 27.819098 -5.3006468
-27.339247 27.973549 -5.2124252
-27.026661 27.977629 -5.2625451
-34.136932 27.917568 -6.049468
-33.749832 27.857262 -6.0652542
-26.992691 27.834259 -6.4995012
-30.452694 27.972895 -7.1908998
-30.339386 27.926477 -7.1584849
-31.956894 27.983892 -7.2440429
-39.815899 28.082962 1.877113
-34.7659 28.119827 1.822592
-34.149532 28.180664 1.878781
-30.966436 28.170252 1.9540581
-30.690945 28.006193 1.926717
-27.921658 28.184021 1.929305
-25.813522 28.096556 1.649621
-21.350836 28.199873 1.731198
-20.589294 28.178944 1.702571
-37.21553 28.168331 0.82384801
-37.083229 28.057575 0.84273702
-39.913239 28.164616 0.65600401
-38.131813 28.045391 0.74189699
-37.884876 28.13905 0.67910898
-39.769104 28.093643 0.498748
-39.524967 28.024452 0.56207001
-37.801476 28.016809 0.459517
-37.459206 28.044415 0.54249299
-37.066498 28.073383 0.58427203
-36.601189 28.110023 0.48421001
-39.765274 28.187393 0.227981
-38.068417 28.093857 0.206367
-36.610233 28.068422 0.21429899
-39.532951 28.025883 0.188191
-37.727341 28.062853 0.167326
-37.038601 28.175238 0.180765
-38.720352 28.189045 -0.196224
-37.933609 28.189066 -0.088499002
-39.431 28.166208 -0.22739901
-37.884575 28.016562 -0.382934
-37.686211 28.096905 -0.34215099
-37.50634 28.147306 -0.302057
-37.32859 28.045967 -0.34622899
-36.940056 28.15097 -0.25948799
-36.636497 28.165131 -0.33870801
-36.339886 28.101873 -0.230416
-39.902771 28.160131 -0.57244802
-38.873669 28.126106 -0.45216399
-37.841095 28.194067 -0.56924999
-36.660027 28.164202 -0.491115
-39.80407 28.163948 -0.64095002
-39.523659 28.172226 -0.77851599
-38.651882 28.161129 -0.60775602
-37.03463 28.081232 -0.62545401
-33.274872 28.137272 -0.74609298
-38.53257 28.052816 -1.114839
-35.746006 28.050785 -1.142868
-28.445156 28.116108 -1.183095
-28.269089 28.109314 -1.0903929
-36.08358 28.157265 -1.2970591
-35.691624 28.187771 -1.335524
-35.314453 28.070236 -1.2892441
-34.053436 28.158073 -1.317634
-38.676285 28.00951 -1.766264
-36.609596 28.18115 -1.8120151
-28.682716 28.023355 -1.954283
-27.570499 28.074274 -1.993451
-26.078102 28.035606 -1.969824
-36.692867 28.16028 -2.1872621
-28.618999 28.151337 -2.131187
-34.443485 28.12764 -2.4996951
-38.909275 28.170593 -2.650856
-38.70797 28.170601 -2.7067599
-36.746437 28.094152 -2.7275431
-28.101809 28.194439 -2.7466061
-39.707996 28.151236 -2.9390199
-39.224674 28.109549 -2.970166
-38.91444 28.164841 -2.9977269
-38.70887 28.179852 -2.9842839
-33.82373 28.160784 -2.9953711
-34.216309 28.117292 -3.102288
-27.409275 28.133341 -3.168412
-28.282902 28.084736 -3.3052089
-27.379301 28.150173 -3.283767
-27.191584 28.081388 -3.3311601
-26.591702 28.109339 -3.2736111
-38.644241 28.047153 -3.459193
-34.908043 28.149654 -3.4479771
-38.278709 28.195423 -3.6668401
-27.875238 28.038139 -3.7889359
-26.955715 28.179863 -3.9403341
-24.905502 28.146965 -3.891223
-33.567116 28.0905 -4.1785731
-36.546017 28.186527 -4.3645992
-38.280617 28.182995 -4.422245
-36.908329 28.011747 -4.4904079
-33.506763 28.190285 -4.512394
-27.266941 28.050545 -4.591217
-25.208574 28.164576 -4.5152788
-23.284115 28.071266 -4.4641829
-34.249687 28.055454 -4.7008009
-33.743149 28.133553 -4.6304841
-31.892862 28.087204 -4.7649179
-24.334572 28.083424 -5.1776419
-30.867279 28.088667 -5.8264709
-30.593973 28.083445 -5.9552999
-30.185013 28.075428 -5.96242
-22.788315 28.055147 -5.8434701
-34.124855 28.180943 -6.1400051
-33.795998 28.103121 -6.138855
-33.491783 28.186052 -6.094358
-30.478134 28.033279 -6.005219
-22.19915 28.15007 -6.525187
-20.768162 28.121828 -6.5238571
-20.920164 28.0467 -6.6007218
-20.652435 28.173813 -6.92483
-21.420223 28.106831 -7.0458622
-32.271549 28.128963 -8.063798
-38.740952 28.306885 1.8743
-36.112099 28.231876 1.865256
-35.765236 28.318062 1.820111
-35.389744 28.271439 1.8036751
-33.066608 28.355385 1.983369
-21.77124 28.341228 1.718014
-36.301376 28.278795 0.60877901
-37.347992 28.222641 0.241339
-39.766842 28.241508 0.111904
-38.116211 28.244938 0.100126
-39.76387 28.255201 -0.067534998
-36.81929 28.207644 -0.012137
-37.864178 28.238752 -0.22977699
-37.425213 28.206854 -0.30162999
-37.813354 28.278296 -0.41009101
-36.283466 28.237736 -0.472249
-23.645847 28.216358 -0.57277501
-37.444603 28.221899 -0.64038599
-33.735641 28.280201 -0.671534
-39.378731 28.252365 -0.99778098
-37.729141 28.305485 -0.95521998
-37.441216 28.329517 -1.045445
-37.011414 28.209845 -1.133337
-36.628834 28.21138 -1.1180919
-36.249352 28.232697 -1.06967
-33.707527 28.222027 -1.077552
-33.486824 28.304699 -1.106573
-39.473816 28.260994 -1.275708
-39.11747 28.248749 -1.257223
-36.665581 28.20676 -1.329841
-33.907516 28.255762 -1.295759
-39.055275 28.330841 -2.023895
-34.855713 28.313549 -2.167392
-36.914597 28.332994 -2.5618529
-36.702396 28.284658 -2.5480211
-34.350811 28.298336 -2.537029
-29.040665 28.36075 -2.5459919
-27.191921 28.297079 -2.5763891
-26.249203 28.321667 -2.578861
-38.146141 28.214119 -2.666656
-37.256908 28.337379 -2.683264
-33.133808 28.293343 -2.6719289
-27.940624 28.246416 -2.686914
-27.322857 28.291109 -2.6522789
-39.291298 28.253735 -2.9748631
-37.058743 28.288353 -2.935591
-36.828224 28.204746 -2.902281
-36.672356 28.295826 -2.8333459
-35.714684 28.261484 -2.940114
-35.37529 28.297583 -2.858597
-33.40242 28.276306 -2.885864
-32.990635 28.277954 -2.842392
-23.093735 28.240143 -2.9963329
-36.279877 28.274094 -3.0270879
-34.950962 28.252239 -3.025789
-34.477325 28.20785 -3.098516
-39.424515 28.320217 -3.2925389
-39.097221 28.314808 -3.2859809
-38.235474 28.269232 -3.370121
-37.796917 28.371277 -3.3061869
-37.372833 28.368626 -3.3482411
-36.970177 28.34074 -3.337405
-36.679688 28.337299 -3.347816
-28.611755 28.204487 -3.374819
-27.841101 28.205585 -3.3655291
-39.784187 28.27039 -3.4315641
-35.385956 28.313538 -3.48136
-39.84716 28.282263 -3.736305
-39.160545 28.239731 -3.613009
-36.971809 28.355 -3.73175
-36.615135 28.31749 -3.7379749
-35.282803 28.267801 -3.636055
-26.690718 28.220526 -3.9357989
-24.638634 28.269506 -3.845679
-24.180885 28.341385 -3.8027959
-20.891464 28.33075 -4.161293
-38.509315 28.229885 -4.3151789
-33.752312 28.235207 -4.280581
-38.615242 28.313345 -4.426425
-36.660988 28.296755 -4.459599
-26.95682 28.231495 -4.6072211
-34.879448 28.283579 -5.4675431
-31.299309 28.282499 -5.4185009
-34.460831 28.363836 -6.206388
-23.67663 28.231346 -6.5530448
-21.819416 28.375566 -6.5681138
-31.237349 28.344904 -7.2708468
-30.453398 28.339045 -7.37323
-26.575909 28.397362 -7.4119182
-22.89776 28.253622 -7.592587
-39.651527 28.536951 3.1019411
-32.550175 28.572578 2.0018449
-35.833923 28.583633 1.80762
-35.010765 28.483013 1.832607
-34.665279 28.461033 1.8460391
-33.948147 28.550138 1.916455
-32.609436 28.529661 1.974261
-32.14378 28.463371 1.88761
-27.21262 28.54929 1.913875
-27.16114 28.430542 1.9057
-23.074585 28.504065 1.81209
-37.923851 28.475399 1.7960531
-35.532692 28.47727 1.768247
-21.46014 28.59815 1.754316
-20.614628 28.526619 1.7495739
-39.515434 28.473818 0.75955802
-38.756905 28.592939 0.13995001
-38.235287 28.592697 0.12514099
-39.757401 28.419729 -0.083648004
-38.47823 28.419058 -0.129269
-39.014572 28.532873 -0.528552
-38.167736 28.568258 -0.58085197
-37.87368 28.497448 -0.48101199
-37.870483 28.536381 -0.94476998
-34.780067 28.537416 -0.97599298
-37.44566 28.426119 -1.039853
-33.479164 28.590775 -1.1716501
-39.320484 28.510094 -1.288644
-36.381859 28.421375 -1.266102
-35.385227 28.43866 -1.351107
-33.930641 28.446281 -1.23597
-39.766083 28.580036 -1.452507
-34.293762 28.432512 -1.419155
-37.731995 28.564339 -1.862781
-37.119263 28.449371 -1.8983819
-39.278271 28.59317 -2.025013
-27.558662 28.525059 -2.0994351
-35.00563 28.539047 -2.3357649
-38.514156 28.527031 -2.581713
-37.08395 28.440905 -2.5713899
-34.199036 28.569424 -2.581459
-33.485611 28.568863 -2.5761621
-29.219545 28.547947 -2.4377661
-24.326408 28.407824 -2.5103011
-38.305004 28.480967 -2.659652
-37.358765 28.508446 -2.610136
-36.02581 28.518204 -2.6316969
-28.176739 28.576622 -2.735553
-26.472805 28.512314 -2.6430819
-39.266605 28.479214 -2.998868
-39.044777 28.436207 -2.986237
-36.666939 28.460602 -2.898963
-35.39661 28.573103 -2.943645
-39.980782 28.445936 -3.109324
-33.873032 28.487644 -3.004986
-39.834068 28.458496 -3.392056
-39.397995 28.459457 -3.3024211
-39.005234 28.459717 -3.285445
-36.728172 28.491997 -3.3431661
-28.326454 28.459391 -3.3234091
-27.727667 28.468758 -3.3489821
-27.576082 28.46059 -3.370003
-37.19141 28.576948 -3.5590451
-36.670681 28.491905 -3.551172
-38.852608 28.576605 -3.6432149
-38.628143 28.565228 -3.642725
-36.849964 28.418299 -3.6286211
-35.16037 28.599426 -3.7104349
-39.836113 28.572393 -3.845191
-39.497631 28.483665 -3.8611951
-37.205116 28.421923 -3.928045
-27.220907 28.447842 -3.9910541
-27.142307 28.448265 -3.988327
-38.583679 28.472691 -4.3400712
-33.274029 28.582024 -4.2618322
-33.451225 28.505226 -4.497436
-24.204655 28.584259 -4.5470619
-27.403502 28.552235 -4.6666651
-34.316261 28.590385 -5.1302629
-30.440678 28.548538 -5.8941669
-30.385216 28.478935 -5.8846631
-34.195839 28.565825 -6.1525159
-21.835442 28.545599 -6.5959449
-26.263279 28.511272 -7.4502158
-26.408302 28.524055 -8.2496967
-38.49987 28.632032 1.806221
-32.077095 28.660444 1.894822
-23.803486 28.672373 1.813988
-39.673996 28.667356 0.894373
-39.446815 28.701111 0.81915802
-38.46357 28.707016 0.89346999
-34.963905 28.756588 0.89997
-36.971058 28.744123 0.66729498
-38.628159 28.753403 0.47693399
-34.934521 28.726416 0.074711002
-38.177132 28.640009 -0.31570399
-35.040188 28.716026 -0.21763401
-38.703026 28.764698 -0.50143701
-34.986584 28.68145 -0.56058598
-39.849831 28.622581 -0.69969499
-33.257736 28.779055 -0.79991603
-39.841488 28.689342 -0.91791201
-34.942844 28.614002 -0.96454799
-39.268539 28.7561 -1.107626
-39.160698 28.604851 -1.173167
-39.014839 28.734089 -1.338973
-38.012741 28.704998 -1.220226
-37.825493 28.66745 -1.28625
-33.509888 28.658775 -1.453297
-39.863655 28.699102 -1.816636
-39.293926 28.635418 -1.953896
-39.060066 28.710102 -1.84962
-38.121338 28.711151 -1.811705
-27.581581 28.64749 -1.930521
-34.73502 28.623268 -2.0859139
-39.016972 28.61759 -2.569196
-34.78418 28.699625 -2.585804
-28.451143 28.617577 -2.418308
-36.678486 28.608858 -2.652503
-35.864029 28.662273 -2.6776929
-37.61237 28.633768 -2.939729
-37.404316 28.647499 -2.8966911
-35.834824 28.615562 -3.107182
-33.512905 28.651512 -3.033066
-37.256947 28.643139 -3.314909
-36.875011 28.62261 -3.3082521
-36.121429 28.751429 -3.2264171
-35.837204 28.689842 -3.386318
-38.693474 28.634359 -3.5084071
-37.04969 28.799095 -3.6681499
-35.292488 28.722298 -3.730206
-34.054512 28.644341 -3.6989231
-33.962452 28.797224 -3.6904099
-37.006252 28.655937 -3.808779
-36.65263 28.605272 -3.854192
-26.72039 28.687866 -3.961117
-39.553398 28.669655 -4.084178
-38.35598 28.701342 -4.0608468
-24.982567 28.75127 -4.0803661
-38.566807 28.639008 -4.264317
-38.590366 28.702637 -4.430058
-36.647949 28.756178 -4.400619
-26.674129 28.694294 -4.6377501
-26.354118 28.637161 -4.6168251
-25.506943 28.781376 -5.9222312
-20.30331 28.607643 -5.943377
-25.809662 28.656769 -6.759006
-27.365278 28.633717 -7.179266
-27.293312 28.613441 -7.3601899
-26.512234 28.602943 -7.45755
-20.048958 28.64237 -7.5131378
-32.940037 28.868675 2.021754
-36.190125 28.988033 1.870326
-32.129517 28.982014 1.910605
-30.835136 28.854696 1.99752
-38.625252 28.96283 1.674927
-38.581036 28.927195 1.676833
-38.221199 28.972256 1.739994
-37.325752 28.962254 1.769744
-35.258026 28.997231 1.739467
-23.97279 28.90834 1.707232
-23.577091 28.853527 1.7806799
-22.900433 28.855206 1.734148
-22.430473 28.900969 1.6772161
-21.633366 28.841246 1.767674
-21.464403 28.987005 1.701645
-21.292021 28.945049 1.7157151
-20.931915 28.868937 1.7464809
-37.20686 28.891148 1.444077
-37.159157 28.887127 1.456486
-38.269493 28.942631 1.292997
-37.282581 28.956181 1.249481
-37.135521 28.846903 1.268351
-39.775303 28.912868 0.87754798
-39.031979 28.959318 0.98192298
-36.949741 28.914158 0.94794798
-38.736549 28.867325 0.62619001
-37.075256 28.903118 0.66192502
-35.159744 28.963251 0.467271
-35.086182 28.916695 0.250505
-35.090492 28.925106 -0.154074
-38.224293 28.857058 -0.25111401
-38.937019 28.962555 -0.64046299
-38.654396 28.956633 -0.61747903
-33.22403 28.989828 -0.79818898
-33.075729 28.840998 -0.76375997
-39.014122 28.983925 -1.050211
-38.113758 28.969105 -1.074442
-33.108025 28.978022 -1.058585
-39.039375 28.962566 -1.347766
-34.772842 28.981741 -1.2326421
-34.135471 28.990704 -1.540985
-34.648739 28.915333 -1.773345
-34.263142 28.991541 -1.692348
-39.841019 28.95203 -1.929474
-39.093189 28.928709 -1.861975
-39.90834 28.894783 -2.0876679
-34.543495 28.896906 -2.588577
-37.946671 28.913956 -2.687984
-35.409473 28.915981 -2.9035521
-39.693344 28.937218 -3.1233661
-37.505524 28.957607 -3.012877
-28.754375 28.810434 -3.0940499
-39.46489 28.990063 -3.310863
-36.715271 28.999062 -3.3758321
-36.026588 28.871288 -3.279268
-37.280861 28.89649 -3.400219
-37.101295 28.870335 -3.526258
-39.545845 28.954317 -3.7815881
-35.443047 28.887207 -3.6973541
-34.4944 28.877954 -3.627923
-34.155334 28.867657 -3.681108
-38.956474 28.981161 -3.845243
-38.286766 28.864655 -3.9253621
-36.682152 28.974247 -3.8613839
-27.052336 28.891102 -3.9892001
-38.478134 28.944696 -4.0536032
-34.049072 28.85906 -4.3526402
-38.543678 28.978264 -4.4412942
-34.213364 28.982704 -4.5501342
-33.831791 28.978746 -4.4489641
-27.796638 28.989052 -4.6811862
-27.338528 28.9123 -4.6787372
-26.980303 28.80043 -4.6655478
-26.405605 28.878098 -4.6519532
-33.156937 28.985273 -5.1942019
-31.769051 28.972994 -5.4916449
-25.381397 28.873552 -6.087409
-25.190704 28.824991 -6.599853
-26.85412 28.9063 -8.2333813
-28.012665 29.180754 1.94612
-27.060671 29.09701 1.909057
-38.918114 29.105503 1.645978
-34.986366 29.022032 1.6990809
-34.282261 29.116753 1.702809
-33.845985 29.054651 1.7461441
-39.363327 29.041964 1.436247
-38.898613 29.109943 1.297791
-38.786064 29.036844 1.2729239
-38.538002 29.063608 1.338297
-35.276161 29.021429 1.302619
-35.070446 29.001236 1.315503
-35.27161 29.017239 1.0657541
-39.434624 29.005501 0.86146498
-38.565914 29.057173 0.96567303
-39.712311 29.107628 0.695158
-39.494598 29.079641 0.68648601
-38.921677 29.033741 0.740964
-35.268177 29.094376 0.67486799
-38.357475 29.052811 0.51166499
-38.370918 29.091124 0.29316601
-38.965702 29.099028 0.105072
-38.521118 29.046171 0.179112
-26.900852 29.185013 -0.52490801
-34.942783 29.053669 -0.64947402
-27.676268 29.073631 -0.66110098
-34.897114 29.022697 -0.96602398
-27.392563 29.027996 -0.97403002
-39.269047 29.183302 -1.103171
-33.334492 29.00905 -1.075708
-35.005085 29.116779 -1.339298
-39.428955 29.035728 -1.475893
-38.502552 29.170937 -1.642554
-39.384201 29.069561 -1.911356
-39.272015 29.019722 -2.0437191
-38.664986 29.022507 -2.22171
-39.365387 29.073925 -2.596668
-33.715717 29.066315 -2.520808
-38.217125 29.043957 -2.629262
-34.993889 29.038597 -2.9462399
-39.538746 29.076513 -3.1241801
-35.665829 29.091204 -3.0414209
-38.958076 29.116894 -3.3859119
-35.361664 29.086239 -3.356817
-35.112293 29.137764 -3.361589
-27.379604 29.03875 -3.3840461
-39.844452 29.050632 -3.400878
-37.620605 29.009245 -3.5839169
-35.701656 29.031292 -3.5272341
-37.32814 29.073824 -3.6830399
-37.083214 29.030611 -3.7217889
-38.094185 29.060772 -4.1123309
-37.980804 29.061935 -4.0309372
-27.238106 29.038498 -4.0408969
-28.580544 29.140957 -4.7544861
-28.103577 29.131006 -4.6826119
-25.46085 29.153776 -4.6540751
-31.484051 29.065287 -5.5075598
-31.153187 29.187477 -5.4273052
-20.227497 29.053251 -6.1423478
-30.174917 29.15024 -6.7377701
-24.778252 29.006678 -6.6304011
-26.181774 29.138323 -6.8384709
-27.658009 29.084011 -7.3954239
-27.40703 29.105885 -7.391449
-24.442646 29.159807 -7.3722219
-26.452274 29.082922 -7.4338021
-20.327065 29.027977 -7.4138288
-28.168411 29.36919 2.058053
-39.801758 29.375801 1.849558
-39.352631 29.374372 1.720333
-39.108856 29.304974 1.71061
-39.11599 29.283159 1.4126509
-39.222473 29.36694 1.274079
-39.095909 29.272524 1.259663
-38.624809 29.253124 1.360642
-35.273914 29.376263 1.329705
-35.000515 29.315636 1.292215
-39.304455 29.332987 1.006556
-38.999943 29.307617 1.118804
-35.329731 29.358463 1.072067
-37.119377 29.278168 0.80838901
-39.798916 29.247684 0.730106
-38.530769 29.261801 0.68154103
-37.296547 29.298416 0.711923
-23.169254 29.365036 0.790968
-38.357086 29.346796 0.55125099
-34.929443 29.316017 0.593409
-39.622131 29.245605 0.37275699
-38.326477 29.225821 0.103677
-34.671307 29.358952 -0.123588
-39.057156 29.290768 -0.21661399
-38.357899 29.349556 -0.28910801
-26.983067 29.363655 -0.39969099
-26.935272 29.394382 -0.51696599
-39.101559 29.249069 -0.75964302
-38.26572 29.313892 -0.60592902
-35.140545 29.221048 -0.79149401
-27.766895 29.305847 -0.69486898
-27.38356 29.365112 -0.76418197
-39.15686 29.379715 -0.945517
-26.543545 29.251051 -0.95287502
-39.355835 29.309052 -1.127389
-38.295803 29.34721 -1.0671819
-26.212189 29.374714 -1.048574
-39.323071 29.285547 -1.288607
-39.059456 29.363739 -1.309417
-26.586607 29.394743 -1.356739
-38.668488 29.344896 -1.447945
-38.195129 29.352169 -1.576216
-35.635078 29.334982 -1.401859
-34.863949 29.200226 -1.5238971
-39.090393 29.251863 -1.771397
-38.432297 29.375008 -1.700703
-39.369926 29.279543 -1.888321
-25.634401 29.272423 -1.898019
-39.343594 29.25631 -2.140538
-35.007713 29.356102 -2.109961
-38.909294 29.235113 -2.338032
-35.303078 29.330688 -2.2454989
-39.462814 29.364326 -2.5234311
-35.370895 29.36204 -2.4848571
-38.225536 29.394026 -2.6079791
-35.111366 29.305347 -2.611341
-37.121086 29.20286 -2.964088
-25.849375 29.321779 -2.9486079
-34.248199 29.365356 -3.099875
-24.929068 29.377945 -3.162704
-38.837238 29.389242 -3.37532
-36.977219 29.372128 -3.3956161
-27.122776 29.300146 -3.3194029
-37.50037 29.319334 -3.4621861
-34.75856 29.391819 -3.5546539
-38.905769 29.258129 -3.864979
-25.888618 29.323021 -3.98838
-24.632275 29.396221 -3.9158101
-38.682774 29.31488 -4.08777
-33.463589 29.368645 -4.2521229
-28.216455 29.327084 -4.7687998
-27.326004 29.31535 -4.726018
-32.52824 29.391745 -5.5013452
-31.385071 29.357498 -5.500082
-26.76543 29.329794 -5.4320321
-20.520763 29.299675 -6.780735
-27.766891 29.200596 -7.405674
-27.349697 29.274574 -7.5003891
-37.645798 29.545109 1.835379
-36.927803 29.547741 1.848083
-35.586189 29.477751 1.92546
-27.199768 29.428885 1.935457
-25.698101 29.473211 1.9693609
-39.190529 29.528702 1.783205
-23.543125 29.578175 1.549818
-38.660614 29.466394 0.86536801
-34.981773 29.422199 0.98259199
-39.298447 29.406563 0.56841499
-35.378868 29.421909 0.58141798
-34.696617 29.491737 0.59195602
-38.960033 29.472443 0.28964901
-38.57399 29.408733 0.25191599
-37.382706 29.512512 0.208636
-35.407692 29.46529 0.16374899
-34.368481 29.579321 0.084926002
-25.317118 29.572346 0.114443
-38.543594 29.420696 -0.147237
-37.454216 29.515171 -0.074295998
-37.063251 29.447771 -0.040993001
-35.350052 29.501947 -0.241216
-27.203011 29.574215 -0.38672501
-23.770782 29.51568 -0.31234801
-23.462292 29.484179 -0.38374701
-34.518414 29.42518 -0.56242198
-39.499439 29.478767 -0.63310701
-26.53553 29.494667 -0.68350101
-27.805298 29.512024 -1.25422
-27.546036 29.401722 -1.293309
-26.174225 29.585844 -1.238887
-35.300095 29.424194 -1.5330189
-38.223946 29.401005 -1.942427
-39.952229 29.490509 -2.725209
-39.490402 29.505985 -2.83092
-26.321342 29.400587 -2.8855381
-27.964798 29.496731 -3.1146481
-28.464478 29.594723 -3.3897481
-28.217922 29.497303 -3.3738301
-37.703094 29.43681 -3.7031529
-35.426418 29.425877 -3.7089281
-37.449295 29.404161 -3.897068
-38.931969 29.443085 -4.0744419
-37.259563 29.511604 -4.0440102
-37.030655 29.440847 -4.044889
-36.760292 29.542202 -4.0096588
-34.781479 29.448971 -4.0722089
-28.343288 29.415766 -4.26261
-38.456982 29.444731 -4.5599198
-34.178604 29.56139 -4.5977049
-33.716415 29.491495 -4.4915638
-25.340649 29.405796 -4.6654382
-25.085848 29.497883 -4.6591048
-31.654186 29.542892 -4.9123321
-31.512436 29.550402 -4.884449
-27.945286 29.489138 -4.8040509
-32.818802 29.430922 -5.5280762
-32.967415 29.463192 -6.3326678
-32.651779 29.423065 -6.2219291
-26.856768 29.459974 -6.7578001
-26.701363 29.461094 -6.884768
-20.880386 29.42366 -7.1408072
-27.241196 29.54332 -7.8081222
-28.269449 29.787594 2.0905049
-36.197842 29.710587 1.902009
-27.363577 29.762484 1.9375581
-26.685251 29.775642 1.9658099
-35.449295 29.644543 1.017525
-23.63467 29.780083 0.88624901
-23.435846 29.621094 0.99477398
-38.481583 29.609463 0.77495003
-35.288738 29.613646 0.52453899
-34.834896 29.662004 0.501486
-23.344828 29.661219 0.49819699
-38.510811 29.731188 0.29173201
-34.690796 29.753294 0.23274501
-38.294807 29.788017 0.19628
-25.340818 29.789661 0.078631997
-23.54081 29.650568 0.196908
-24.171118 29.753115 -0.26567799
-23.436066 29.7208 -0.35981899
-39.377922 29.617094 -0.76937097
-28.02844 29.672352 -0.68164301
-27.814262 29.757359 -0.76778001
-26.542074 29.661612 -0.68342799
-27.892853 29.792255 -0.933478
-38.554573 29.78418 -1.046646
-37.789497 29.736168 -1.070285
-26.686729 29.762405 -1.168812
-26.119534 29.625587 -1.1516891
-37.744667 29.620897 -1.20337
-37.491428 29.628576 -1.382432
-26.373028 29.655588 -1.342774
-27.312283 29.750523 -1.46917
-37.534412 29.734604 -1.778712
-27.312317 29.752327 -1.949569
-26.129728 29.754015 -2.000412
-35.385765 29.749437 -2.473386
-39.745663 29.649101 -2.7019329
-28.11837 29.707848 -3.0625081
-35.313671 29.744751 -3.3906341
-35.153492 29.62977 -3.4768901
-28.255352 29.704802 -3.409236
-35.068672 29.776546 -3.8229671
-38.690903 29.718887 -4.1638288
-27.563707 29.689264 -4.118804
-39.045067 29.773571 -4.3198161
-37.738304 29.633083 -4.503684
-34.991951 29.746 -5.3852038
-34.537182 29.675076 -5.3807392
-32.689102 29.741951 -5.522018
-28.284161 29.785431 -5.4459691
-32.494869 29.641476 -5.6184421
-23.909012 29.617498 -6.1990299
-33.030472 29.789976 -6.250669
-32.585144 29.725855 -6.304194
-23.243393 29.613155 -6.2127638
-32.980526 29.759338 -6.419322
-27.409496 29.670912 -6.7997608
-23.591377 29.751915 -6.759275
-30.731264 29.722256 -6.8956051
-30.128387 29.741699 -6.8857622
-27.450748 29.708715 -6.9177642
-26.776352 29.67507 -6.9330382
-20.817244 29.643108 -7.1761489
-31.751169 29.634388 -7.5728049
-30.623459 29.692207 -8.3944817
-39.244339 29.910648 1.970662
-35.510513 29.822634 1.922181
-32.214378 29.856802 1.9394571
-27.464081 29.88978 1.965959
-24.952965 29.900183 1.894089
-37.291645 29.982183 0.45220101
-36.683594 29.880169 0.53159201
-37.255085 29.964497 0.359128
-38.587688 29.927425 -0.189246
-38.221748 29.810688 -0.13524701
-34.580849 29.820774 -0.152707
-26.923687 29.937634 -0.37349901
-24.597965 29.982937 -0.25476301
-23.776432 29.849277 -0.313364
-38.118454 29.916391 -0.41977099
-34.535347 29.904928 -0.50207698
-26.27507 29.878511 -0.560408
-38.58757 29.860336 -0.62939799
-37.880531 29.975292 -0.67166799
-38.179443 29.891981 -0.968813
-34.488926 29.988321 -0.93850899
-34.354824 29.952595 -0.94122601
-37.029984 29.953506 -1.027977
-32.955936 29.932932 -1.096927
-34.145187 29.981705 -1.212466
-33.412983 29.961475 -1.79856
-33.015701 29.914146 -1.7270271
-26.288834 29.85046 -1.956567
-33.728889 29.963181 -2.1766069
-33.470367 29.984106 -2.1752779
-33.137226 29.985355 -2.414777
-24.920364 29.829445 -2.5963631
-39.787743 29.804722 -2.8585279
-28.54039 29.800797 -3.377485
-35.265846 29.816359 -3.7068069
-38.817783 29.812662 -3.821501
-27.390129 29.801546 -3.9804881
-36.579292 29.819735 -4.0285649
-33.269791 29.80344 -4.3823528
-32.190357 29.981701 -4.317173
-33.426849 29.856888 -4.5848742
-27.977684 29.887293 -4.7993922
-27.670151 29.907286 -5.5521531
-26.579458 29.905066 -5.503819
-32.002537 29.997229 -6.9769378
-31.032694 29.819651 -6.9059658
-26.341995 29.87369 -6.9507108
-27.625797 29.998299 -7.391932
-32.169914 29.80378 -8.2418566
-39.137573 30.018255 2.0111611
-28.314175 30.145737 2.123343
-22.539295 30.095392 -0.191443
-38.380661 30.097553 -0.59171802
-26.641491 30.111115 -0.63196301
-38.876564 30.138432 -0.97827101
-32.941826 30.043724 -0.87668103
-38.131004 30.044247 -1.07892
-37.890888 30.039719 -1.044475
-34.461395 30.048679 -1.0382479
-32.691425 30.158169 -1.076723
-39.31353 30.143154 -1.284304
-39.120399 30.079035 -1.241311
-34.419392 30.152283 -1.41857
-34.325226 30.115351 -1.4210939
-33.546291 30.061226 -1.795066
-27.451569 30.189827 -1.806971
-34.852333 30.163143 -2.518091
-33.819817 30.074181 -2.4800329
-33.308456 30.117498 -2.425791
-26.937899 30.134689 -2.7284191
-25.1898 30.043142 -2.6391251
-34.066319 30.167627 -3.1206081
-33.754719 30.193825 -3.76635
-24.078941 30.135674 -3.991694
-23.000092 30.006447 -3.948606
-39.332214 30.063831 -4.224556
-39.061455 30.007856 -4.2279868
-32.122017 30.121227 -4.2861891
-33.410992 30.052002 -4.5337472
-26.189367 30.059639 -4.599257
-28.269777 30.117359 -4.6037931
-27.694248 30.038952 -4.6031981
-25.130411 30.078596 -4.7425132
-28.362581 30.179604 -4.8892398
-26.644447 30.127762 -5.509912
-29.853401 30.199112 -6.2960958
-24.403454 30.053671 -6.2998862
-23.900002 30.043495 -6.3523002
-31.662233 30.124548 -6.9654799
-31.344009 30.066628 -6.942657
-29.801727 30.148434 -6.9154158
-27.431517 30.08305 -6.9327078
-27.090479 30.046181 -6.9257922
-27.716122 30.121014 -7.010139
-29.647327 30.18948 -7.7475181
-32.508335 30.13666 -8.2338905
-32.322662 30.275309 2.1319921
-27.540655 30.245998 2.001667
-27.031582 30.358055 2.005311
-35.069645 30.200193 1.92996
-33.496681 30.285055 1.672573
-25.335535 30.247952 0.095687002
-25.147511 30.301653 -0.0032259999
-38.060833 30.351185 -0.34908101
-24.025511 30.228155 -0.24939799
-23.674339 30.22776 -0.316149
-23.428003 30.295282 -0.37775201
-38.584122 30.280334 -0.61239302
-26.985878 30.223379 -0.660698
-28.065809 30.23757 -0.806472
-39.282097 30.253647 -1.09273
-37.410233 30.229208 -1.080582
-27.839954 30.208147 -1.056471
-37.928078 30.256145 -1.3518471
-27.820194 30.291939 -1.388273
-27.493738 30.221172 -1.331279
-28.022499 30.38385 -1.445366
-32.935879 30.351097 -1.73165
-37.696556 30.330105 -1.844313
-37.498203 30.240536 -1.87431
-34.100166 30.223051 -1.966808
-25.076183 30.262354 -1.949737
-24.97657 30.347666 -1.816309
-32.852867 30.34729 -2.0172451
-26.962183 30.2064 -2.175149
-25.80069 30.296463 -2.0343969
-27.233452 30.2687 -2.5826499
-38.906982 30.227501 -2.788563
-34.184349 30.372343 -2.6324389
-37.203388 30.307623 -3.091686
-36.945251 30.276865 -3.3411269
-32.506844 30.225389 -4.3636231
-35.24501 30.352325 -4.5515938
-34.0639 30.306061 -4.565578
-33.196053 30.28126 -4.5722342
-34.933765 30.34408 -5.2700229
-28.452045 30.258411 -5.4634209
-28.19315 30.217287 -5.6034732
-27.946918 30.22599 -5.633348
-30.58836 30.362049 -6.273396
-30.144995 30.343102 -6.2925081
-29.593784 30.382481 -6.3605442
-29.369747 30.388617 -6.9592838
-25.884167 30.251968 -7.0227909
-31.766138 30.322298 -7.3803802
-27.384384 30.339327 -7.7840171
-32.095955 30.252419 -8.491128
-28.486454 30.532904 2.144846
-25.346689 30.513634 0.103374
-38.761215 30.514925 -0.014587
-38.151417 30.49143 -0.494838
-38.752083 30.533848 -0.65592802
-37.96254 30.404881 -0.638569
-26.768719 30.504025 -0.661798
-27.961353 30.437864 -1.137622
-26.928366 30.581457 -1.022595
-38.4893 30.468477 -1.298359
-27.463928 30.464203 -1.33459
-26.475311 30.492905 -1.3439879
-32.784969 30.507219 -1.721887
-27.479525 30.461128 -1.661364
-27.766247 30.549547 -2.3007419
-25.855116 30.485264 -2.2166879
-27.386562 30.481449 -2.527359
-23.494555 30.491291 -2.5759809
-26.212421 30.538221 -3.3641701
-35.252869 30.599247 -4.6506939
-34.160011 30.426899 -4.8277912
-31.427273 30.464083 -5.574636
-32.167229 30.474707 -6.3690181
-30.912754 30.510798 -6.3221998
-30.151924 30.458307 -6.383379
-26.035538 30.411636 -6.2043948
-30.57411 30.474949 -7.0085669
-27.393627 30.536213 -7.823163
-27.757164 30.677719 2.027211
-27.163746 30.627493 2.0264039
-20.167198 30.673277 1.894276
-38.221962 30.732073 0.422961
-25.08242 30.635023 0.001101
-25.484787 30.673874 -0.002412
-24.132996 30.615242 -0.203706
-23.368412 30.689381 -0.37036401
-26.998711 30.748291 -0.56701702
-36.764816 30.608845 -1.19336
-36.709526 30.71418 -1.379967
-34.376934 30.744131 -1.490814
-37.611668 30.743921 -1.982862
-36.930573 30.736094 -1.8428071
-33.31501 30.693684 -1.8716739
-33.125732 30.612309 -1.858139
-38.268639 30.669411 -2.2735159
-28.032978 30.799366 -2.724257
-27.874975 30.686386 -2.6176691
-39.317753 30.615454 -2.8793991
-26.90929 30.74238 -3.3370769
-39.515018 30.78875 -4.0893168
-39.860485 30.662304 -4.6222591
-30.794888 30.733027 -4.9899502
-34.928524 30.632669 -5.4797258
-34.558323 30.677574 -5.592823
-33.812317 30.636208 -5.5657969
-33.472694 30.787718 -5.5869589
-33.780651 30.723637 -5.6260161
-33.494507 30.673473 -5.6488562
-30.625088 30.77615 -5.756947
-30.778412 30.602831 -6.3093929
-26.706053 30.764526 -6.3580489
-25.988052 30.782528 -6.3627629
-28.990665 30.796041 -6.4154472
-24.5425 30.693523 -6.9409308
-24.260845 30.662827 -6.9133592
-30.805332 30.692884 -7.7349858
-30.964401 30.794247 -8.0102873
-32.485214 30.684448 -8.2332525
-32.216442 30.720865 -8.2696829
-32.538712 30.731033 -8.4957094
-29.374832 30.746309 -8.8005657
-27.294472 30.881165 2.0458651
-26.046005 30.817488 2.039546
-38.230633 30.822138 0.243521
-25.350632 30.921822 0.098236002
-21.839611 30.972672 0.092147
-23.492985 30.875544 -0.448356
-39.269104 30.839855 -1.367105
-36.914375 30.961813 -1.428333
-26.825157 30.872833 -1.708836
-37.272461 30.834118 -1.89665
-37.011711 30.860149 -1.875052
-25.934811 30.947876 -2.509414
-36.794083 30.961544 -2.743474
-27.884138 30.996344 -2.963871
-25.781389 30.997557 -3.3654039
-24.372511 30.967506 -3.3540349
-26.617825 30.891294 -3.7351351
-26.386009 30.974724 -3.734601
-39.69783 30.80257 -4.023396
-35.242016 30.857079 -4.5584288
-33.146572 30.907925 -4.5942111
-34.257076 30.864159 -4.6307712
-32.181549 30.976547 -4.609674
-33.966187 30.863651 -4.8699098
-33.865768 30.950876 -5.513495
-26.409527 30.836164 -5.5858588
-34.158978 30.958204 -5.7959399
-33.901176 30.88476 -5.7474298
-32.820351 30.830601 -5.6468468
-28.76543 30.985422 -6.3965969
-26.490116 30.995329 -6.353724
-30.615919 30.907185 -7.8080101
-32.517776 30.92411 -8.3452253
-29.374681 30.984924 -8.8751945
-36.912628 31.094318 2.0506799
-28.291859 31.156639 2.186012
-27.723087 31.069977 2.071903
-27.344769 31.052277 2.062325
-23.050873 31.166954 2.0335121
-25.358505 31.103888 1.945279
-20.598099 31.075575 1.979664
-20.053047 31.069969 1.928914
-25.082016 31.018562 0.00208
-24.111874 31.036318 -0.209463
-23.389187 31.028061 -0.34561801
-36.650455 31.120481 -1.383593
-34.144226 31.156099 -1.340205
-27.265526 31.14172 -2.0636101
-23.693951 31.168394 -2.1059771
-39.331478 31.076025 -2.5076749
-28.048044 31.113899 -2.571914
-27.762121 31.018473 -2.644352
-28.113171 31.009678 -2.9649849
-25.728966 31.198397 -4.14184
-26.082821 31.107941 -4.5669031
-26.252029 31.015432 -4.8733678
-34.960278 31.006588 -5.5783572
-31.765738 31.115372 -5.617754
-34.489006 31.152454 -6.1716809
-28.279934 31.050709 -7.1775608
-31.363914 31.152489 -7.867754
-30.898191 31.106218 -7.8559151
-32.510422 31.001541 -8.451252
-32.238617 31.005266 -8.4763021
-31.623222 31.119057 -8.6532879
-31.416416 31.062365 -8.6148853
-38.751125 31.274315 2.1349349
-32.48175 31.319801 2.173661
-30.508352 31.248699 2.081146
-27.394691 31.229145 2.0795519
-32.366497 31.204016 1.997195
-20.809811 31.297749 1.978193
-33.3172 31.390491 1.670042
-33.024971 31.306339 1.713496
-25.340652 31.363953 0.12992901
-24.504683 31.322113 -0.196391
-20.475031 31.361319 -0.033004001
-37.29689 31.299913 -1.885164
-27.823311 31.208157 -1.80427
-39.457111 31.207022 -2.5185571
-28.22776 31.280418 -2.950228
-26.789707 31.226341 -3.735672
-26.258564 31.301464 -3.94292
-33.649563 31.299999 -4.5839748
-32.197083 31.313015 -4.5441051
-31.949596 31.355137 -4.5058808
-27.003506 31.353851 -4.4998279
-31.976116 31.237751 -4.939733
-26.595387 31.336189 -5.6562619
-29.996399 31.278269 -7.113143
-31.153721 31.204187 -7.870688
-33.084999 31.492706 2.1132009
-30.790693 31.46133 2.118741
-30.570532 31.427055 2.0826061
-27.890171 31.456076 2.115927
-27.427412 31.462765 2.1051691
-22.958618 31.552402 2.076298
-33.368885 31.453075 1.497123
-25.440371 31.488951 0.128052
-20.22654 31.413324 -0.169098
-24.002108 31.413538 -0.22530299
-23.342262 31.499138 -0.341813
-34.098454 31.488352 -1.11384
-38.227348 31.574272 -2.4692039
-23.079048 31.55143 -3.30738
-25.593756 31.522923 -4.159081
-35.610298 31.489756 -4.8098631
-35.429527 31.480686 -4.8146791
-26.503448 31.588846 -4.9284339
-31.803675 31.408173 -5.7980018
-26.372292 31.408426 -5.6452379
-34.014656 31.436998 -5.9326129
-30.33918 31.599741 -6.0913892
-27.713367 31.58683 -6.0504799
-20.206161 31.521582 -7.1123538
-20.092323 31.548626 -7.8855958
-27.542809 31.724625 2.1273329
-23.009846 31.654373 2.078872
-21.729799 31.780159 1.9577841
-33.614361 31.669117 1.707944
-33.507187 31.676807 1.734882
-32.776592 31.770449 1.7933379
-33.017624 31.763096 1.441476
-20.305788 31.710217 0.52467102
-24.505838 31.762478 -0.195903
-20.552631 31.613935 -0.034858
-20.332253 31.621193 -0.015725
-23.963079 31.794878 -0.21491
-38.155964 31.744692 -1.1455179
-35.338192 31.716072 -1.330601
-37.174751 31.729082 -1.887351
-38.193268 31.715157 -2.1339669
-35.099236 31.602013 -2.2032011
-38.289471 31.641388 -2.474782
-38.925484 31.791157 -2.913872
-39.570274 31.739616 -3.062757
-22.851866 31.643963 -3.378325
-25.055672 31.692804 -3.779726
-35.249954 31.761909 -4.177753
-27.268402 31.725903 -4.2897849
-26.308197 31.706619 -4.2549868
-37.534531 31.769945 -4.7825928
-36.574364 31.777266 -4.7470689
-36.210487 31.764273 -4.747963
-35.312698 31.701967 -4.6941061
-31.288441 31.729 -4.6828909
-27.412271 31.789864 -4.633523
-36.84914 31.788132 -4.8335242
-27.183826 31.741877 -4.8290768
-29.006601 31.726065 -6.1706848
-28.135086 31.643131 -6.0310531
-29.488983 31.739597 -7.1802411
-20.16127 31.623438 -7.9171438
-37.336624 31.803883 2.5608959
-28.034513 31.845619 2.1063261
-33.390144 31.845219 1.5095201
-20.178352 31.852142 0.84378099
-25.440063 31.92437 0.031622
-24.960247 31.956261 0.010953
-23.331566 31.875031 -0.33178899
-20.061531 31.844687 -0.96816897
-39.72036 31.815231 -1.1287481
-39.435631 31.817646 -1.1203671
-39.882717 31.948421 -1.267221
-39.031624 31.822931 -1.426124
-38.532181 31.862309 -1.950622
-37.263699 31.962616 -1.879998
-35.357635 31.839911 -1.977563
-35.054222 31.978207 -1.805445
-39.069149 31.976511 -2.5230851
-38.791634 31.939323 -2.793138
-39.816387 31.875198 -3.0110741
-32.674198 31.93853 -3.09743
-26.183842 31.852846 -3.742321
-26.909189 31.871197 -4.289782
-26.471203 31.815746 -4.2750468
-31.784386 31.864231 -4.5454211
-39.25383 31.896776 -4.7263551
-39.004642 31.889996 -4.7188368
-38.601723 31.889023 -4.694376
-38.321144 31.871622 -4.6868501
-37.73761 31.874519 -4.6865292
-37.49683 31.831745 -4.6908231
-37.107521 31.818703 -4.6416378
-39.308052 31.869102 -4.9487491
-37.900238 31.831085 -4.8593311
-37.585892 31.818363 -4.8513131
-30.95401 31.848866 -5.8217578
-30.313919 31.803017 -6.1067448
-29.482563 31.907965 -6.1576872
-27.423615 31.902367 -6.5669689
-33.508564 32.1632 2.1044731
-30.710241 32.168468 2.1401539
-22.803715 32.194962 2.0366321
-33.645267 32.182095 1.791671
-25.341434 32.177055 0.128922
-39.867054 32.093159 -2.8611491
-32.322983 32.0345 -3.0821481
-26.559813 32.182644 -3.4752581
-26.210449 32.11454 -3.8025179
-37.188957 32.181145 -4.2982922
-26.948181 32.149788 -4.2917261
-25.771454 32.097321 -4.2742538
-25.593359 32.086308 -4.263186
-35.847984 32.126045 -4.7496219
-27.701283 32.185219 -4.7586598
-32.231373 32.040844 -5.9242649
-20.900927 32.149685 -6.441021
-21.351543 32.193459 -6.6059971
-31.836521 32.093788 -8.6496773
-38.005112 32.320286 2.0259111
-35.765999 32.332478 2.0960679
-35.325829 32.380108 2.1947789
-27.827984 32.24733 2.167428
-39.283249 32.391708 1.914477
-38.29026 32.355682 1.882478
-36.929016 32.324402 1.924682
-36.182724 32.336914 1.800212
-32.937572 32.362701 1.822162
-20.068268 32.372662 1.999494
-38.616219 32.385223 1.795223
-37.541901 32.390732 1.745647
-33.358658 32.257538 1.762036
-23.084206 32.389866 1.718918
-33.38678 32.305939 1.544161
-36.777863 32.290787 1.138515
-20.134155 32.314564 0.56780201
-20.142763 32.373268 0.032257002
-24.415642 32.233406 -0.128501
-23.394653 32.303764 -0.31309301
-35.073936 32.334549 -0.86883599
-20.227915 32.222172 -1.022566
-37.214005 32.339867 -1.78369
-35.217186 32.383694 -2.8352721
-26.638647 32.272209 -3.802604
-31.448599 32.210247 -4.5621161
-36.170025 32.234467 -4.7521782
-33.033852 32.252621 -4.6207218
-26.742973 32.397362 -4.9662251
-30.851364 32.295979 -5.90379
-29.844635 32.224556 -5.9082179
-29.371309 32.376862 -6.579061
-28.682207 32.221783 -6.5340838
-27.780796 32.379864 -6.6459908
-32.203846 32.344582 -8.7191544
-36.262669 32.447594 2.2176869
-34.370743 32.462307 2.3141069
-38.644127 32.5868 2.0925939
-38.188843 32.558414 2.063534
-37.787712 32.536789 2.0669119
-37.49791 32.536682 2.1668639
-37.051956 32.525719 2.1682551
-36.651722 32.495132 2.1398699
-35.873581 32.459827 2.181803
-35.543621 32.439545 2.16205
-35.177094 32.424156 2.130141
-23.060869 32.531952 2.0390699
-39.322803 32.598141 1.829226
-39.061684 32.592388 1.900979
-38.644073 32.571388 1.869653
-38.148949 32.548676 1.829802
-37.888386 32.542835 1.8133349
-37.02504 32.505333 1.818046
-36.594425 32.483696 1.916967
-36.101082 32.465073 1.801613
-32.834923 32.55669 1.852432
-37.501354 32.545769 1.795373
-35.893478 32.473759 1.703341
-35.477695 32.452011 1.747727
-33.404434 32.519463 1.7708451
-38.976433 32.596073 1.351131
-38.534843 32.578457 1.3765661
-38.126854 32.587547 1.266555
-37.862522 32.56316 1.356531
-36.517879 32.524178 1.267359
-36.163971 32.498936 1.370183
-35.836487 32.487923 1.3953
-35.406525 32.467339 1.388705
-35.158726 32.453125 1.3993191
