# .PCD v0.7 - Point Cloud Data file format
VERSION 0.7
FIELDS x y z
SIZE 4 4 4
TYPE F F F
COUNT 1 1 1
WIDTH 1467
HEIGHT 1
VIEWPOINT 0 0 0 1 0 0 0
POINTS 1467
DATA ascii
-50.613171 -258.61737 -7.2542739
-47.906132 -258.70468 -7.2686148
-47.019035 -258.64288 -7.2583332
-46.238731 -258.66125 -7.266171
-46.314396 -258.62881 -9.7179966
-43.269707 -258.61566 -10.726542
-42.609276 -258.7052 -10.975058
-44.860588 -258.69104 -11.291504
-45.848114 -258.68707 -11.419146
-44.703316 -258.70868 -11.462526
-44.375652 -258.63348 -11.48476
-59.957466 -258.75018 -11.865355
-45.90905 -258.75891 -11.840073
-45.759331 -258.75827 -11.925778
-42.755875 -258.60193 -11.928056
-59.890694 -258.68054 -12.155195
-42.905632 -258.63507 -12.184868
-59.864178 -258.69913 -12.233961
-45.936962 -258.65216 -12.536088
-59.957664 -258.64017 -12.992298
-44.326988 -258.60516 -13.133414
-45.671104 -258.62094 -13.288082
-44.489319 -258.61172 -13.361811
-42.282749 -258.69778 -13.439616
-57.699726 -258.61813 -14.560627
-56.599941 -258.6611 -14.498973
-43.741928 -258.69025 -14.477081
-51.40012 -258.53168 -7.2728019
-45.018421 -258.59802 -7.2443981
-56.832661 -258.57205 -7.543972
-56.989819 -258.49829 -7.6270089
-56.794949 -258.55219 -8.0432167
-46.256458 -258.51257 -9.3994961
-46.504494 -258.53363 -9.48382
-43.271118 -258.49438 -10.257551
-43.00914 -258.58185 -10.251478
-41.815346 -258.53748 -10.341588
-59.907482 -258.52698 -10.647598
-41.305637 -258.5592 -10.615128
-44.611069 -258.54962 -11.09835
-44.340477 -258.43951 -11.099905
-46.160587 -258.51959 -11.372694
-59.910275 -258.55923 -11.446321
-46.49231 -258.47314 -11.42388
-41.687225 -258.58173 -11.738823
-40.882362 -258.54395 -11.919448
-40.273258 -258.52234 -11.86065
-45.103554 -258.59473 -13.300304
-44.568008 -258.52655 -13.371594
-44.24419 -258.51917 -13.365325
-44.372986 -258.46613 -13.44094
-40.451366 -258.54968 -14.150467
-45.579121 -258.54782 -14.866568
-54.969219 -258.31622 -7.3373008
-53.054905 -258.31531 -7.24683
-51.718739 -258.33008 -7.2624512
-47.427231 -258.2298 -7.2816372
-43.51078 -258.27881 -7.2407589
-59.254452 -258.22809 -7.4094129
-57.082985 -258.29126 -7.4102168
-57.394684 -258.24918 -7.6710601
-46.28426 -258.26865 -9.4526882
-46.313118 -258.25494 -9.6520309
-40.964706 -258.2713 -10.718586
-40.773453 -258.24414 -10.659191
-46.827843 -258.32965 -11.321482
-46.593929 -258.24863 -11.324654
-43.829323 -258.24988 -11.468142
-43.454075 -258.28818 -11.835793
-45.494347 -258.21503 -12.25115
-45.392296 -258.23334 -12.273402
-45.156708 -258.29721 -12.492281
-44.505653 -258.29633 -13.470179
-44.437828 -258.08777 -7.1813722
-57.743881 -258.13968 -7.3469129
-56.493523 -258.15521 -7.3441901
-55.906067 -258.17999 -7.2899599
-54.573105 -258.19666 -7.298285
-52.559933 -258.14551 -7.2613788
-50.134583 -258.12012 -7.2669239
-49.503971 -258.09631 -7.2979059
-47.000366 -258.07166 -7.2707529
-46.547489 -258.00125 -7.2603078
-45.803398 -258.17383 -7.2490969
-44.88485 -258.09628 -7.2389531
-45.099785 -258.09772 -10.378904
-44.997894 -258.06006 -10.615444
-44.531807 -258.08755 -10.622061
-41.908974 -258.14355 -10.630678
-44.990639 -258.04254 -10.817417
-44.455109 -258.07819 -10.933837
-44.311935 -258.04639 -11.110546
-44.242615 -258.15256 -11.433765
-41.020081 -258.14975 -11.466134
-45.91584 -258.03232 -12.370653
-45.747086 -258.06317 -12.275875
-43.100212 -258.10242 -12.350277
-46.017929 -258.03012 -12.476171
-43.245476 -258.07074 -12.627695
-42.027843 -258.1402 -14.693646
-40.852089 -258.12769 -14.850168
-41.86908 -258.08505 -15.026224
-42.143127 -258.12369 -15.278595
-58.202541 -257.8085 -7.383595
-57.772026 -257.84506 -7.3471489
-56.661247 -257.89886 -7.3007722
-56.141273 -257.83087 -7.2568498
-55.392609 -257.81537 -7.3359489
-54.157295 -257.95834 -7.2504139
-52.189522 -257.96457 -7.302597
-48.049515 -257.80618 -7.2595749
-47.793354 -257.86591 -7.2750549
-46.998455 -257.8689 -7.2419648
-46.207367 -257.94696 -7.257791
-42.959545 -257.89981 -7.2570319
-44.99614 -257.84567 -10.383734
-45.236317 -257.83557 -10.479429
-44.937256 -257.88995 -10.716331
-44.468174 -257.86896 -10.743317
-44.25293 -257.80264 -10.757121
-44.23217 -257.80719 -10.888451
-43.984219 -257.81714 -10.857921
-44.085709 -257.84366 -11.329709
-41.009205 -257.92584 -11.254866
-44.095535 -257.80304 -11.418226
-44.468468 -257.8757 -11.64715
-43.238083 -257.93237 -12.373531
-44.309547 -257.86166 -13.462019
-43.356922 -257.94724 -15.295895
-41.939835 -257.93604 -15.347007
-42.119495 -257.88654 -15.404152
-56.380829 -257.62399 -7.214426
-40.223282 -257.76855 -7.2395968
-45.10672 -257.79953 -10.376486
-43.775196 -257.7561 -10.246662
-43.923584 -257.76019 -10.657933
-59.833927 -257.77695 -11.033787
-43.988159 -257.62262 -12.70657
-56.933743 -257.71829 -13.380333
-40.596809 -257.70508 -14.567798
-43.772385 -257.68164 -15.174393
-43.446281 -257.67383 -15.322267
-57.902821 -257.49237 -7.3055782
-56.958252 -257.41385 -7.2619648
-56.744453 -257.54517 -7.2793889
-54.943905 -257.50241 -7.2671518
-48.861477 -257.48511 -7.224442
-46.673801 -257.53638 -7.240561
-58.130997 -257.48422 -7.7027569
-59.920708 -257.44275 -10.547796
-59.440887 -257.44226 -10.746614
-44.109329 -257.55035 -10.668768
-41.706383 -257.58838 -10.60996
-44.320164 -257.54019 -12.934319
-57.845234 -257.45126 -13.728951
-56.636936 -257.44495 -14.392729
-42.164097 -257.44385 -14.433693
-40.352013 -257.36346 -7.1736121
-59.702972 -257.24719 -7.2975788
-58.627151 -257.34116 -7.315125
-58.263138 -257.28314 -7.335568
-57.760197 -257.3252 -7.275085
-57.359829 -257.32861 -7.269104
-54.298027 -257.3909 -7.2765698
-40.190712 -257.3891 -7.2267642
-59.586147 -257.29169 -7.4499168
-58.090805 -257.36804 -7.472383
-59.810135 -257.3894 -7.7572751
-58.631798 -257.24924 -7.727942
-58.271038 -257.29828 -7.7287912
-42.416927 -257.27399 -7.9836211
-59.777267 -257.28165 -10.058052
-59.328194 -257.33121 -10.928739
-58.317841 -257.28326 -12.499723
-41.804569 -257.29053 -13.967323
-42.116806 -257.34515 -14.165098
-41.28746 -257.34766 -15.45284
-41.308784 -257.24808 -15.634663
-40.095455 -257.04602 -7.1684861
-59.954445 -257.1333 -7.3006248
-59.058197 -257.10791 -7.35426
-58.6968 -257.13797 -7.3457642
-58.30407 -257.10809 -7.3272991
-57.801262 -257.02417 -7.2801838
-54.30674 -257.03485 -7.269537
-43.157326 -257.08557 -7.3171682
-59.262367 -257.05453 -7.4290781
-43.63884 -257.02118 -7.4296989
-43.474869 -257.0386 -7.4045348
-59.418625 -257.02963 -7.7328391
-59.057335 -257.13989 -7.7338948
-58.75843 -257.19305 -7.783493
-43.182842 -257.1207 -8.0480652
-59.367683 -257.04068 -10.24024
-59.01516 -257.00027 -10.949899
-44.388908 -257.10782 -12.598988
-44.580872 -257.03531 -12.894031
-57.756351 -257.05347 -13.156593
-59.43782 -256.99603 -7.2651281
-54.472717 -256.86313 -7.2760959
-50.80172 -256.99396 -7.2849288
-45.455032 -256.81561 -7.3735218
-44.6987 -256.82446 -7.333364
-44.17458 -256.89331 -7.2773809
-59.492126 -256.99799 -7.7426729
-44.155602 -256.84515 -8.105545
-43.24292 -256.9256 -8.2189617
-42.586651 -256.92596 -8.3752384
-59.79528 -256.94742 -9.5580902
-59.930836 -256.97119 -9.7309837
-59.781258 -256.97717 -10.218158
-59.375603 -256.99405 -10.635878
-59.050823 -256.91907 -10.623316
-59.343689 -256.95734 -10.931452
-58.423363 -256.89536 -12.107096
-56.879059 -256.92639 -12.850714
-59.572655 -256.85364 -13.071396
-59.747646 -256.95346 -13.334907
-57.856483 -256.99088 -13.304881
-59.657959 -256.62616 -7.2503662
-55.878399 -256.72754 -7.2975121
-55.753044 -256.7406 -7.2806468
-49.899712 -256.60931 -7.239471
-44.686424 -256.72491 -7.2610331
-45.441322 -256.61597 -7.7553778
-45.016041 -256.6958 -7.881875
-44.651741 -256.77783 -7.859643
-44.878746 -256.67722 -8.0504036
-44.620434 -256.69275 -8.0844202
-42.509426 -256.78641 -8.4229603
-59.845695 -256.75458 -9.4240742
-59.059082 -256.64026 -12.899606
-44.16922 -256.621 -12.802614
-58.123734 -256.52271 -7.2658601
-53.835602 -256.50937 -7.2459178
-52.613983 -256.50409 -7.25173
-51.129356 -256.52344 -7.2411528
-50.772678 -256.5062 -7.235518
-46.004631 -256.47241 -7.3117762
-45.997128 -256.52969 -7.5278821
-45.395264 -256.59372 -7.4789948
-45.751793 -256.53125 -7.7852039
-46.117714 -256.48502 -7.8759112
-45.438148 -256.55957 -8.0641422
-59.536903 -256.47961 -9.4985085
-59.770157 -256.51218 -10.166885
-59.740807 -256.53531 -10.871173
-58.770432 -256.59113 -12.530483
-44.480686 -256.57935 -12.978946
-58.940605 -256.42725 -13.399155
-56.538406 -256.42343 -14.285528
-56.280746 -256.48636 -14.288854
-56.545742 -256.58292 -14.551074
-55.065781 -256.23438 -7.2506042
-53.668858 -256.38449 -7.220006
-53.245926 -256.33292 -7.234251
-47.058025 -256.2052 -7.7145252
-46.315727 -256.38104 -7.9340639
-59.360298 -256.20209 -9.5316896
-59.664318 -256.24393 -9.8125019
-59.416626 -256.22372 -10.182048
-58.937778 -256.30408 -10.388094
-58.727608 -256.3284 -12.17514
-58.273247 -256.39087 -12.145598
-59.847 -256.27524 -12.719482
-44.421303 -256.39679 -12.716094
-58.761635 -256.26724 -14.519932
-56.954239 -256.01709 -7.1956491
-41.113708 -256.11743 -7.13555
-59.040417 -256.14175 -7.2914672
-50.973396 -256.0686 -7.216682
-49.873886 -256.17072 -7.2556181
-47.123058 -256.12201 -7.362453
-48.498627 -256.1358 -7.478281
-48.314186 -256.06421 -7.537755
-47.735161 -256.11304 -7.4529481
-47.535034 -256.15936 -7.4252419
-48.173908 -256.01785 -7.692524
-47.71706 -256.10535 -7.8384628
-47.365448 -256.16003 -7.8856511
-48.207504 -256.08411 -8.0347109
-43.615486 -256.06152 -8.1285343
-43.3018 -256.09448 -8.2405119
-47.482018 -256.1348 -9.0729303
-46.93367 -256.13867 -9.0130663
-59.645897 -256.17715 -9.556633
-59.575645 -256.19916 -9.5452499
-47.530464 -256.13123 -9.4008999
-59.464844 -256.19193 -9.7316904
-47.035378 -256.05368 -9.7104549
-59.672012 -256.12964 -10.67079
-56.078346 -256.12466 -13.719765
-53.270508 -255.8205 -7.1989002
-52.897041 -255.85367 -7.1816268
-59.755032 -255.91237 -7.3044419
-58.19635 -255.81953 -7.2619352
-57.743732 -255.9332 -7.2402649
-54.53611 -255.90073 -7.2429509
-48.499279 -255.80998 -7.3389902
-48.198997 -255.81723 -7.340167
-47.003529 -255.88744 -7.6792388
-48.348198 -255.92175 -7.944087
-48.163284 -255.95746 -7.8528938
-47.927269 -255.88907 -7.8573222
-47.314915 -255.8224 -8.052762
-47.772415 -255.84305 -8.9104385
-47.434948 -255.83411 -8.9361382
-59.56625 -255.93707 -9.5161438
-59.370872 -255.89706 -9.6594524
-59.515274 -255.85687 -10.500969
-58.841236 -255.80754 -13.501138
-52.583092 -255.76605 -7.185607
-55.779255 -255.71275 -7.2580328
-50.292091 -255.73056 -7.2376342
-49.795967 -255.66496 -7.3062739
-47.411053 -255.73505 -7.3944678
-45.505836 -255.70689 -7.302835
-49.534073 -255.68578 -7.4181709
-47.080807 -255.71545 -7.494669
-45.128452 -255.64583 -7.4252329
-50.023067 -255.61765 -7.7205448
-49.722801 -255.62686 -7.6831851
-47.302319 -255.78452 -7.7610221
-49.554623 -255.66782 -7.8639598
-47.967941 -255.76242 -7.9138241
-45.17004 -255.65144 -7.9667988
-45.086044 -255.63118 -8.0079689
-44.352894 -255.78816 -8.3160086
-47.303795 -255.78877 -8.5139656
-47.67812 -255.69576 -8.7519035
-47.239803 -255.77522 -8.7726908
-47.05864 -255.68733 -8.7702112
-47.161041 -255.73697 -9.4021978
-44.231728 -255.66953 -9.8616428
-59.637802 -255.74336 -10.551937
-45.535011 -255.73161 -10.505913
-45.283684 -255.7186 -10.68408
-58.699497 -255.72913 -13.132343
-56.659 -255.78714 -13.376551
-56.216919 -255.77759 -13.634426
-57.065792 -255.71439 -14.180206
-53.130665 -255.57365 -7.1709738
-57.824558 -255.42877 -7.2605758
-49.776966 -255.46904 -7.227057
-49.240417 -255.4357 -7.2642159
-48.735592 -255.42696 -7.2564688
-48.385155 -255.59845 -7.2844772
-47.321743 -255.40047 -7.3305459
-45.358719 -255.42847 -7.2467961
-45.057255 -255.40643 -7.2929921
-46.978355 -255.51648 -7.531527
-50.990547 -255.44263 -7.7213898
-50.164951 -255.43428 -7.691237
-49.769409 -255.52911 -7.6870961
-44.332485 -255.44983 -7.862566
-49.826557 -255.4053 -8.0254765
-44.66293 -255.5024 -8.0011988
-45.362831 -255.40323 -8.4740934
-44.058792 -255.49898 -8.5412178
-45.742443 -255.50085 -8.7602158
-45.699902 -255.55682 -8.8276882
-46.983597 -255.5513 -9.2501249
-44.258095 -255.42575 -9.3083858
-45.124359 -255.42671 -9.5146503
-44.959564 -255.43381 -10.052549
-52.063782 -255.25395 -7.147243
-43.038258 -255.33652 -7.1248412
-41.458336 -255.30554 -7.1125669
-50.596809 -255.3812 -7.3008442
-44.765396 -255.32066 -7.307694
-50.967468 -255.38452 -7.5072408
-50.085804 -255.37849 -7.4588699
-50.658379 -255.39333 -7.6943169
-45.011898 -255.30104 -7.863163
-44.512188 -255.26855 -7.8769631
-50.32164 -255.38522 -8.1897707
-49.789471 -255.20113 -8.0426989
-45.092278 -255.34528 -8.0602493
-44.404812 -255.26001 -8.1763859
-45.41629 -255.28387 -8.3783474
-45.33934 -255.31026 -8.3306913
-44.32452 -255.28931 -8.3404369
-50.32531 -255.3299 -8.5901737
-45.427933 -255.37955 -8.4445925
-44.167053 -255.25677 -8.4990473
-45.300701 -255.25452 -8.7912378
-50.324512 -255.33838 -8.8260689
-45.642357 -255.293 -8.923954
-44.630226 -255.26135 -9.0958672
-44.897762 -255.31677 -9.9667435
-56.389908 -255.38295 -13.343624
-56.891518 -255.29788 -13.523735
-57.028236 -255.01187 -7.1752472
-56.282539 -255.15192 -7.1871409
-45.385506 -255.1478 -7.1935358
-43.459145 -255.12512 -7.10115
-54.64843 -255.02834 -7.209115
-50.220692 -255.17366 -7.3245101
-48.526852 -255.07828 -7.231503
-50.31583 -255.13495 -7.4968758
-44.693138 -255.19507 -7.5086889
-49.952785 -255.12473 -7.6891131
-44.904987 -255.17377 -7.6940842
-44.651096 -255.18437 -7.7495041
-49.849205 -255.12503 -7.8547101
-47.0214 -255.12401 -7.868319
-46.451912 -255.08524 -7.8522749
-44.929932 -255.18378 -7.914516
-44.563339 -255.16508 -7.9293828
-49.81292 -255.12044 -8.1099243
-46.879501 -255.02927 -8.022459
-44.651588 -255.17198 -8.0427742
-45.077602 -255.11728 -8.2899132
-44.654457 -255.11674 -8.2961435
-45.412937 -255.19638 -8.4778261
-44.975426 -255.04318 -8.4197931
-50.128181 -255.07788 -8.6784735
-44.856335 -255.05798 -9.3444414
-44.644829 -255.0134 -9.379673
-44.558502 -255.1172 -9.3063297
-44.973644 -255.13342 -9.4179993
-45.096783 -255.04654 -9.8934994
-44.915253 -255.12549 -10.082251
-44.690636 -255.05588 -10.044235
-45.261806 -255.04816 -10.869033
-44.500317 -255.08414 -10.963528
-52.257957 -254.84203 -7.1523428
-51.320576 -254.95432 -7.1700578
-49.998898 -254.86394 -7.1757469
-48.845131 -254.86134 -7.197515
-47.645573 -254.93604 -7.1818781
-46.528183 -254.8484 -7.1818538
-59.253262 -254.86414 -7.2767248
-46.304115 -254.91071 -7.2256341
-40.829643 -254.96036 -7.2956529
-46.672028 -254.82593 -7.4966178
-50.347763 -254.95332 -7.7170548
-50.440308 -254.85173 -7.9362192
-50.376621 -254.86337 -7.993186
-46.646584 -254.98167 -7.9163661
-50.326897 -254.9375 -8.1866541
-50.512154 -254.86353 -8.2015333
-44.787041 -254.9935 -8.3996944
-44.836517 -254.93631 -8.4654331
-44.857491 -254.83151 -8.7792282
-43.948853 -254.9144 -8.7381191
-45.129967 -254.94165 -8.9171534
-44.626263 -254.97847 -10.084694
-59.89563 -254.91199 -11.424494
-53.592781 -254.7662 -7.1705461
-50.656418 -254.62404 -7.1808481
-41.395657 -254.6282 -7.1415448
-40.993664 -254.60004 -7.1177478
-59.406479 -254.61156 -7.2718058
-58.986343 -254.74171 -7.2557149
-58.194595 -254.71738 -7.2116551
-46.650211 -254.73224 -7.4691472
-53.09449 -254.70035 -7.8817301
-46.702148 -254.66785 -7.882103
-53.083931 -254.63522 -8.2840948
-52.774292 -254.64633 -8.2705603
-50.434692 -254.78654 -8.2145023
-50.497681 -254.7193 -8.519268
-50.386894 -254.7429 -8.5227127
-44.513054 -254.76843 -8.7672062
-44.923889 -254.74365 -9.2802572
-44.135838 -254.76556 -10.562851
-57.362488 -254.44406 -7.1805568
-55.736458 -254.49361 -7.1815071
-54.646214 -254.56345 -7.1720982
-53.848869 -254.58144 -7.1613331
-52.066292 -254.53625 -7.1865492
-51.875275 -254.53999 -7.1674948
-51.429405 -254.5098 -7.1675768
-51.07637 -254.53284 -7.1611319
-48.508934 -254.54297 -7.1966982
-48.114037 -254.50731 -7.1851101
-46.984257 -254.58928 -7.1587639
-46.028831 -254.47488 -7.1695261
-44.916435 -254.54916 -7.1768961
-59.802376 -254.59418 -7.2619681
-57.381927 -254.4469 -7.206635
-53.4944 -254.4416 -7.2548938
-40.804974 -254.57214 -7.3819809
-40.645344 -254.55898 -7.3307428
-53.362968 -254.58366 -7.7971611
-53.445305 -254.47916 -8.1967697
-53.678173 -254.44556 -8.7696075
-53.456078 -254.53122 -8.7344389
-53.668266 -254.43588 -8.8597097
-53.378082 -254.567 -8.9128361
-52.937119 -254.5119 -9.1344194
-44.464836 -254.55951 -10.634287
-57.468102 -254.4119 -12.997902
-53.534088 -254.38608 -7.1932788
-52.039875 -254.25267 -7.1349912
-51.783829 -254.21234 -7.1731172
-51.40065 -254.28099 -7.1413732
-51.01899 -254.24753 -7.1800728
-50.684242 -254.21341 -7.1653328
-47.811852 -254.20145 -7.16399
-46.914391 -254.31406 -7.1546741
-45.428642 -254.25293 -7.1255951
-40.298557 -254.343 -7.135035
-53.263275 -254.2444 -7.3450408
-53.162304 -254.32448 -7.3679719
-52.666149 -254.30226 -7.2180848
-48.148609 -254.28922 -7.206171
-53.200092 -254.27361 -7.5406098
-47.082024 -254.20282 -7.4345851
-53.272327 -254.30011 -7.666327
-53.4534 -254.28462 -8.2877617
-53.37413 -254.34573 -8.8833866
-53.068817 -254.29825 -9.0973511
-53.068512 -254.35858 -9.232379
-57.320946 -254.2867 -12.842524
-57.791191 -254.11969 -7.1792889
-55.940567 -254.0518 -7.1714902
-55.763977 -254.06041 -7.1773028
-55.395153 -254.05736 -7.1705928
-55.006378 -254.11963 -7.1716771
-52.879662 -254.12109 -7.1719489
-50.720665 -254.09888 -7.1756449
-50.147026 -254.17557 -7.1998062
-48.142906 -254.16864 -7.1811738
-43.908638 -254.12801 -7.1509652
-56.558498 -254.02411 -7.2569871
-53.020958 -254.1805 -7.3086119
-47.656914 -254.18864 -7.2196259
-47.439255 -254.05959 -7.5058331
-53.08987 -254.18576 -7.7863712
-47.448158 -254.05215 -7.8823762
-53.334267 -254.15828 -8.1953354
-52.86235 -254.10478 -8.158555
-53.028595 -254.07321 -8.2199392
-53.4161 -254.15668 -8.7315369
-53.08395 -254.04427 -8.7415314
-52.953953 -254.07864 -8.7120237
-52.771729 -254.1582 -8.8644772
-53.494286 -253.82993 -7.1716571
-52.975677 -253.81378 -7.1397519
-52.624619 -253.85536 -7.1327691
-52.253128 -253.88577 -7.1258602
-50.906422 -253.85791 -7.1499538
-50.390911 -253.98886 -7.1222229
-50.108368 -253.90057 -7.1502161
-47.800373 -253.81384 -7.1711469
-45.397148 -253.89227 -7.1376629
-44.685783 -253.92816 -7.1117039
-40.888172 -253.87379 -7.136651
-46.68581 -253.84344 -7.3511629
-47.500114 -253.90524 -7.4328651
-53.172813 -253.96243 -8.28298
-53.081131 -253.9613 -8.7294521
-52.825226 -253.96973 -8.7689457
-57.712078 -253.80014 -13.13032
-59.839668 -253.75546 -7.1878872
-59.377464 -253.77097 -7.170434
-59.018997 -253.76907 -7.1846542
-57.808395 -253.64871 -7.146956
-55.462845 -253.76503 -7.1532259
-53.829296 -253.7377 -7.1634402
-53.097801 -253.68179 -7.140317
-51.904709 -253.72818 -7.12711
-49.794979 -253.74551 -7.1367159
-48.586082 -253.71002 -7.16681
-48.128647 -253.76718 -7.1539769
-44.251747 -253.71259 -7.1275311
-43.857483 -253.76744 -7.130496
-57.010426 -253.71045 -7.2207208
-45.455612 -253.78456 -7.3475032
-42.269878 -253.71045 -7.371892
-40.472527 -253.71497 -7.2798872
-59.045868 -253.72678 -13.581602
-55.775635 -253.75961 -13.981381
-56.114037 -253.60782 -14.142469
-59.894871 -253.40543 -7.1742949
-58.360909 -253.50656 -7.1665168
-53.926849 -253.44501 -7.114748
-52.934464 -253.44507 -7.1415048
-52.746643 -253.50856 -7.1478119
-51.524254 -253.48451 -7.145319
-51.109936 -253.43182 -7.1395249
-49.357647 -253.43153 -7.1247859
-48.982765 -253.50552 -7.1402192
-47.713341 -253.59064 -7.174993
-56.937351 -253.59366 -7.2221522
-42.427517 -253.47635 -7.3573861
-40.358276 -253.45277 -7.3013768
-42.106422 -253.46529 -7.5105891
-42.505913 -253.41652 -7.8598032
-59.703117 -253.57617 -13.055963
-57.318737 -253.47816 -13.360898
-56.089905 -253.51074 -13.791126
-54.552349 -253.30762 -7.1498122
-54.155914 -253.30222 -7.1289511
-53.685516 -253.33292 -7.148417
-51.79929 -253.34375 -7.1465302
-48.378971 -253.32875 -7.1711178
-46.994835 -253.33185 -7.140974
-45.876068 -253.37251 -7.1256809
-44.975693 -253.34283 -7.1011629
-44.578773 -253.25488 -7.1056199
-41.429832 -253.32027 -7.0778742
-56.939453 -253.28278 -7.3388438
-56.634003 -253.3298 -7.2949309
-56.751984 -253.24074 -7.4754419
-42.46735 -253.24622 -7.4397478
-56.881241 -253.20798 -7.7277989
-42.532833 -253.30081 -7.700809
-42.318016 -253.23697 -7.7295871
-42.074417 -253.25967 -7.7466912
-56.849998 -253.24321 -7.8652492
-56.744949 -253.24583 -7.892097
-42.103561 -253.29083 -7.8413072
-56.822289 -253.26573 -8.1696186
-56.834137 -253.27766 -8.294611
-56.830711 -253.25133 -8.7549105
-56.781593 -253.25214 -8.6857176
-56.81543 -253.24347 -9.0701437
-43.149075 -253.25407 -9.3370457
-56.829094 -253.25177 -9.5150995
-56.767929 -253.21207 -9.7182837
-56.809776 -253.21909 -9.9025116
-43.359024 -253.31131 -9.8407097
-56.817604 -253.22884 -10.130466
-56.736382 -253.22823 -10.029073
-56.760883 -253.21584 -10.31661
-59.369488 -253.3253 -11.555952
-57.353714 -253.29759 -12.730944
-59.776367 -253.08012 -7.1806211
-55.723564 -253.05682 -7.161684
-51.495087 -253.06711 -7.1342568
-51.011127 -253.00793 -7.1071849
-50.582413 -253.03081 -7.1181588
-49.018276 -253.0643 -7.1196408
-48.827518 -253.18591 -7.1302242
-46.200989 -253.0771 -7.1141491
-56.889557 -253.14355 -7.2680521
-56.710289 -253.17175 -7.2589698
-42.277611 -253.1181 -7.352417
-40.266048 -253.0034 -7.2499642
-42.390606 -253.19272 -7.5182638
-56.808464 -253.14032 -7.6630969
-56.759071 -253.17706 -7.718051
-56.823868 -253.15608 -7.8404222
-56.741447 -253.19037 -9.8869686
-43.6623 -253.08322 -10.002369
-43.525246 -253.01636 -10.008333
-56.743435 -253.19992 -10.585182
-54.843975 -253.02751 -13.801146
-59.425323 -252.95898 -7.1836791
-59.010735 -252.94855 -7.1805491
-56.468788 -252.90634 -7.187222
-56.136124 -252.99461 -7.1755252
-52.059639 -252.96964 -7.135603
-51.783905 -252.97168 -7.1257129
-50.158096 -252.98749 -7.1179538
-48.636414 -252.96368 -7.1425571
-48.250992 -252.9149 -7.1577601
-48.118534 -252.9501 -7.1112852
-44.972256 -252.92859 -7.1006589
-41.073425 -252.83376 -7.0159688
-40.236778 -252.98689 -7.1531768
-43.695816 -252.9261 -9.9742355
-43.487019 -252.9364 -9.976305
-59.33371 -252.9792 -11.731205
-59.457169 -252.95184 -12.206079
-55.533329 -252.84103 -14.339319
-55.986523 -252.62546 -7.1518641
-55.052055 -252.6013 -7.1647902
-54.1465 -252.71814 -7.1238198
-51.844482 -252.74203 -7.1290898
-51.467636 -252.68593 -7.0819831
-50.95491 -252.70198 -7.0607738
-50.571678 -252.70282 -7.077867
-50.036831 -252.78998 -7.1236849
-49.83873 -252.73969 -7.1174421
-49.348869 -252.71616 -7.1030641
-46.647884 -252.63123 -7.4738512
-46.112534 -252.66116 -8.0325327
-43.1343 -252.63055 -9.5578718
-43.288315 -252.65486 -9.6665039
-43.663109 -252.61618 -9.9776602
-42.924667 -252.60605 -9.8739986
-43.503021 -252.61385 -10.007508
-42.65802 -252.7038 -10.037479
-57.529282 -252.673 -13.704355
-59.050865 -252.48282 -7.181314
-58.470501 -252.58543 -7.1830478
-57.329994 -252.50562 -7.1673169
-55.796879 -252.49933 -7.1546988
-47.750412 -252.51295 -7.097003
-45.30666 -252.5274 -7.1597228
-44.593239 -252.52896 -7.0900431
-41.065315 -252.49825 -7.0697489
-40.191833 -252.51971 -7.152245
-45.297745 -252.56137 -7.2825689
-45.179188 -252.50726 -7.2992558
-41.211212 -252.48169 -7.278748
-40.145985 -252.56709 -7.2679
-47.672279 -252.46461 -7.4172301
-40.665855 -252.45877 -7.8872838
-40.996269 -252.43146 -8.1786232
-40.693268 -252.58247 -8.0677681
-43.675133 -252.49655 -9.9739761
-43.47081 -252.58002 -9.8939438
-45.097282 -252.47049 -10.17541
-43.751762 -252.59956 -10.079171
-45.012993 -252.51552 -10.232218
-44.632862 -252.56909 -10.60486
-43.318001 -252.45045 -11.133392
-42.886051 -252.53516 -11.140409
-59.094398 -252.58844 -11.469771
-59.95224 -252.46101 -12.838793
-59.067749 -252.53981 -13.666223
-55.302933 -252.57016 -13.841392
-58.496338 -252.25455 -7.1381249
-57.827888 -252.29779 -7.133708
-56.274952 -252.22589 -7.151957
-55.77039 -252.26089 -7.1342058
-55.472862 -252.25189 -7.118052
-48.937435 -252.2364 -7.1433129
-48.391216 -252.38342 -7.0738649
-47.706947 -252.24043 -7.068634
-46.280258 -252.26015 -7.11304
-42.849644 -252.36043 -7.0385599
-41.833683 -252.20979 -7.046288
-41.286095 -252.33391 -7.1172462
-46.320175 -252.27206 -7.7108359
-40.890396 -252.32805 -8.0587616
-43.705109 -252.23024 -9.7153406
-43.721157 -252.27313 -9.9220285
-42.904739 -252.21339 -9.8224401
-42.657455 -252.22487 -9.9517498
-44.951176 -252.21581 -10.354383
-45.068535 -252.25797 -10.529039
-44.668633 -252.21768 -10.560011
-42.348869 -252.30728 -10.674881
-42.842293 -252.32733 -11.042088
-59.707458 -252.30074 -11.709738
-57.021442 -252.14525 -7.1453052
-53.32103 -252.0932 -7.1006799
-52.135101 -252.04686 -7.0530992
-51.797558 -252.1993 -7.061007
-51.423019 -252.08301 -7.117712
-50.632118 -252.05133 -7.055902
-49.439407 -252.17532 -7.1283398
-48.671104 -252.10275 -7.150362
-40.040588 -252.15765 -7.1458769
-46.19875 -252.12305 -7.3843508
-40.105099 -252.12369 -7.3983798
-40.486282 -252.12889 -7.4429479
-40.221611 -252.17212 -7.6948652
-40.89735 -252.1311 -7.8707871
-40.713043 -252.10341 -7.880631
-40.491356 -252.13989 -8.0461512
-45.892979 -252.02603 -8.3011045
-43.855736 -252.18541 -9.4306068
-43.554482 -252.14944 -9.9272213
-44.898369 -252.14954 -10.345896
-44.719772 -252.04382 -10.326464
-44.720001 -252.09943 -10.468814
-43.398819 -252.05862 -10.543166
-58.490673 -252.13422 -10.717299
-42.422897 -252.13292 -10.609459
-45.216721 -252.09613 -10.85309
-58.897522 -252.03094 -11.057444
-43.262108 -252.17941 -11.016953
-41.946136 -252.0889 -11.34409
-59.382416 -252.06447 -11.537201
-55.848743 -252.19807 -11.516128
-43.842674 -252.08571 -11.506729
-59.4062 -252.07317 -11.714086
-43.820538 -252.06085 -11.729277
-59.689724 -252.03122 -13.137738
-55.331341 -252.04919 -13.427022
-56.498329 -251.8551 -7.1149249
-52.993073 -251.89021 -7.1006441
-52.278015 -251.88995 -7.0535212
-51.425049 -251.85205 -7.067678
-48.688969 -251.86478 -7.107286
-47.030304 -251.83737 -7.058269
-45.073593 -251.87106 -7.0977411
-59.862053 -251.98123 -7.2319598
-40.520935 -251.85492 -7.3751831
-40.840111 -251.89424 -7.742075
-40.874889 -251.94592 -7.8564219
-40.725376 -251.82411 -7.8688402
-40.644196 -251.83775 -8.029211
-46.121899 -251.99519 -8.2707901
-43.513458 -251.86371 -9.9147615
-58.36097 -251.97575 -10.381714
-44.546158 -251.84908 -10.362993
-44.55616 -251.84488 -10.46099
-43.128437 -251.83287 -10.522653
-58.677299 -251.81921 -10.72229
-58.183929 -251.85681 -10.64723
-44.88723 -251.88718 -10.606435
-58.818111 -251.80246 -10.966483
-55.870392 -251.91312 -10.980431
-44.93671 -251.80095 -11.044486
-43.788639 -251.87331 -11.338101
-42.051109 -251.8255 -11.224473
-58.641571 -251.80421 -11.53715
-43.805431 -251.85622 -11.819877
-59.869179 -251.89314 -12.053606
-55.796432 -251.78442 -7.1121922
-54.162041 -251.74208 -7.1675062
-51.000923 -251.75488 -7.0559249
-50.494953 -251.69548 -7.072031
-49.92506 -251.73099 -7.0674181
-55.993618 -251.64664 -7.290679
-55.234234 -251.62674 -7.5565648
-55.05225 -251.66113 -7.5062842
-55.094757 -251.71246 -7.613853
-43.492348 -251.69067 -9.4271679
-42.907719 -251.72066 -9.7716541
-43.670025 -251.79498 -9.9676371
-42.660156 -251.79245 -9.9684372
-44.225201 -251.6106 -10.112207
-44.363567 -251.69379 -10.282655
-43.045879 -251.6165 -10.398273
-57.774399 -251.64697 -10.562559
-44.623245 -251.64955 -10.512058
-58.856247 -251.74559 -10.633591
-58.526726 -251.7818 -10.971743
-56.629005 -251.71976 -10.847388
-58.191708 -251.62428 -11.119061
-56.135727 -251.72751 -11.101488
-56.985207 -251.67215 -11.305813
-56.219242 -251.72119 -11.469303
-59.876812 -251.66376 -11.774727
-59.358826 -251.77835 -11.723346
-55.546944 -251.61664 -12.319307
-55.767506 -251.71394 -12.683685
-59.862862 -251.40587 -7.1418052
-58.999836 -251.50006 -7.1089082
-58.709923 -251.48529 -7.160603
-57.487148 -251.51315 -7.154747
-56.116886 -251.40215 -7.1002011
-55.910492 -251.57822 -7.1891632
-51.805801 -251.46255 -7.0678458
-51.481178 -251.43503 -7.0718322
-43.467793 -251.43584 -7.0885839
-42.550148 -251.48532 -7.0344758
-55.899071 -251.52176 -7.3160248
-55.277298 -251.41547 -7.3781219
-55.154182 -251.43127 -7.4039922
-53.689507 -251.47205 -9.1003752
-44.383263 -251.4227 -10.328273
-56.707905 -251.49765 -10.497118
-44.657032 -251.43501 -10.527094
-44.539192 -251.41327 -10.424423
-58.148811 -251.43167 -10.639208
-44.57196 -251.55399 -10.619002
-56.686222 -251.44913 -10.880075
-43.670193 -251.49466 -11.340832
-43.079811 -251.43832 -11.333586
-59.031475 -251.48169 -11.974987
-43.971283 -251.44594 -12.011039
-55.11483 -251.47842 -12.254909
-57.519142 -251.42876 -12.894082
-55.087704 -251.54443 -13.32666
-59.463394 -251.31911 -7.1127191
-58.043186 -251.23486 -7.1054711
-57.428371 -251.37308 -7.1288462
-53.869099 -251.26068 -7.1683621
-53.362709 -251.38905 -7.1052852
-50.974136 -251.3717 -7.052917
-50.651596 -251.27739 -7.0398169
-50.170067 -251.39609 -7.0648761
-47.026241 -251.27306 -7.0414271
-45.30558 -251.28625 -7.0613089
-44.847511 -251.26225 -7.050076
-41.026207 -251.37585 -7.0523901
-53.234123 -251.27982 -8.3390894
-53.076935 -251.23218 -8.2946301
-54.023232 -251.21886 -8.521718
-53.305916 -251.30429 -8.4683208
-53.171692 -251.27374 -8.4122086
-53.771576 -251.29039 -8.6133194
-43.612762 -251.21948 -8.7340946
-45.352531 -251.38684 -9.1210213
-42.739132 -251.33249 -9.1696033
-45.459244 -251.34286 -9.2448273
-45.10339 -251.22673 -9.3320227
-41.743622 -251.29845 -9.4325142
-41.489883 -251.37961 -9.6207561
-40.858139 -251.35707 -9.7770824
-43.867107 -251.30557 -9.9082384
-43.270386 -251.26523 -9.9312744
-43.051003 -251.33859 -9.8825455
-53.298492 -251.36281 -10.14791
-40.085457 -251.22646 -10.128319
-58.515064 -251.26147 -10.326689
-44.288452 -251.2771 -10.321156
-57.673702 -251.39212 -10.497299
-44.630234 -251.36542 -10.466783
-44.171146 -251.23642 -10.481401
-58.428612 -251.25688 -10.634203
-44.910645 -251.24542 -10.784109
-55.980133 -251.27016 -11.107671
-57.11713 -251.37311 -11.311798
-56.481949 -251.34787 -11.34833
-58.517853 -251.29456 -11.405988
-58.601379 -251.32051 -11.747936
-59.693626 -251.39468 -11.893528
-58.033176 -251.20129 -11.975004
-55.806923 -251.23058 -11.96257
-44.029942 -251.20601 -11.886632
-43.821945 -251.32832 -11.82381
-59.330624 -251.33739 -12.259084
-59.715549 -251.35846 -12.530383
-55.816086 -251.37933 -13.659546
-59.748894 -251.07846 -7.1034298
-59.439453 -251.14603 -7.1239791
-59.022087 -251.02681 -7.104136
-56.620407 -251.06958 -7.0858278
-56.035423 -251.10117 -7.146636
-54.50589 -251.06775 -7.104105
-53.837978 -251.10733 -7.1171718
-52.884529 -251.11404 -7.1594019
-52.275436 -251.09929 -7.0586648
-51.052483 -251.0378 -7.0647392
-45.058723 -251.16353 -7.0401111
-41.082504 -251.05666 -7.058898
-40.73233 -251.07245 -7.0645342
-56.040504 -251.10159 -7.3054709
-55.988678 -251.10771 -7.3763208
-55.770401 -251.03723 -7.3758731
-55.366867 -251.0807 -7.3812542
-55.097763 -251.10443 -7.2396932
-53.682594 -251.17149 -8.3339901
-53.517929 -251.13896 -8.5342026
-53.938679 -251.15796 -8.6885834
-46.025673 -251.15096 -8.6999464
-45.770969 -251.00824 -8.623517
-53.831509 -251.00117 -8.9170036
-45.782513 -251.11627 -8.8584242
-45.459496 -251.04689 -8.9264927
-43.010807 -251.05789 -8.8827515
-54.479187 -251.01059 -9.1288452
-45.339207 -251.19014 -9.2508717
-45.104603 -251.16711 -9.2544231
-44.088787 -251.02496 -9.3003855
-44.059071 -251.18399 -9.5080795
-53.930725 -251.05554 -9.8832397
-43.841846 -251.0228 -9.8733568
-43.027599 -251.13245 -9.9042215
-53.270409 -251.01071 -10.087997
-43.420033 -251.03835 -10.120541
-58.53159 -251.17451 -10.342249
-58.252941 -251.14098 -10.340921
-53.646484 -251.05988 -10.563799
-44.504967 -251.13657 -10.530265
-44.068954 -251.15271 -10.48709
-56.086071 -251.18033 -11.034036
-44.856758 -251.08257 -11.042595
-41.773445 -251.16536 -11.027946
-44.887825 -251.05252 -11.269138
-58.552277 -251.08472 -11.525675
-58.235512 -251.13834 -11.422256
-57.091789 -251.04843 -11.412752
-43.422501 -251.03369 -11.476393
-58.524574 -251.0706 -11.749054
-58.166534 -251.13104 -11.672948
-57.848549 -251.04211 -11.901481
-55.354454 -251.03009 -11.853535
-43.78334 -251.1123 -11.876709
-43.395966 -251.04741 -11.81516
-58.539009 -251.06848 -12.104137
-55.715927 -251.08774 -12.089336
-58.218864 -251.09335 -12.97888
-59.257301 -251.00479 -13.160317
-54.336678 -251.01544 -14.934742
-58.669128 -250.8992 -7.1430402
-58.135971 -250.96082 -7.1060429
-57.829323 -250.92642 -7.1082568
-56.707493 -250.88611 -7.0886889
-56.297066 -250.87715 -7.1026311
-55.933884 -250.99515 -7.1315718
-54.169651 -250.94208 -7.0886779
-53.706379 -250.97226 -7.1191101
-53.333885 -250.93997 -7.1174541
-52.994228 -250.94173 -7.1350322
-52.555233 -250.87175 -7.0761871
-51.922474 -250.9225 -7.0625291
-51.432907 -250.92667 -7.0547171
-47.591381 -250.87929 -7.072772
-41.100769 -250.99692 -7.0251122
-40.898926 -250.88428 -7.04703
-55.420364 -250.98006 -7.330492
-55.228416 -250.90552 -7.331511
-55.102448 -250.90189 -7.3057199
-45.827503 -250.81595 -7.958107
-45.864365 -250.84059 -8.1378536
-54.221745 -250.81097 -8.3456764
-52.671284 -250.87616 -8.2963562
-45.577274 -250.81868 -8.2546673
-45.75795 -250.85654 -8.5394573
-54.059261 -250.98203 -8.6866951
-52.917423 -250.90862 -8.6614952
-52.68988 -250.87442 -8.612957
-45.536377 -250.89621 -8.7112865
-43.638504 -250.8511 -8.727396
-43.570076 -250.82938 -8.6459665
-54.034542 -250.95328 -8.9457378
-52.689121 -250.98859 -8.9222107
-43.69109 -250.87845 -8.852499
-43.610252 -250.89023 -9.1872091
-43.47673 -250.91563 -9.0944262
-54.633072 -250.90758 -9.371666
-44.709007 -250.81587 -9.2166367
-44.581444 -250.92111 -9.2535753
-43.828423 -250.95404 -9.2545929
-43.380215 -250.83253 -9.3057728
-43.089787 -250.81918 -9.384675
-42.222855 -250.90532 -9.6510963
-44.129227 -250.89334 -9.8897839
-42.779816 -250.86037 -9.9930334
-44.130928 -250.96078 -10.324708
-44.213669 -250.90466 -10.491703
-44.140514 -250.93825 -10.480758
-43.623909 -250.83455 -10.473793
-42.351776 -250.88083 -10.75523
-41.403702 -250.84914 -10.722732
-40.487991 -250.96121 -10.619051
-40.389366 -250.95587 -10.77084
-40.091293 -250.87416 -10.605666
-58.449726 -250.96028 -11.009152
-44.699917 -250.90811 -11.054392
-44.690372 -250.85167 -11.316213
-43.886967 -250.99945 -11.548675
-55.16674 -250.85596 -11.936029
-43.048698 -250.97029 -11.832708
-55.489494 -250.88757 -12.084337
-54.798168 -250.91331 -12.360506
-40.135315 -250.94235 -12.297747
-55.440353 -250.98483 -12.970946
-40.043373 -250.6306 -6.984406
-59.807484 -250.66476 -7.1255341
-57.404835 -250.67729 -7.088079
-57.102509 -250.67549 -7.0711398
-56.329475 -250.74231 -7.0972772
-56.111107 -250.61134 -7.087172
-55.896191 -250.71484 -7.1446972
-55.408798 -250.72481 -7.1545992
-54.283928 -250.61703 -7.0584641
-53.838585 -250.61508 -7.0611529
-53.69104 -250.6176 -7.130446
-52.900787 -250.71371 -7.1100259
-51.087246 -250.62288 -7.0695248
-45.115025 -250.62746 -7.006464
-43.47002 -250.66647 -7.1253519
-42.688469 -250.76036 -7.047698
-41.694881 -250.63153 -7.111269
-40.8964 -250.68115 -7.02457
-55.87616 -250.70041 -7.2469368
-55.358341 -250.612 -7.2374749
-45.768356 -250.77362 -8.1510916
-43.360413 -250.72836 -8.1942568
-54.215885 -250.78033 -8.3095722
-52.404221 -250.7168 -8.2734756
-45.535191 -250.78598 -8.3464022
-45.482548 -250.78455 -8.4664555
-43.07576 -250.61699 -8.5156727
-54.592697 -250.604 -8.6812229
-54.253529 -250.65515 -8.6677008
-46.087273 -250.63065 -8.6322994
-45.743568 -250.68054 -8.7217388
-45.51292 -250.69576 -8.7313156
-45.31604 -250.73878 -8.7101011
-43.381256 -250.61845 -8.7543354
-45.276859 -250.67842 -8.9150772
-45.087437 -250.72125 -8.8898802
-43.475319 -250.66792 -8.807951
-43.373257 -250.6414 -8.8841314
-44.735535 -250.68079 -9.1488762
-43.878609 -250.69394 -9.0965691
-42.919922 -250.67899 -9.1657047
-43.837467 -250.79765 -9.2453365
-42.735378 -250.63553 -9.3770342
-54.715683 -250.64676 -9.5163746
-54.715191 -250.63985 -9.6647387
-53.275398 -250.61792 -9.7225857
-53.02774 -250.70111 -9.7406216
-43.338543 -250.63162 -9.6719961
-40.897511 -250.65054 -9.6894569
-53.704708 -250.7679 -9.9825335
-52.243507 -250.76556 -9.9352512
-44.15189 -250.76393 -9.8568964
-53.465256 -250.65729 -10.375314
-44.079067 -250.71585 -10.51392
-56.546532 -250.75056 -10.949324
-44.343605 -250.62967 -10.92375
-42.46463 -250.74503 -10.870621
-44.770947 -250.66348 -11.495455
-43.744186 -250.612 -11.516882
-58.561569 -250.6283 -11.637227
-56.913773 -250.70749 -11.660713
-55.267101 -250.75087 -11.84812
-42.29216 -250.67349 -12.023179
-58.298916 -250.69453 -12.336574
-55.203056 -250.73874 -12.204176
-55.6436 -250.66151 -12.631954
-55.434635 -250.64276 -12.91637
-55.031258 -250.7923 -13.799736
-59.259186 -250.4064 -7.1594481
-59.013222 -250.46472 -7.143486
-57.82515 -250.52966 -7.0890141
-57.70723 -250.48935 -7.122787
-57.288021 -250.51474 -7.110723
-55.506069 -250.5079 -7.124176
-55.353935 -250.5804 -7.1581101
-54.680897 -250.5826 -7.066041
-53.271191 -250.51172 -7.0908742
-51.389343 -250.49983 -7.067791
-47.003338 -250.52344 -7.0362239
-45.126198 -250.40709 -7.015461
-43.0909 -250.43091 -7.1137071
-42.619835 -250.48682 -7.0822811
-41.763874 -250.55612 -7.04459
-41.325821 -250.58881 -7.042285
-40.699867 -250.49683 -7.0557618
-55.460934 -250.55759 -7.332788
-43.438011 -250.52974 -7.3522511
-42.53503 -250.50899 -7.3296471
-50.961998 -250.46887 -7.794086
-47.621132 -250.46347 -7.6050229
-43.16935 -250.53757 -7.7593212
-51.288082 -250.49191 -7.8851218
-43.34095 -250.52318 -7.8822069
-50.922287 -250.46512 -8.0666313
-43.330917 -250.52602 -8.0698357
-52.29097 -250.57593 -8.2878675
-51.338661 -250.45317 -8.3038158
-47.650726 -250.44489 -8.3626423
-47.512009 -250.50261 -8.2480078
-43.270546 -250.50456 -8.3415155
-43.414566 -250.53809 -8.5263653
-52.427589 -250.47302 -8.7271957
-52.387917 -250.53325 -8.8347101
-45.708191 -250.5799 -8.8702202
-54.546909 -250.47418 -9.1136408
-45.752945 -250.44376 -9.0989733
-45.425743 -250.49265 -9.0372314
-45.296314 -250.45432 -9.1032772
-44.727806 -250.52852 -9.1357613
-43.177433 -250.513 -9.1024904
-45.666256 -250.48526 -9.2437325
-45.463669 -250.47156 -9.2610474
-45.249855 -250.444 -9.2002707
-43.370445 -250.58142 -9.2226238
-42.924141 -250.59169 -9.2709827
-54.556053 -250.55894 -9.458189
-54.332779 -250.44449 -9.5442066
-43.130856 -250.57571 -9.5793962
-54.534378 -250.56854 -9.729353
-58.951828 -250.57385 -9.9280396
-54.186687 -250.45358 -9.8446884
-42.109245 -250.56837 -9.8901434
-41.815361 -250.57568 -9.9385529
-41.415653 -250.59546 -9.9516792
-40.958145 -250.59943 -9.9627447
-57.660225 -250.45728 -10.098391
-57.56443 -250.47876 -10.097404
-59.271477 -250.53336 -10.213423
-58.976475 -250.51953 -10.200648
-52.590263 -250.51781 -10.206463
-43.860023 -250.59131 -10.35715
-53.700516 -250.53716 -10.516243
-43.931824 -250.42667 -10.497444
-41.334251 -250.49811 -10.453632
-41.150562 -250.48274 -10.479006
-53.357872 -250.521 -10.755272
-52.548191 -250.5332 -10.658496
-43.992088 -250.4024 -10.60384
-53.785042 -250.4726 -10.959581
-44.602318 -250.54788 -11.103899
-43.178802 -250.48679 -11.037857
-40.278248 -250.45982 -11.050256
-57.35878 -250.47107 -11.338703
-43.058571 -250.49016 -11.355667
-44.847206 -250.59451 -11.543694
-42.615829 -250.58057 -11.51888
-42.246799 -250.58965 -11.485975
-40.133739 -250.50385 -11.405167
-57.780006 -250.59634 -11.740957
-43.711105 -250.52872 -11.677744
-40.070717 -250.56563 -11.680347
-42.091469 -250.52405 -11.893805
-41.91724 -250.47672 -11.903233
-56.718571 -250.59286 -12.777987
-56.78215 -250.4252 -12.951704
-55.075787 -250.54422 -13.033502
-54.970432 -250.58798 -13.311416
-54.676689 -250.43108 -13.704284
-55.625153 -250.49313 -14.094788
-49.811584 -250.21121 -6.999855
-49.703804 -250.23273 -6.9950671
-43.706375 -250.28311 -6.9846931
-42.005974 -250.34329 -6.9838538
-59.097897 -250.29251 -7.133626
-58.261818 -250.27097 -7.1165781
-57.662621 -250.32307 -7.097578
-57.591919 -250.22697 -7.10534
-55.785091 -250.33542 -7.077662
-55.320396 -250.24954 -7.1626539
-55.065033 -250.27693 -7.1616678
-54.110245 -250.20801 -7.0498781
-53.36269 -250.37019 -7.0689378
-52.785587 -250.33 -7.1040859
-51.438705 -250.31039 -7.070291
-51.114304 -250.23051 -7.065258
-49.496422 -250.25443 -7.02812
-46.953594 -250.24493 -7.0120192
-43.330444 -250.36809 -7.1029892
-42.548069 -250.31325 -7.0845389
-42.191658 -250.26529 -7.040401
-41.718475 -250.28317 -7.0511971
-55.267731 -250.27902 -7.2617531
-55.152939 -250.29187 -7.3810611
-43.301815 -250.37402 -7.265831
-43.146141 -250.39307 -7.2549729
-42.635212 -250.35338 -7.3770862
-42.513512 -250.3074 -7.2967811
-55.27372 -250.2921 -7.4951358
-51.048584 -250.20712 -7.5234852
-47.975555 -250.2644 -7.4448438
-42.283791 -250.20372 -7.6788158
-47.81237 -250.26169 -7.972909
-47.54686 -250.32147 -7.9459548
-50.979858 -250.2084 -8.1015816
-47.825829 -250.25984 -8.0473709
-54.478065 -250.28271 -8.3422756
-47.671413 -250.34023 -8.4466047
-47.571808 -250.37447 -8.4265671
-54.486717 -250.25516 -8.6775312
-43.264206 -250.3201 -8.7265682
-52.589828 -250.27013 -8.9468269
-46.096394 -250.31628 -8.8722076
-45.879616 -250.31972 -8.9415359
-45.710182 -250.38519 -8.9575996
-43.241226 -250.27103 -8.915513
-54.682785 -250.28252 -9.0195484
-52.159676 -250.25009 -9.0997868
-46.200573 -250.33987 -9.064127
-45.980221 -250.36964 -9.0734749
-45.716923 -250.27199 -9.1041012
-45.48304 -250.25409 -9.0855808
-45.152336 -250.31711 -9.0680294
-44.66497 -250.25398 -9.0723934
-42.964283 -250.35071 -9.0975199
-44.938316 -250.30266 -9.2260971
-43.378593 -250.33415 -9.2318859
-54.03064 -250.30618 -9.8645401
-59.320911 -250.27405 -10.170591
-57.666332 -250.2084 -10.249779
-57.437698 -250.23219 -10.213882
-41.847961 -250.39526 -10.309677
-43.772614 -250.30276 -10.537522
-43.011314 -250.30504 -10.567262
-41.75211 -250.37222 -10.522111
-44.273876 -250.3231 -10.743729
-44.152458 -250.34845 -10.736092
-59.270119 -250.31232 -10.959898
-53.417973 -250.22885 -10.960554
-44.326988 -250.25497 -10.820393
-40.219559 -250.29805 -10.936116
-58.256187 -250.26933 -11.00157
-44.656319 -250.25246 -11.059883
-42.906837 -250.23868 -11.133098
-42.672035 -250.26614 -11.008906
-42.847633 -250.22858 -11.376598
-41.879303 -250.23535 -11.203144
-57.506062 -250.20734 -11.407964
-59.585674 -250.28287 -11.726645
-43.693848 -250.21445 -11.79408
-42.958694 -250.27763 -11.691682
-42.452686 -250.28366 -11.695059
-41.884575 -250.28751 -11.759997
-41.499756 -250.20609 -11.632684
-58.953766 -250.22522 -11.883038
-43.407726 -250.23181 -11.879218
-42.219078 -250.25453 -11.833668
-57.886505 -250.28064 -12.213269
-45.852341 -250.10539 -6.9761438
-59.726677 -250.19785 -7.1624532
-59.424957 -250.05751 -7.143188
-59.089714 -250.11455 -7.1609111
-57.342815 -250.07941 -7.0730748
-57.097656 -250.03587 -7.072515
-56.902473 -250.11835 -7.1040101
-55.754372 -250.1947 -7.0220289
-55.266731 -250.14098 -7.140749
-52.472801 -250.17639 -7.1024032
-52.281208 -250.12131 -7.0487671
-51.856529 -250.17413 -7.0364022
-51.065422 -250.16324 -7.073616
-50.925087 -250.12206 -7.100822
-48.105968 -250.13252 -7.1704679
-47.892586 -250.16675 -7.0998411
-47.695652 -250.0798 -7.0432281
-46.951897 -250.12775 -7.0133228
-45.319221 -250.08273 -7.0680828
-40.808376 -250.01833 -7.0865188
-40.708061 -250.0545 -7.0445561
-59.754192 -250.09256 -7.2408719
-55.266396 -250.18185 -7.3467078
-51.081001 -250.02377 -7.367878
-48.963387 -250.10048 -7.47334
-53.513664 -250.10959 -7.7863221
-51.476692 -250.12634 -7.7072272
-51.077393 -250.15445 -7.7199149
-48.269714 -250.05528 -7.6408472
-50.537399 -250.08014 -7.9733019
-48.637104 -250.01929 -7.812778
-47.654411 -250.10872 -7.9031301
-47.539192 -250.09163 -7.9664931
-42.44799 -250.03006 -7.8136549
-53.68475 -250.04628 -8.1200581
-53.55043 -250.12294 -8.0817623
-51.288345 -250.17856 -8.1274052
-47.767891 -250.11584 -8.1166058
-47.524071 -250.05008 -8.0765209
-54.439205 -250.11093 -8.2195911
-54.372917 -250.04506 -8.3148708
-53.559914 -250.0928 -8.2176838
-52.231239 -250.09616 -8.22332
-47.537586 -250.03305 -8.2618122
-54.385826 -250.15207 -8.4551277
-53.568687 -250.06888 -8.4334536
-47.719353 -250.14661 -8.4282627
-54.315567 -250.08751 -8.6450138
-52.317307 -250.16052 -8.6416359
-51.303009 -250.12703 -8.6480484
-51.088543 -250.0986 -8.6762829
-54.817474 -250.17633 -8.9376469
-54.739548 -250.01038 -8.8819885
-45.534698 -250.17473 -8.8889408
-54.80862 -250.12717 -9.0235481
-54.646458 -250.10831 -9.0952682
-54.59137 -250.12337 -9.0967503
-45.839745 -250.12479 -9.1502371
-45.113411 -250.19061 -9.1271114
-43.120697 -250.05359 -9.0927582
-54.521168 -250.15308 -9.2923183
-45.060219 -250.09409 -9.2522678
-43.151245 -250.04474 -9.2270575
-42.853374 -250.19438 -9.2283583
-54.204975 -250.16692 -9.5632935
-43.815704 -250.11026 -9.5452137
-51.947067 -250.08698 -9.7749252
-44.287666 -250.11734 -9.7615204
-44.094666 -250.01425 -9.7541971
-57.297813 -250.15005 -9.8943176
-53.974709 -250.12418 -9.9306602
-53.334991 -250.13083 -9.8384209
-45.093697 -250.0213 -9.8965149
-44.6427 -250.1566 -9.8365984
-43.294945 -250.0444 -9.8689518
-43.135956 -250.10971 -9.8451385
-57.425339 -250.07535 -10.07515
-57.258503 -250.125 -10.153005
-57.114956 -250.08163 -10.03715
-53.378799 -250.09265 -10.073363
-52.073624 -250.11664 -10.150433
-44.614491 -250.13098 -10.092333
-54.597519 -250.11649 -10.289289
-54.168724 -250.14999 -10.33346
-53.730289 -250.10611 -10.281295
-44.901096 -250.11362 -10.242033
-43.413952 -250.0732 -10.216852
-43.548721 -250.14069 -10.507801
-53.515217 -250.07825 -10.654079
-43.748074 -250.19025 -10.717287
-40.169533 -250.18024 -10.65538
-56.980789 -250.05005 -11.150523
-56.688797 -250.10907 -11.13193
-44.849461 -250.04425 -11.063643
-44.717285 -250.01108 -11.091986
-44.264526 -250.1803 -11.140554
-44.194286 -250.13962 -11.168998
-43.841778 -250.09695 -11.149196
-40.222092 -250.13281 -11.099125
-59.078506 -250.13086 -11.25728
-44.66927 -250.06987 -11.282517
-42.652451 -250.19228 -11.352976
-41.75695 -250.19072 -11.325247
-45.040878 -250.18416 -11.503217
-44.68108 -250.16463 -11.533863
-44.311661 -250.04236 -11.483377
-43.863144 -250.12021 -11.430965
-43.438072 -250.15167 -11.538784
-41.559917 -250.1684 -11.464747
-59.907463 -250.13278 -11.772984
-57.782032 -250.06822 -11.74885
-44.619934 -250.08252 -11.714863
-44.286255 -250.04187 -11.795036
-58.677856 -250.17805 -11.895868
-43.432976 -250.08908 -12.072428
-58.762932 -250.04936 -12.257517
-55.727272 -250.11261 -12.245919
-56.712677 -250.08452 -12.748756
-55.355568 -250.1532 -12.711111
-55.420574 -250.13022 -12.939477
-54.232853 -250.13586 -13.271705
-56.065594 -249.90114 -6.9967499
-45.701347 -249.88289 -6.940659
-44.59539 -249.81384 -6.9495358
-43.597622 -249.97209 -6.9902902
-58.168564 -249.82062 -7.0800428
-57.848114 -249.92853 -7.103375
-57.312317 -249.84641 -7.0556002
-57.166809 -249.94456 -7.0920782
-56.874046 -249.91959 -7.115881
-56.035225 -249.84236 -7.0335832
-55.362343 -249.91985 -7.0437999
-54.846268 -249.81323 -7.1157689
-54.138504 -249.8808 -7.051836
-53.858292 -249.839 -7.131825
-52.573853 -249.84204 -7.0187368
-51.93634 -249.86276 -7.0124841
-51.017056 -249.83817 -7.1035299
-50.694115 -249.88329 -7.0868711
-49.565788 -249.9108 -7.044446
-47.961838 -249.896 -7.0446849
-41.66288 -249.95587 -7.0397868
-45.965836 -249.85837 -7.2535062
-50.635231 -249.87085 -7.465766
-47.929077 -249.88757 -7.4282589
-45.725639 -249.88242 -7.4412899
-53.316128 -249.93851 -7.718627
-53.149242 -249.87701 -7.7473369
-48.853569 -249.88742 -7.6509018
-48.645256 -249.89151 -7.7409482
-48.434921 -249.87636 -7.7388568
-53.623062 -249.84232 -7.9655328
-53.502674 -249.8405 -7.8721662
-53.295425 -249.8844 -7.943325
-51.234695 -249.84496 -7.9867492
-47.576485 -249.97485 -7.9230871
-53.682243 -249.84541 -8.06497
-53.484043 -249.86377 -8.1284904
-53.16098 -249.89169 -8.1196232
-51.47504 -249.8541 -8.1722345
-50.705517 -249.83105 -8.127121
-53.645428 -249.85161 -8.2505684
-53.165176 -249.84436 -8.2776604
-51.656776 -249.90175 -8.3523808
-47.464417 -249.98058 -8.3905811
-52.254799 -249.88283 -8.5359554
-47.459545 -249.97937 -8.4326172
-54.584072 -249.84746 -8.6596966
-54.231895 -249.87303 -8.6583862
-53.146729 -249.80536 -8.6424627
-51.630009 -249.9747 -8.6279354
-51.278214 -249.89507 -8.6857414
-50.693134 -249.87869 -8.6284866
-54.544769 -249.88029 -9.0758743
-53.804108 -249.83519 -9.0647764
-43.090759 -249.96768 -9.2753277
-42.594692 -249.93069 -9.31353
-42.294998 -249.83559 -9.3530264
-53.529747 -249.81494 -9.5633669
-43.524353 -249.89655 -9.5497799
