# .PCD v0.7 - Point Cloud Data file format
VERSION 0.7
FIELDS x y z
SIZE 4 4 4
TYPE F F F
COUNT 1 1 1
WIDTH 1480
HEIGHT 1
VIEWPOINT 0 0 0 1 0 0 0
POINTS 1480
DATA ascii
-49.519955 -69.139458 -1.837847
-58.82132 -69.171921 -2.6077721
-59.381996 -69.193268 -5.2622938
-48.799515 -69.063789 -5.2244129
-59.400917 -69.121742 -5.750308
-45.025223 -69.03624 -5.8267412
-48.19545 -69.000229 -6.0845909
-41.891541 -69.065887 -6.3596678
-41.527611 -69.105148 -6.457314
-41.18705 -69.13858 -7.7972279
-43.399601 -69.187454 -8.6300039
-54.022064 -68.857552 -1.898615
-42.506248 -68.862923 -1.895871
-43.449646 -68.925323 -5.1508031
-47.179283 -68.854973 -5.6616549
-42.754707 -68.82534 -7.0388288
-42.724274 -68.95285 -8.2196674
-45.350704 -68.63443 -1.782975
-43.38707 -68.603195 -1.741836
-42.655464 -68.61615 -1.744585
-50.218925 -68.765656 -1.843435
-59.997597 -68.609825 -2.3040161
-44.413647 -68.650681 -4.3199849
-44.193413 -68.70752 -4.673142
-44.110424 -68.634102 -5.1080208
-43.426086 -68.65844 -5.6678162
-42.103111 -68.606934 -6.7407398
-44.559189 -68.687988 -8.6093054
-48.069801 -68.528847 -1.7748131
-43.575447 -68.545517 -1.7491
-52.850624 -68.424461 -1.851804
-51.806973 -68.560768 -1.816458
-42.319012 -68.417923 -7.5728202
-46.965847 -68.573555 -7.7330942
-45.9217 -68.520264 -8.3557196
-45.021019 -68.232643 -1.75849
-56.99855 -68.306862 -1.923713
-52.980682 -68.322968 -1.848917
-58.293442 -68.349365 -2.184397
-58.681816 -68.262924 -2.2214489
-58.759979 -68.319061 -2.5295839
-43.068512 -68.250298 -4.9935651
-59.676392 -68.330864 -6.1247149
-40.715488 -68.389381 -6.4421239
-44.771461 -68.317017 -7.6225672
-42.206486 -68.283325 -7.628006
-45.884354 -68.046455 -1.749478
-44.039234 -68.040474 -4.659061
-43.399704 -68.114761 -4.6888032
-58.751854 -68.052994 -5.5587029
-43.777359 -68.093208 -8.0309372
-49.520477 -67.877289 -1.7845941
-40.457111 -67.83577 -1.784336
-40.071815 -67.910332 -1.770733
-57.064991 -67.823296 -1.902882
-56.670349 -67.976212 -1.884586
-43.689262 -67.884705 -4.5561581
-44.129662 -67.894402 -4.7419858
-59.063396 -67.866379 -5.7581449
-43.681324 -67.973923 -7.8226099
-43.772484 -67.963806 -8.0187607
-42.239059 -67.883972 -8.1754189
-49.401375 -67.619751 -1.760685
-58.384682 -67.744202 -1.901585
-43.606274 -67.607384 -1.869361
-43.484375 -67.727371 -5.058414
-50.269917 -67.485695 -1.780495
-49.905975 -67.45575 -1.7915601
-43.955254 -67.526726 -4.2776232
-43.678486 -67.589386 -5.2695332
-44.228462 -67.463806 -7.8940558
-48.727852 -67.446793 -8.7958717
-45.911049 -67.449715 -9.0732021
-46.279648 -67.586258 -9.554431
-59.681393 -67.392403 -1.88328
-58.546249 -67.364731 -1.884269
-57.848938 -67.30423 -1.843673
-57.077579 -67.253616 -1.901081
-43.701042 -67.303268 -1.825392
-59.178261 -67.331161 -6.2363229
-46.429897 -67.347137 -7.3216729
-43.954327 -67.328568 -7.8827949
-45.434517 -67.356056 -8.216877
-47.207069 -67.30481 -8.7264252
-47.058689 -67.393349 -8.9190464
-40.990356 -67.07872 -1.759867
-59.966671 -67.180138 -6.2064171
-43.217495 -67.056229 -6.492877
-43.037891 -67.120361 -6.4490829
-43.749924 -67.07515 -7.4184999
-47.118652 -67.066772 -8.5658102
-50.948006 -66.921234 -1.7814
-42.926178 -66.94693 -1.76334
-58.564884 -66.923477 -1.851225
-57.118462 -66.908646 -1.8801
-56.781292 -66.827438 -1.893563
-52.940056 -66.894165 -1.880664
-44.202599 -66.962555 -1.857917
-43.731628 -66.811829 -1.816095
-59.995235 -66.855789 -6.0993929
-42.995377 -66.927017 -7.1573648
-42.732037 -66.977821 -7.082788
-44.277538 -66.987511 -7.2584858
-42.770927 -66.898956 -8.0877085
-47.70649 -66.828468 -8.5352001
-51.339108 -66.610199 -1.783152
-50.270119 -66.663177 -1.774405
-40.11721 -66.732391 -1.728707
-58.09127 -66.69693 -1.900322
-52.25745 -66.700256 -1.891654
-45.060524 -66.713303 -1.81872
-57.551857 -66.756821 -2.005188
-43.458157 -66.646599 -5.6594009
-44.875027 -66.737213 -7.4635048
-45.804325 -66.753555 -7.7055688
-44.617226 -66.740707 -8.6301804
-56.364841 -66.576256 -1.889364
-55.017456 -66.411903 -1.88666
-54.418255 -66.504242 -1.901567
-54.382172 -66.565308 -1.903819
-44.029083 -66.526047 -4.1832552
-44.004951 -66.443222 -6.4634538
-45.196571 -66.427353 -8.4566803
-50.358162 -66.342697 -1.7627439
-44.229259 -66.288795 -1.797496
-54.979927 -66.226807 -1.924328
-43.340271 -66.302429 -1.868623
-43.356205 -66.266342 -2.294265
-43.870522 -66.301628 -4.1562381
-59.983833 -66.293289 -6.0842419
-44.966339 -66.225212 -7.0881081
-40.233063 -66.110764 -1.647507
-55.29155 -66.125793 -1.884765
-53.869896 -66.172791 -1.919598
-46.509499 -66.101334 -1.864208
-43.602993 -66.135361 -1.814267
-48.935772 -66.025002 -2.155813
-42.557442 -66.133705 -2.4938059
-43.310188 -66.141937 -3.1111989
-44.156479 -66.180603 -4.7865319
-43.156204 -66.050949 -4.8296361
-48.423271 -66.171509 -5.1481428
-48.375397 -66.072571 -5.3555241
-43.358814 -66.112831 -5.7968621
-45.8241 -66.183098 -6.730628
-45.005493 -66.084305 -7.8368068
-45.079041 -66.161774 -8.4814568
-43.151287 -65.949677 -3.0976319
-43.185951 -65.973824 -3.2529881
-43.291267 -65.997757 -3.410008
-43.804695 -65.839645 -4.730741
-42.999279 -65.924858 -5.3717299
-48.520905 -65.935593 -5.4107299
-43.797718 -65.857841 -5.4772339
-59.988914 -65.897514 -5.969532
-51.659142 -65.630241 -1.82771
-51.473484 -65.719788 -1.817111
-47.733692 -65.771576 -1.907426
-48.979237 -65.71022 -2.739089
-48.753517 -65.643852 -4.668426
-44.635086 -65.716782 -4.7406859
-43.200874 -65.731438 -4.9963121
-45.230103 -65.681366 -5.5848279
-59.8997 -65.702484 -6.0446301
-49.50383 -65.621643 -6.388577
-58.525078 -65.504105 -1.867826
-53.556274 -65.486008 -1.8365411
-49.344349 -65.458542 -1.847378
-48.949219 -65.47847 -2.910506
-49.672096 -65.42009 -3.446348
-42.752075 -65.567612 -3.747257
-49.360634 -65.437767 -5.994164
-45.57901 -65.508209 -7.846664
-44.836807 -65.510025 -7.9143209
-45.918224 -65.548523 -8.2736521
-44.724461 -65.463791 -8.3778172
-41.011524 -65.392029 -1.613011
-40.188801 -65.287224 -1.7026941
-57.412117 -65.230446 -1.860365
-47.484581 -65.311417 -1.943614
-40.149048 -65.250679 -2.1905129
-49.07748 -65.369331 -3.001914
-49.469017 -65.313789 -3.372308
-44.197876 -65.363464 -4.139369
-48.575737 -65.323593 -5.9384069
-43.880783 -65.293564 -6.9804368
-41.476955 -65.113609 -1.642638
-54.575291 -65.049812 -1.893904
-40.11166 -65.07502 -1.924071
-42.800999 -65.074371 -2.4889801
-50.086975 -65.136383 -3.439055
-48.896679 -65.198387 -4.584147
-44.722939 -65.060989 -4.9222002
-48.391586 -65.072937 -5.8921428
-43.203255 -65.162979 -7.2327461
-58.368584 -64.898392 -1.768535
-51.778858 -64.984657 -1.774087
-53.675545 -64.9944 -1.8043751
-48.872181 -64.934662 -3.1414039
-49.064331 -64.94091 -5.3117938
-54.081718 -64.608658 -1.828807
-44.208153 -64.728546 -3.9689209
-49.465645 -64.77578 -6.3485212
-43.895157 -64.654305 -6.211648
-49.32655 -64.770905 -6.513597
-58.127403 -64.593536 -1.75703
-50.698784 -64.516449 -3.447176
-49.547657 -64.584862 -5.271102
-58.724285 -64.229149 -1.785959
-50.96191 -64.231064 -1.619789
-49.902565 -64.299057 -1.629148
-45.706108 -64.246033 -1.7142431
-44.197136 -64.221046 -1.7018321
-57.892067 -64.242035 -1.842036
-48.76244 -64.215797 -3.046303
-50.216652 -64.375381 -3.3820989
-50.304367 -64.294479 -3.936609
-50.38755 -64.391052 -4.0580492
-49.004253 -64.243683 -6.4997401
-48.536438 -64.360672 -6.4796162
-55.89521 -63.998795 -1.667827
-53.844849 -63.867157 -1.721074
-46.198967 -63.922215 -1.719102
-59.527283 -63.913136 -1.8018219
-53.963036 -63.61512 -1.708517
-51.473701 -63.752724 -1.661516
-42.860432 -63.683777 -1.630551
-41.715412 -63.721535 -1.6670099
-48.871418 -63.749157 -3.908601
-48.747486 -63.694836 -4.029489
-51.014977 -63.531834 -1.6500109
-42.194347 -63.453865 -1.672062
-42.687775 -63.218658 -1.588949
-53.086605 -63.340202 -1.6786079
-44.473152 -63.363228 -1.652155
-55.154877 -63.126713 -1.665598
-51.367699 -63.043613 -1.639524
-51.12925 -63.048885 -1.624017
-46.063904 -62.817383 -1.576167
-53.928097 -62.892391 -1.656157
-46.459381 -62.7206 -1.592474
-41.054237 -62.660244 -1.411779
-59.427753 -62.692333 -1.7406549
-58.949883 -62.605465 -1.6777149
-54.571621 -62.621925 -1.694083
-52.758835 -62.528271 -1.561177
-51.110497 -62.562546 -1.547673
-41.761562 -62.453918 -1.468974
-41.525299 -62.479683 -1.474281
-55.425735 -62.489822 -1.634851
-41.495487 -62.522034 -3.1977971
-41.031929 -62.458427 -3.3469341
-55.889923 -62.171661 -1.5926419
-46.484032 -62.175976 -1.5504
-59.475266 -62.149849 -1.6612771
-41.427811 -62.196671 -3.4548271
-41.042465 -61.80294 -1.463405
-41.669395 -61.887489 -2.1082129
-40.221382 -61.940292 -2.009326
-42.870411 -61.871147 -2.228116
-40.539452 -61.986599 -2.217634
-41.560005 -61.838356 -2.674772
-43.430801 -61.737499 -3.5623939
-43.054947 -61.785973 -3.5913119
-42.534569 -61.717155 -3.676466
-40.911041 -61.669922 -3.709933
-53.665733 -61.42437 -1.543153
-53.117584 -61.522003 -1.5187711
-51.554207 -61.412285 -1.505574
-46.893501 -61.546017 -1.559463
-41.95977 -61.54908 -1.541241
-59.470161 -61.47847 -1.650772
-40.378815 -61.433025 -2.0562849
-41.942207 -61.482861 -3.7715361
-45.086159 -61.487392 -5.416616
-44.776253 -61.548866 -5.436625
-43.704025 -61.497307 -5.4520602
-43.228539 -61.535538 -5.431787
-57.369022 -61.329498 -1.593297
-51.764069 -61.235336 -1.5073071
-48.962318 -61.338013 -1.502786
-42.253746 -61.383461 -1.54458
-40.42942 -61.342529 -1.8961051
-40.350815 -61.275547 -1.83434
-41.893509 -61.343506 -2.097059
-41.932625 -61.262398 -2.9490969
-42.053082 -61.306709 -3.845459
-42.099377 -61.200447 -5.3962178
-49.029099 -61.307259 -5.5820498
-51.472572 -61.249664 -5.6379619
-50.220093 -61.228729 -5.6838608
-49.130108 -61.374249 -5.6243739
-48.35511 -61.331581 -5.6379619
-45.52911 -61.37571 -5.6057558
-53.530975 -61.161446 -1.531798
-48.519279 -61.064613 -1.502237
-47.702251 -61.025276 -1.5684071
-40.183746 -61.050323 -2.9177711
-40.31234 -61.065228 -4.5180211
-52.265099 -61.033142 -5.560657
-56.947918 -61.014908 -5.7374802
-56.28746 -61.018318 -5.7055221
-54.539062 -61.061707 -5.729753
-53.497326 -61.084465 -5.6748271
-52.575668 -61.161137 -5.6191378
-48.689445 -61.113319 -9.6875772
-57.344028 -60.910591 -1.580892
-56.953987 -60.983635 -1.571584
-55.832623 -60.905926 -1.535762
-55.22821 -60.962784 -1.499078
-54.235588 -60.9814 -1.549629
-52.396458 -60.979362 -1.531639
-49.384022 -60.986477 -1.5089329
-48.927639 -60.83123 -1.508799
-46.370369 -60.804539 -1.577661
-42.186371 -60.870724 -1.497534
-47.065681 -60.800255 -1.967186
-40.97311 -60.993629 -1.863961
-42.141171 -60.946762 -2.0500269
-42.652367 -60.862247 -2.8774071
-42.239964 -60.856232 -3.666883
-41.76918 -60.913628 -3.6953681
-43.66095 -60.84132 -4.3898511
-42.623253 -60.84116 -4.2242899
-42.265343 -60.828369 -4.924993
-44.926853 -60.919018 -5.3497128
-49.147209 -60.82235 -5.5596228
-57.474056 -60.935345 -5.6691542
-56.736328 -60.973557 -5.7128921
-52.229752 -60.97654 -5.774343
-43.359161 -60.861282 -5.976644
-44.439629 -60.808319 -6.1967311
-44.180687 -60.837944 -6.1748352
-40.892838 -60.909225 -6.155633
-40.14682 -60.957394 -6.2183571
-40.896027 -60.930382 -6.4827442
-41.506294 -60.880772 -6.956872
-43.209782 -60.8069 -7.0984421
-42.532055 -60.814827 -7.150651
-44.300949 -60.870213 -7.4961739
-42.578197 -60.83012 -7.7226062
-41.992065 -60.806915 -8.4645033
-57.440392 -60.701862 -1.576491
-57.010128 -60.652077 -1.596419
-56.22438 -60.745785 -1.5271699
-53.023651 -60.603806 -1.5636491
-47.694717 -60.764088 -1.564114
-46.15292 -60.75359 -1.590953
-49.541943 -60.648697 -1.732983
-49.088371 -60.660221 -1.712268
-51.587814 -60.601414 -1.814464
-50.221172 -60.63361 -1.816184
-45.447098 -60.761379 -1.8410929
-44.541573 -60.781891 -2.0624781
-49.667316 -60.668186 -2.325474
-46.017902 -60.782516 -2.3423691
-50.170715 -60.618065 -2.4699061
-47.039783 -60.700127 -2.7387209
-49.032581 -60.603203 -2.9369681
-46.940506 -60.691658 -2.9250441
-43.501801 -60.78038 -2.863827
-44.930099 -60.732616 -3.490684
-44.533714 -60.668285 -3.553658
-49.078125 -60.613373 -3.652108
-48.565308 -60.642052 -3.8163331
-45.765373 -60.768112 -3.848624
-43.076241 -60.76577 -3.8436151
-48.233376 -60.66008 -4.1615591
-44.950005 -60.754883 -4.1207929
-40.963432 -60.672348 -4.0492611
-45.089588 -60.717857 -4.360353
-43.771778 -60.662968 -4.2885199
-49.109371 -60.607624 -4.4825711
-46.229813 -60.705585 -4.5347261
-45.357265 -60.723602 -4.5215912
-45.013096 -60.769585 -4.4728332
-45.897743 -60.678474 -4.7506962
-45.313068 -60.722202 -4.6873679
-45.013412 -60.776024 -4.6184669
-48.765968 -60.62809 -5.1284628
-45.856598 -60.734989 -5.085639
-42.652092 -60.773788 -5.065187
-45.782402 -60.716728 -5.2926402
-45.440369 -60.729691 -5.2747459
-59.575233 -60.658329 -5.675395
-52.115517 -60.611469 -5.87638
-44.68425 -60.750103 -5.872499
-46.585793 -60.690189 -6.166223
-43.778427 -60.789551 -6.1471829
-42.395901 -60.783295 -6.1676021
-47.256683 -60.638714 -6.3656969
-45.105892 -60.69706 -6.5726972
-43.560665 -60.694042 -6.5730438
-46.94944 -60.619698 -6.6000218
-43.714375 -60.728966 -6.6749282
-42.302635 -60.755821 -6.6237979
-41.802231 -60.788132 -6.7051702
-45.366997 -60.692757 -6.8137002
-46.517464 -60.615555 -7.1319609
-45.757977 -60.668495 -7.2577491
-41.099884 -60.790611 -7.270432
-42.16135 -60.772041 -7.7940879
-44.289177 -60.686153 -7.850421
-44.973541 -60.639549 -8.0916786
-42.789555 -60.669758 -8.5664225
-45.354187 -60.610016 -8.9966917
-42.593002 -60.704227 -9.3043718
-42.29855 -60.706436 -9.2704792
-41.945244 -60.7341 -9.2705002
-59.68586 -60.476746 -1.572021
-50.968933 -60.592644 -1.560849
-59.752392 -60.51244 -1.62669
-58.842754 -60.534637 -1.625304
-54.513256 -60.452271 -1.959927
-54.140957 -60.465195 -1.958419
-53.354759 -60.496037 -1.90124
-52.123989 -60.544022 -1.85771
-54.654144 -60.436104 -2.069113
-49.85817 -60.592274 -2.32493
-54.53912 -60.442528 -2.580271
-54.119209 -60.441803 -2.528183
-53.757008 -60.46674 -2.5069101
-52.25383 -60.494022 -2.4504499
-51.88768 -60.495583 -2.488389
-50.2033 -60.543907 -2.9964991
-49.311443 -60.593052 -2.942183
-53.450096 -60.453987 -3.057548
-52.141403 -60.462929 -3.5617549
-50.551876 -60.475925 -3.478168
-49.952309 -60.547806 -3.504108
-48.214447 -60.580612 -3.5268631
-51.708767 -60.489731 -3.7113149
-49.647659 -60.514282 -3.7212141
-46.934483 -60.515884 -3.6734891
-52.884212 -60.439289 -4.0984688
-51.924637 -60.47699 -4.1714821
-51.533607 -60.466637 -4.1385832
-49.456749 -60.522858 -4.0065231
-53.288788 -60.414162 -4.2917242
-52.632095 -60.426495 -4.225625
-51.65715 -60.480556 -4.3258219
-51.111534 -60.431583 -4.2460971
-50.034264 -60.491524 -4.2645278
-47.163357 -60.507256 -4.3174109
-53.386246 -60.409779 -4.5852871
-48.872528 -60.578156 -4.4279981
-48.567577 -60.587074 -4.4168882
-47.815746 -60.52544 -4.4505291
-47.118614 -60.452858 -4.4727511
-53.280205 -60.435806 -4.692276
-52.626678 -60.422066 -4.6930022
-52.591438 -60.494568 -4.7216749
-44.435425 -60.580086 -4.7916679
-52.693764 -60.443588 -4.904664
-52.299099 -60.446587 -4.9205661
-51.528076 -60.475212 -4.9604478
-48.795784 -60.578987 -4.911212
-47.094002 -60.488014 -4.9995279
-51.61087 -60.440498 -5.022018
-51.461525 -60.504768 -5.0346718
-49.021835 -60.580925 -5.1159868
-48.736435 -60.588539 -5.1079049
-44.310699 -60.528973 -5.100071
-51.554455 -60.469521 -5.375494
-50.527161 -60.508282 -5.7552691
-50.241432 -60.573448 -5.7574129
-49.886715 -60.553185 -5.7733212
-50.626251 -60.502075 -6.0700159
-52.071106 -60.459747 -6.4923668
-49.031288 -60.552818 -6.4950151
-51.066364 -60.4436 -6.868897
-49.384644 -60.506145 -6.8303232
-48.995811 -60.548885 -6.8769302
-48.169518 -60.580048 -6.9701619
-49.751106 -60.481777 -7.2392139
-48.243553 -60.58046 -7.2902808
-47.087578 -60.593834 -7.3320398
-48.939636 -60.495014 -7.8886328
-48.635181 -60.510002 -7.8639841
-49.87487 -60.474907 -8.1296854
-46.555099 -60.526783 -8.0978785
-43.34063 -60.523975 -8.5502014
-40.505333 -60.552406 -8.5587645
-46.473701 -60.595112 -9.075428
-46.065094 -60.543327 -9.0196161
-48.925198 -60.420609 -9.3258591
-44.207642 -60.506393 -9.3141546
-46.555061 -60.502922 -9.9145088
-48.186844 -60.431236 -10.036209
-59.172371 -60.291763 -1.585308
-59.524422 -60.219128 -1.611725
-59.12595 -60.257629 -1.689365
-56.241295 -60.341179 -1.693326
-55.453804 -60.382103 -1.744838
-59.054424 -60.201359 -1.8294719
-58.146854 -60.234016 -2.2273779
-57.753754 -60.254684 -2.2054501
-54.575569 -60.374107 -2.547868
-58.528286 -60.209702 -2.7061269
-57.697273 -60.244221 -2.6735489
-55.767826 -60.3372 -2.6017771
-53.474186 -60.388962 -2.974534
-57.282288 -60.250824 -3.121779
-54.931393 -60.349258 -3.1329989
-53.839073 -60.379795 -3.04672
-47.600407 -60.396706 -3.3969309
-55.438416 -60.342316 -3.5407431
-55.141102 -60.323345 -3.5276949
-53.421249 -60.279755 -3.570811
-52.716824 -60.386658 -3.52706
-56.462593 -60.295982 -3.672111
-56.115479 -60.299351 -3.6942749
-55.30426 -60.329712 -3.6980691
-53.383018 -60.326424 -3.7091341
-46.997746 -60.362968 -3.756619
-56.298515 -60.258072 -3.954289
-52.958809 -60.382996 -3.842412
-44.232376 -60.35207 -3.9178619
-43.856483 -60.391449 -3.8580739
-58.685852 -60.22559 -4.1512718
-58.283085 -60.213547 -4.1717601
-56.45726 -60.285591 -4.1161089
-55.775284 -60.304047 -4.0891609
-55.078766 -60.321247 -4.10923
-52.897331 -60.373009 -4.1104698
-55.275078 -60.333275 -4.2505512
-54.907063 -60.332577 -4.2387538
-56.145988 -60.285355 -4.5789452
-55.813725 -60.288513 -4.5865431
-51.693432 -60.378262 -4.4217768
-55.465588 -60.311203 -4.7596331
-51.002884 -60.323437 -4.6353588
-53.536461 -60.244553 -4.880487
-55.334633 -60.288055 -5.108572
-55.105957 -60.309837 -5.0901232
-47.484634 -60.317612 -5.034512
-46.744247 -60.351852 -5.10571
-56.623817 -60.271774 -5.2534189
-52.289951 -60.391304 -5.340148
-51.379917 -60.327171 -5.3706241
-55.397835 -60.362019 -5.5998731
-54.933075 -60.358856 -5.4061751
-50.305782 -60.271465 -5.4176741
-58.26067 -60.255646 -5.6287169
-57.833755 -60.289043 -5.7472458
-54.259075 -60.326492 -5.915957
-53.441509 -60.352264 -5.9390092
-56.258278 -60.257347 -6.0834632
-54.479507 -60.297947 -6.2268791
-55.333328 -60.291542 -6.4670048
-54.994534 -60.285328 -6.4489751
-54.592697 -60.302895 -6.5018868
-52.241116 -60.374744 -6.5264349
-52.026409 -60.367363 -6.4867029
-56.334892 -60.213295 -6.9121041
-55.051006 -60.248863 -6.8784022
-54.602242 -60.270424 -6.8622088
-53.799358 -60.313026 -6.873271
-54.538334 -60.287399 -7.3687429
-57.243328 -60.277203 -7.7117229
-49.434464 -60.399948 -7.62745
-56.986561 -60.311115 -7.8532948
-54.943043 -60.205521 -7.822444
-52.195969 -60.315643 -7.8113022
-54.759453 -60.231232 -8.4464474
-51.734417 -60.34491 -8.502594
-46.620911 -60.255409 -8.8657084
-49.481712 -60.372337 -9.3702955
-59.00943 -60.193485 -2.2704301
-59.809353 -60.165749 -2.8748691
-57.772507 -60.186436 -3.311142
-57.741539 -60.08709 -3.5564909
-56.765968 -60.022888 -3.5976689
-57.316696 -60.068596 -3.641978
-56.845367 -60.100769 -3.7523949
-54.54792 -60.165268 -3.9493361
-59.295734 -60.152412 -4.1268239
-58.479156 -60.18795 -4.089633
-58.248764 -60.195988 -4.0747638
-59.363262 -60.145748 -4.5004339
-59.02533 -60.160728 -4.5155978
-59.363571 -60.145397 -4.9375558
-58.212692 -60.192413 -4.9232249
-58.45816 -60.160194 -5.0878291
-58.233093 -60.177246 -5.1071959
-59.378841 -60.129852 -5.394938
-58.990833 -60.146801 -5.3694811
-58.31144 -60.116398 -5.2399511
-58.610027 -60.152298 -5.5040069
-58.264984 -60.147804 -5.4699559
-57.769489 -60.047798 -5.4215131
-59.053993 -60.17704 -5.6862211
-57.81554 -60.162632 -6.0755491
-58.258881 -60.092239 -7.328876
-56.904823 -60.147453 -7.3063159
-57.919567 -60.18071 -7.6159568
-56.236378 -60.147217 -7.7897239
-55.876732 -60.158951 -7.7945681
-55.771103 -60.146244 -8.100338
-58.247173 -60.054298 -8.2394066
-56.54385 -60.070953 -8.9238157
-58.363747 -60.003422 -9.9013004
-47.046608 -79.957481 -2.1520381
-55.909348 -79.819885 -2.301249
-55.367466 -79.816292 -2.320483
-55.070759 -79.902893 -2.3132739
-45.930443 -79.87455 -2.266628
-58.941994 -79.902298 -2.442091
-55.340698 -79.919914 -3.7240269
-54.524033 -79.854454 -3.9849069
-46.833755 -79.831581 -4.560154
-44.528351 -79.819069 -4.7701058
-54.493149 -79.923325 -5.106915
-54.100815 -79.813828 -5.3023572
-51.413036 -79.843857 -5.4020619
-53.483467 -79.875854 -5.8278518
-51.138947 -79.902046 -6.0634851
-52.51181 -79.837448 -7.646925
-52.176823 -79.888771 -7.838737
-43.402729 -79.83622 -8.0737457
-51.048111 -79.862198 -8.5212955
-52.534828 -79.682915 -2.195056
-44.965744 -79.79406 -2.183722
-41.905254 -79.765175 -2.163733
-41.442856 -79.69136 -2.113215
-57.860916 -79.776886 -2.3362379
-56.41835 -79.601685 -2.273761
-54.340397 -79.655739 -4.520905
-54.03043 -79.694069 -5.947505
-53.290733 -79.671638 -6.5764351
-52.719616 -79.794029 -7.0656228
-50.433105 -79.693428 -7.9136672
-44.949734 -79.44368 -2.1187301
-42.50452 -79.550392 -2.1338739
-59.868172 -79.55703 -2.346087
-58.243797 -79.548386 -2.2730539
-53.545082 -79.524887 -2.2668569
-58.74086 -79.5812 -2.5946729
-52.935089 -79.410828 -5.3429432
-52.137844 -79.532272 -5.3945279
-53.776482 -79.464226 -5.935966
-52.264782 -79.430687 -6.056488
-52.935883 -79.459183 -6.2200942
-52.696125 -79.406288 -6.607161
-52.4884 -79.492996 -7.0282168
-52.301353 -79.505722 -7.3252468
-49.285629 -79.436127 -7.8181839
-49.966011 -79.483246 -8.3879862
-59.370033 -79.324081 -2.3069389
-57.833534 -79.370598 -2.256187
-55.377003 -79.212967 -3.9669371
-54.902706 -79.298416 -5.0172691
-52.094494 -79.39418 -5.1561298
-51.628319 -79.228905 -5.2700992
-53.000206 -79.360947 -6.5403481
-53.661385 -79.327774 -6.6056118
-53.594814 -79.268906 -6.6098919
-49.149036 -79.20472 -8.1894541
-47.519135 -79.36705 -9.3362494
-40.3577 -79.255127 -9.8386126
-47.07 -79.194977 -2.0977459
-46.114914 -79.008606 -2.1800089
-45.400135 -79.025497 -2.1263421
-59.317337 -79.192474 -2.306855
-57.014656 -79.095306 -2.261797
-52.864868 -79.115829 -2.217149
-53.847343 -79.104614 -3.7161169
-53.868843 -79.026367 -5.0817919
-52.902992 -79.102341 -5.4268022
-44.289669 -79.142075 -8.3509064
-45.747303 -78.817047 -2.147892
-44.42765 -78.912979 -2.1372941
-43.141808 -78.856995 -2.132539
-42.547729 -78.95578 -2.0378661
-49.115273 -78.832657 -3.9362991
-54.678242 -78.936478 -4.6864419
-53.160751 -78.806808 -5.0668492
-51.81237 -78.913895 -5.2736349
-51.098145 -78.861115 -5.39609
-52.27594 -78.824234 -5.5766768
-53.484081 -78.959435 -6.6308732
-51.50227 -78.898842 -6.9911518
-45.362717 -78.948685 -8.1834278
-40.692757 -78.843903 -9.7016087
-52.79192 -78.683838 -2.198504
-54.090973 -78.753067 -4.1014032
-49.174362 -78.747757 -4.5924292
-51.934204 -78.673958 -5.1242752
-53.628571 -78.749786 -5.536428
-53.544228 -78.761307 -5.5570831
-53.61536 -78.729874 -6.9075322
-51.82457 -78.636658 -7.068397
-59.381485 -78.57946 -2.2785699
-57.168938 -78.465546 -2.2483399
-53.896687 -78.581253 -2.25371
-51.371067 -78.43824 -5.5092111
-50.209904 -78.544701 -5.5714908
-51.007431 -78.552986 -5.668643
-40.709324 -78.584114 -9.7717199
-46.944206 -78.332664 -2.0862379
-44.951267 -78.319382 -2.0871871
-56.70462 -78.392387 -2.227469
-54.050774 -78.248756 -2.2694681
-48.544762 -78.208847 -5.9598112
-51.968323 -78.38269 -6.7747421
-51.160976 -78.35556 -7.1052089
-46.305099 -78.049255 -2.1187501
-43.4104 -78.145729 -2.116915
-54.352455 -78.178413 -2.234597
-53.773079 -78.146957 -5.0941739
-44.710922 -78.054977 -5.0157008
-53.639366 -78.191948 -5.8766031
-51.053986 -78.148544 -7.4258819
-58.944183 -78.139587 -7.8083501
-53.254318 -77.976906 -2.153172
-47.072063 -77.847031 -2.0884919
-45.413086 -77.86573 -2.0447099
-56.873535 -77.859718 -2.2108419
-54.92057 -77.853668 -2.2012019
-54.044518 -77.985359 -4.8591471
-49.392052 -77.951416 -5.4959311
-50.048222 -77.979034 -5.7164698
-52.348778 -77.946503 -6.148026
-52.556324 -77.864746 -6.8635221
-59.058075 -77.806885 -7.86342
-58.376766 -77.871437 -8.8145046
-53.097553 -77.725891 -5.307766
-48.496994 -77.667671 -5.6902189
-51.531395 -77.71566 -7.5052791
-58.841702 -77.798187 -8.341114
-40.221886 -77.734787 -9.8598709
-53.748161 -77.43058 -2.1741199
-41.952843 -77.535446 -2.021003
-59.031391 -77.409904 -2.2461851
-57.856186 -77.456573 -2.2623169
-53.164455 -77.468948 -5.131577
-44.905933 -77.500969 -5.0695128
-43.844707 -77.415863 -5.11903
-48.685387 -77.45105 -5.8930879
-52.581543 -77.424194 -6.993598
-58.485031 -77.347343 -2.196511
-58.372849 -77.242409 -2.22224
-48.169098 -77.396805 -5.3940558
-47.982063 -77.228317 -5.3904438
-48.147999 -77.378136 -5.7440829
-50.343204 -77.389091 -7.5377851
-49.643272 -77.275894 -7.4964571
-58.553043 -77.266747 -7.6963429
-58.228844 -77.28833 -7.668067
-41.776249 -77.288643 -7.9915318
-58.41589 -77.248222 -8.9543991
-57.371574 -77.139755 -2.1906919
-53.447216 -77.070892 -2.12325
-53.420414 -77.107147 -5.306385
-52.659096 -77.127586 -6.4588442
-51.074409 -77.022148 -6.9799781
-58.931709 -77.167824 -7.2701659
-44.957977 -77.157898 -8.482233
-59.726006 -77.177834 -8.8941507
-54.171139 -76.96344 -2.184665
-47.369339 -76.908157 -2.0824111
-53.323364 -76.992096 -5.066968
-53.141308 -76.998489 -5.039834
-52.222088 -76.859322 -6.5582762
-55.931084 -76.880585 -7.0466299
-52.250568 -76.985832 -7.2367501
-57.991409 -76.939987 -7.429317
-57.943092 -76.925018 -8.0278177
-52.674561 -76.788887 -2.0701661
-49.8381 -76.654655 -2.056555
-48.307945 -76.760132 -2.0812089
-53.073864 -76.735687 -5.3724589
-55.784279 -76.638145 -7.138226
-51.714012 -76.745522 -7.1326919
-51.02729 -76.699051 -7.3964939
-53.271305 -76.593452 -2.117918
-47.848061 -76.576157 -2.169189
-44.719688 -76.571968 -2.0836561
-48.777092 -76.433563 -3.816005
-46.947273 -76.58448 -5.4738111
-44.5499 -76.564911 -5.6761632
-52.635258 -76.478912 -6.133554
-48.801285 -76.417984 -6.180244
-52.221725 -76.547775 -6.5736771
-55.458984 -76.575768 -7.065423
-56.136097 -76.485352 -7.7160249
-54.984573 -76.462105 -8.3922224
-54.707706 -76.505203 -8.2037354
-59.428394 -76.218918 -2.165298
-58.611687 -76.285751 -2.1665471
-53.671951 -76.20961 -2.081912
-44.795128 -76.352158 -2.072489
-43.840397 -76.364403 -2.065136
-58.92601 -76.280731 -2.2100511
-46.970024 -76.276779 -5.7012029
-52.821663 -76.279427 -6.1272922
-52.341721 -76.210571 -6.256042
-50.629559 -76.259186 -7.094172
-56.015862 -76.349419 -7.5675931
-54.90189 -76.299988 -7.5372009
-54.676964 -76.275482 -7.5439091
-56.045414 -76.29467 -7.681262
-54.995968 -76.288193 -7.7007322
-54.353165 -76.289413 -7.7830372
-55.049911 -76.357834 -8.0592728
-48.668747 -76.360733 -8.3407202
-58.995796 -76.15139 -2.1797171
-55.069366 -76.192841 -2.143935
-40.065056 -76.067314 -2.0239439
-58.952423 -76.064598 -2.210618
-44.986259 -76.091644 -5.5005631
-46.365059 -76.184036 -5.8619399
-44.209091 -76.073334 -7.929832
-54.626209 -76.148834 -8.6946821
-43.170689 -76.1903 -8.8403826
-44.70829 -75.825882 -1.979664
-55.534477 -75.96833 -2.113085
-48.161728 -75.867813 -2.158488
-47.387802 -75.959579 -5.4787631
-52.756432 -75.904488 -6.6504741
-54.740635 -75.995743 -8.327199
-44.108635 -75.786026 -1.989745
-53.744293 -75.755463 -2.0661919
-52.753529 -75.75811 -2.0524161
-50.230488 -75.787407 -2.0273981
-43.65881 -75.624725 -2.429693
-53.137012 -75.662231 -4.9909768
-53.50771 -75.729813 -5.3591232
-48.427795 -75.73999 -5.3346152
-52.338974 -75.744644 -5.6007671
-46.69873 -75.788513 -5.8462582
-41.673134 -75.617142 -6.9306078
-49.400955 -75.645576 -7.7689319
-59.068947 -75.535599 -2.180943
-58.974007 -75.418823 -2.1642711
-53.722588 -75.50325 -2.0702789
-59.142548 -75.450592 -2.206368
-43.194511 -75.582275 -2.42467
-48.572578 -75.523247 -4.9828372
-46.619751 -75.448441 -5.8327212
-53.50399 -75.402878 -6.2856102
-40.464668 -75.224686 -1.959766
-57.364624 -75.393112 -2.1272421
-42.158939 -75.243469 -2.373801
-40.079456 -75.307678 -3.4243801
-42.290344 -75.318604 -4.990684
-53.088387 -75.349617 -5.7366772
-48.231678 -75.260635 -7.006948
-42.28828 -75.241348 -8.4751129
-44.788857 -75.126373 -1.957366
-58.121902 -75.140785 -2.143157
-56.245655 -75.19664 -2.1082709
-50.516483 -75.168358 -2.0067
-43.86673 -75.079651 -2.5446081
-53.500931 -75.079666 -5.7405772
-53.108383 -75.050415 -5.782402
-52.056496 -75.033844 -5.9615812
-53.702419 -75.054337 -6.6516352
-42.937107 -75.065796 -6.6420832
-53.361977 -75.128784 -7.3901229
-48.31588 -75.143402 -7.296401
-53.726181 -75.09758 -7.4073238
-51.728477 -75.175217 -8.4455013
-54.711094 -74.880737 -2.036937
-48.687492 -74.901573 -2.0869851
-48.306774 -74.811722 -2.1123061
-48.548759 -74.920593 -4.8903189
-45.864666 -74.844086 -5.2534218
-53.228184 -74.986038 -7.6739459
-52.16515 -74.915695 -7.8469748
-49.19878 -74.67646 -1.993997
-56.011559 -74.658188 -2.086127
-53.784763 -74.711258 -2.0080731
-50.839039 -74.734055 -2.097404
-44.886257 -74.634979 -3.547657
-44.227936 -74.694069 -3.706532
-45.284229 -74.631927 -4.228148
-46.655487 -74.79335 -4.786303
-53.79277 -74.619156 -6.245821
-52.307129 -74.731598 -6.2287288
-54.009636 -74.650253 -6.7619171
-44.367691 -74.663506 -7.55267
-44.312943 -74.691505 -7.776536
-52.753616 -74.714401 -7.9303398
-44.275185 -74.637871 -8.1198721
-58.320946 -74.526245 -2.1271501
-57.383492 -74.512924 -2.0988309
-56.117577 -74.523201 -2.0410769
-48.469757 -74.529083 -2.107435
-44.859486 -74.569778 -2.7556951
-42.733051 -74.474892 -3.2252221
-45.278522 -74.589195 -3.9586339
-45.119522 -74.51284 -3.869184
-45.396893 -74.541359 -4.2496099
-44.401581 -74.543129 -4.3673401
-44.878819 -74.489883 -4.5907092
-45.372021 -74.47374 -4.6190209
-44.370487 -74.555382 -4.7577658
-48.562191 -74.577385 -5.13728
-48.359947 -74.58905 -5.2107682
-46.667103 -74.449921 -5.7124472
-54.127987 -74.532234 -7.1371198
-44.416096 -74.58226 -7.5982709
-52.910084 -74.477936 -8.0383444
-48.958683 -74.409286 -8.3007317
-55.921692 -74.238579 -1.99949
-49.212761 -74.233772 -1.960093
-57.925323 -74.358398 -2.0785911
-54.978012 -74.342644 -2.024976
-54.719925 -74.240829 -2.0629621
-48.246338 -74.357437 -2.0760601
-43.778393 -74.232338 -3.0181201
-45.303898 -74.264977 -4.1369071
-40.02858 -74.293335 -4.9245691
-48.943264 -74.265961 -5.0154691
-45.10379 -74.271027 -5.7939968
-50.662628 -74.321198 -6.2170348
-42.494305 -74.229599 -6.963387
-45.415276 -74.399467 -7.0944719
-49.493256 -74.236877 -8.1892986
-54.226345 -74.10479 -1.998016
-49.591507 -74.016724 -1.920063
-47.542782 -74.030701 -2.0048599
-44.779045 -74.068237 -2.267087
-42.70475 -74.056862 -6.5949569
-54.208107 -74.187866 -6.7018209
-43.582127 -74.085159 -8.8189888
-51.885223 -73.923485 -1.96661
-46.617493 -73.818359 -1.958192
-57.061501 -73.848785 -2.0804689
-56.310143 -73.956955 -2.054353
-55.875481 -73.867973 -2.0561531
-45.279861 -73.913635 -4.1691179
-45.752525 -73.904984 -4.8748012
-49.24472 -73.803726 -5.1123471
-49.166737 -73.959595 -5.3208961
-46.200657 -73.914757 -5.4228969
-51.601437 -73.950706 -6.1374459
-48.782581 -73.952843 -6.258101
-53.826439 -73.84623 -7.0864458
-44.435699 -73.82122 -8.4461575
-41.832508 -73.818916 -8.7079144
-49.955673 -73.711334 -1.927165
-50.247749 -73.763412 -2.006845
-42.873051 -73.70018 -2.3869369
-49.684258 -73.608749 -6.487648
-50.254395 -73.785378 -6.6869059
-50.438576 -73.76738 -6.8742528
-41.568382 -73.76432 -6.9970002
-51.395996 -73.736069 -8.7514648
-50.715424 -73.741463 -8.6542177
-50.032059 -73.484932 -1.916201
-47.53196 -73.550079 -1.970152
-46.998535 -73.4375 -1.948472
-59.97039 -73.469833 -2.126271
-58.71804 -73.46553 -2.091666
-57.001259 -73.431915 -2.0505781
-56.99667 -73.421371 -2.0451341
-48.395378 -73.416031 -5.1921439
-53.752651 -73.572845 -6.989316
-52.197269 -73.52681 -8.5530787
-48.713974 -73.370834 -1.946099
-46.934216 -73.395683 -2.0494311
-44.181137 -73.29306 -6.2953749
-50.033142 -73.304298 -6.5334139
-41.692871 -73.330574 -8.1305666
-46.685936 -73.292435 -8.5273571
-46.677795 -73.01577 -1.913174
-59.332294 -73.024094 -2.108911
-57.091934 -73.154694 -2.0284729
-44.482914 -73.097549 -2.480217
-47.293678 -73.047943 -5.3949199
-47.095669 -73.132088 -5.5034399
-44.438927 -73.057869 -5.940804
-42.088799 -73.086624 -8.1281204
-46.978725 -73.119492 -8.2468739
-41.557384 -73.021423 -9.1907978
-59.117569 -72.823029 -2.095479
-58.871124 -72.962494 -2.1334209
-57.332035 -72.957993 -2.0371239
-43.379059 -72.937447 -5.5444498
-44.349762 -72.929581 -5.7939882
-59.460884 -72.949547 -6.2032809
-45.857124 -72.898308 -7.5006289
-53.402504 -72.827957 -7.9211221
-48.475094 -72.982498 -8.9692926
-45.105122 -72.607559 -2.365766
-44.520832 -72.631737 -2.2900839
-44.267845 -72.751358 -2.3429539
-50.978058 -72.72348 -6.1851749
-52.048683 -72.629593 -7.2236638
-44.475471 -72.670074 -7.6927538
-53.404625 -72.796288 -7.9618039
-42.711903 -72.743591 -8.4224749
-55.989441 -72.573357 -1.996008
-54.287682 -72.577713 -1.959339
-48.302948 -72.569214 -1.9393981
-45.11694 -72.454956 -2.4566331
-47.234104 -72.531021 -5.3777461
-52.007839 -72.551208 -5.8712859
-51.916382 -72.558853 -5.9729838
-59.382557 -72.56337 -6.5185108
-43.795006 -72.59597 -7.754252
-51.17028 -72.413177 -7.8180599
-49.624752 -72.209526 -1.9392101
-57.092426 -72.26503 -2.0121009
-46.090485 -72.203255 -4.3802652
-45.979942 -72.352562 -5.8389859
-46.02002 -72.258003 -6.1888418
-43.930855 -72.368164 -6.0743532
-51.347939 -72.312241 -6.5825939
-46.423767 -72.320892 -7.5207152
-46.400795 -72.338593 -8.0701313
-42.236946 -72.359268 -8.0166168
-52.961906 -72.133057 -1.974519
-58.105713 -72.035027 -2.4975049
-57.940598 -72.000374 -2.5235729
-47.297401 -72.145889 -5.2933059
-45.207405 -72.010567 -5.587729
-45.207626 -72.040215 -5.6623268
-56.905891 -72.083611 -7.0064259
-47.784409 -71.849571 -1.890839
-45.848923 -71.876617 -5.4490261
-51.794224 -71.810623 -5.9191451
-43.845913 -71.846169 -5.8870201
-58.860245 -71.950996 -6.53335
-51.370613 -71.954315 -6.6813388
-50.271408 -71.895355 -6.9272161
-50.984806 -71.81076 -7.558743
-50.592453 -71.941673 -7.436727
-43.024395 -71.731285 -1.827823
-42.234776 -71.758652 -1.821804
-58.59959 -71.786911 -2.612576
-52.462715 -71.719902 -4.8678842
-44.446362 -71.715477 -5.9355879
-44.379223 -71.75238 -6.1461468
-50.913296 -71.724129 -7.8930988
-45.47057 -71.794975 -8.1285229
-40.306477 -71.665878 -8.4044037
-43.289986 -71.727913 -8.9974813
-52.528183 -71.511337 -1.939061
-48.187954 -71.486557 -1.8594919
-47.4655 -71.438614 -1.861452
-44.265099 -71.560768 -1.8455909
-42.238407 -71.44857 -1.820421
-51.480171 -71.426453 -5.483995
-51.865376 -71.440613 -5.8052778
-46.434425 -71.53299 -6.8220329
-46.32766 -71.486572 -8.1113796
-40.748455 -71.556107 -9.1246147
-58.31147 -71.338577 -2.631443
-51.077259 -71.289429 -5.4367509
-58.813526 -71.264046 -6.434473
-58.162735 -71.360519 -6.6555748
-58.562195 -71.392914 -6.962163
-51.936768 -71.03981 -1.9446779
-44.32032 -71.022209 -1.8036031
-41.589252 -71.124748 -1.879658
-46.212318 -71.084717 -4.236248
-45.063259 -71.074844 -4.9391818
-50.626495 -71.082611 -5.07972
-52.504829 -71.064926 -5.7849002
-43.032475 -71.160545 -7.3838491
-50.593266 -71.15976 -7.8944898
-52.250328 -70.893929 -1.934461
-50.119873 -70.96904 -1.942148
-42.270596 -70.971848 -1.856992
-45.549988 -70.989723 -4.7747211
-50.948299 -70.948433 -5.0912561
-58.676414 -70.820473 -5.944581
-44.249794 -70.916252 -5.9534588
-44.317421 -70.853294 -6.1786718
-49.943687 -70.85537 -6.7300072
-41.340252 -70.964607 -7.7573652
-40.341419 -70.985146 -8.7445364
-43.80476 -70.819496 -9.6022663
-59.174252 -70.638046 -2.7837901
-59.158703 -70.631966 -3.984736
-58.697067 -70.651291 -3.913239
-58.650013 -70.637627 -4.2134418
-47.026554 -70.773788 -4.597795
-45.472473 -70.757111 -4.6676588
-58.728806 -70.692474 -5.4947348
-58.730682 -70.612114 -6.530941
-58.344246 -70.685211 -6.4211478
-42.316093 -70.676018 -6.7746701
-40.339272 -70.642502 -6.618238
-41.040817 -70.799904 -8.1217556
-43.283268 -70.618851 -9.3060675
-52.515358 -70.492554 -1.923291
-48.526573 -70.590927 -1.891795
-59.265369 -70.442581 -2.7879021
-58.904404 -70.567337 -3.5288391
-58.341949 -70.435379 -3.536454
-59.103622 -70.562714 -3.7062449
-58.492943 -70.502701 -3.6266689
-58.540688 -70.56871 -4.1627202
-59.285332 -70.509827 -4.6832972
-59.313782 -70.515686 -5.0157018
-59.15097 -70.514053 -5.1014171
-44.593491 -70.535355 -5.13942
-59.006447 -70.472191 -5.498754
-57.887325 -70.401337 -5.5983238
-59.367252 -70.431107 -5.7608781
-58.767097 -70.469078 -5.7818952
-40.468029 -70.458 -6.712678
-41.348717 -70.536972 -7.5761809
-45.037144 -70.547745 -8.5348358
-58.669834 -70.596848 -8.9205389
-52.389053 -70.30722 -1.942009
-58.418785 -70.398216 -2.57195
-59.22493 -70.370346 -3.1383669
-59.31929 -70.322273 -4.6807399
-59.309772 -70.247742 -5.5198379
-58.606827 -70.206009 -6.1643219
-59.404854 -70.228378 -6.5609469
-40.317963 -70.274574 -6.903626
-45.232578 -70.176178 -1.776358
-44.257774 -70.154289 -1.79489
-50.959927 -70.087013 -1.902305
-42.214771 -70.155838 -1.840698
-42.173714 -70.153557 -1.943137
-41.256123 -70.103966 -1.925292
-59.2603 -70.112091 -4.077682
-59.162941 -70.040268 -4.1612449
-58.966209 -70.029358 -4.2153268
-58.266838 -70.199883 -4.6685462
-59.246094 -70.140549 -4.9391398
-59.085945 -70.145645 -5.0406389
-49.505032 -70.125015 -5.1264191
-59.254631 -70.098793 -5.3207111
-49.706242 -70.025833 -5.2148728
-44.127037 -70.161072 -5.426796
-58.645554 -70.15213 -5.8423538
-59.090752 -70.136665 -6.0478759
-47.700352 -70.184814 -6.248889
-59.318832 -70.101669 -6.432157
-57.951729 -70.056473 -6.68434
-58.674454 -70.092865 -7.2669668
-42.404011 -70.013878 -7.232142
-43.52747 -69.907745 -1.788012
-59.290405 -69.957016 -3.162349
-58.891605 -69.952606 -3.1166401
-58.840378 -69.905693 -3.5432711
-58.854439 -69.931229 -3.72014
-59.250126 -69.932182 -4.3603988
-59.28466 -69.872398 -4.625854
-59.329514 -69.827667 -4.850544
-49.017654 -69.808647 -5.7834268
-44.920376 -69.820831 -8.4795609
-48.680061 -69.714508 -1.757777
-43.302902 -69.627213 -5.8177328
-43.09996 -69.646362 -5.8305631
-48.247871 -69.760635 -6.3176179
-58.200527 -69.702568 -6.5149632
-42.842712 -69.783455 -6.8679719
-44.921886 -69.723404 -7.4608531
-48.906765 -69.538574 -1.8013541
-42.143021 -69.444672 -1.848694
-57.150986 -69.545097 -2.5290041
-59.330765 -69.59288 -5.1141729
-49.151047 -69.473946 -5.775414
-48.731937 -69.421494 -5.6771922
-48.231232 -69.46759 -6.4708991
-41.456154 -69.528427 -6.9054461
-40.43639 -69.479889 -7.7187099
-42.62035 -69.248322 -1.7443039
-41.858055 -69.314499 -1.7512341
-40.199837 -69.339157 -1.794372
-58.135231 -69.305603 -2.557198
-44.349613 -69.391998 -4.9920821
-47.4146 -69.261665 -5.816257
-48.207172 -69.361099 -6.461771
-44.974598 -69.201782 -8.3188152
-46.355568 -69.138512 -1.7255419
-44.403259 -69.128487 -1.785735
-59.409409 -69.091774 -2.4828179
-57.416519 -69.071899 -2.5136859
-49.258972 -69.193039 -4.648716
-47.512268 -69.077148 -6.347023
-41.378647 -69.080383 -7.725821
-44.832325 -69.071175 -8.5151548
-51.316025 -68.819992 -1.913043
-59.846821 -68.88681 -2.5648341
-59.437904 -68.958794 -5.7430301
-48.804375 -68.842247 -5.7161951
-43.496788 -68.998627 -5.7169929
-59.462898 -68.984062 -5.850553
-43.038727 -68.918655 -5.895
-42.405373 -68.889236 -6.0315409
-40.928612 -68.945129 -6.294251
-48.925797 -68.728653 -1.789169
-45.817612 -68.656052 -1.78844
-44.656174 -68.713333 -1.771004
-55.466961 -68.631393 -1.8801529
-51.273293 -68.704163 -1.900557
-41.490887 -68.77227 -1.825336
-58.571228 -68.609528 -2.5373981
-57.481434 -68.720261 -2.5007949
-59.476509 -68.668304 -5.8703008
-47.238083 -68.664108 -7.7051392
-46.87928 -68.794342 -8.2410316
-59.86837 -68.468437 -2.3445001
-59.317635 -68.401176 -2.209162
-59.507416 -68.593094 -2.5284929
-58.956573 -68.497864 -5.8142891
-42.636654 -68.514435 -5.9466319
-42.121502 -68.550171 -5.813344
-58.972752 -68.462128 -6.5744581
-58.722332 -68.416405 -6.7665
-46.723148 -68.584023 -7.7236681
-48.241142 -68.327705 -1.761259
-45.40596 -68.246033 -1.75824
-53.223709 -68.251968 -1.85376
-59.032944 -68.301964 -2.1914561
-58.543007 -68.258865 -2.1701519
-43.741928 -68.278374 -4.6960621
-42.636597 -68.212753 -4.9218602
-58.755993 -68.270264 -5.664835
-41.495148 -68.203827 -6.5879641
-58.610008 -68.293587 -6.752636
-59.098465 -68.231056 -6.8651891
-42.552113 -68.263023 -8.1790638
-45.990524 -68.232445 -8.2017174
-44.086853 -68.300972 -8.5931644
-47.889725 -68.039696 -1.7305
-41.800064 -68.095932 -1.79158
-58.242088 -68.039436 -1.9129781
-57.225395 -68.167702 -1.953905
-56.842426 -68.113075 -1.901392
-44.100368 -68.047836 -4.2057729
-41.937363 -68.071236 -5.9178429
-59.698624 -68.148003 -6.1485081
-59.736198 -68.107437 -6.2221799
-43.572632 -68.068069 -7.7424269
-46.546326 -68.175018 -7.8684502
-46.508896 -68.068436 -8.4819241
-42.166878 -67.88591 -1.79342
-51.76276 -67.965828 -1.867539
-43.397125 -67.874001 -4.6762781
-42.92065 -67.923141 -8.2604322
-50.135323 -67.662857 -1.785746
-41.199951 -67.666565 -1.772328
-59.666531 -67.745003 -1.892982
-58.910507 -67.66703 -1.888625
-44.295673 -67.790405 -1.83337
-59.85733 -67.695663 -6.442327
-42.209236 -67.630409 -7.8651829
-40.329773 -67.45005 -1.75254
-43.664822 -67.537399 -5.0726838
-45.109795 -67.521156 -7.5846801
-45.71627 -67.431183 -8.1312351
-43.454231 -67.299927 -4.3037848
-43.628288 -67.224892 -7.078372
-46.264122 -67.325363 -7.5548968
-44.516838 -67.2882 -7.9237761
-46.685684 -67.268082 -8.3901014
-49.908844 -67.186714 -1.7801729
-42.336887 -67.028564 -1.771251
-58.29118 -67.144783 -1.845359
-57.38813 -67.188126 -1.886652
-52.572388 -67.004448 -1.897933
-42.868576 -67.015045 -7.3069348
-44.990211 -67.040039 -7.4537978
-46.137737 -67.074356 -7.6440129
-47.519417 -67.129593 -8.9274635
-40.888153 -66.967758 -1.7690901
-56.160652 -66.998299 -1.90837
-54.230392 -66.929306 -1.893913
-53.228821 -66.836288 -1.90167
-44.651352 -66.858612 -1.880392
-44.01757 -66.873627 -4.2369351
-45.782631 -66.970879 -8.1895351
-44.865971 -66.882095 -8.2302246
-45.400581 -66.976074 -8.483222
-44.738197 -66.796875 -1.727616
-40.61713 -66.726768 -1.7482899
-57.477287 -66.679703 -1.921355
-52.104538 -66.750748 -1.882702
-43.938766 -66.745163 -6.823822
-51.054996 -66.58445 -1.7952189
-45.817337 -66.514351 -1.7579629
-43.371208 -66.538795 -1.7951469
-59.840443 -66.594971 -1.861688
-51.591125 -66.372169 -1.798574
-46.267197 -66.321281 -1.784067
-42.30394 -66.390129 -1.778336
-43.326008 -66.294777 -2.5568111
-43.401817 -66.221062 -3.9428761
-47.825748 -66.391327 -8.2733917
-41.326691 -66.138664 -1.701187
-58.491631 -66.172714 -1.910295
-57.731567 -66.072449 -1.9076591
-56.892609 -66.155136 -1.846801
-51.817459 -66.170837 -1.805167
-45.429302 -66.147308 -1.862602
-43.819363 -66.166862 -4.1743479
-43.18634 -66.088806 -4.0667839
-42.739948 -66.165497 -5.38834
-42.350842 -66.00161 -5.5580158
-44.724388 -66.008987 -5.6594391
-44.626141 -66.169235 -6.255054
-43.074074 -66.058807 -6.4127121
-51.131142 -65.873184 -1.796856
-40.535843 -65.891388 -1.68525
-46.992752 -65.867279 -1.932743
-43.330894 -65.937012 -1.8185281
-43.294659 -65.972931 -3.2827821
-43.882885 -65.862976 -4.1534572
-48.453514 -65.962891 -6.0185351
-43.239803 -65.883865 -6.2296462
-41.145729 -65.783073 -1.6968991
-58.627148 -65.776695 -1.861331
-57.09029 -65.753448 -1.897423
-56.704842 -65.633026 -1.83623
-56.288162 -65.755684 -1.85172
-53.294746 -65.788345 -1.839009
-46.679878 -65.747948 -1.924475
-45.08902 -65.646965 -1.8719881
-57.91169 -65.623169 -2.0086429
-48.950851 -65.661575 -2.8648441
-49.014145 -65.687592 -3.3489339
-43.540257 -65.776741 -5.4101338
-42.670872 -65.632072 -6.288671
-46.017761 -65.749275 -6.9666572
-45.953819 -65.683502 -7.0165
-45.503517 -65.718895 -7.8300738
-45.744831 -65.751038 -8.2414579
-52.722374 -65.589256 -1.835323
-52.56049 -65.42025 -1.800154
-48.905758 -65.458969 -3.092422
-48.67041 -65.452576 -3.1299419
-49.04414 -65.482849 -3.3501289
-49.57259 -65.450714 -3.4521589
-43.027481 -65.48085 -3.978812
-48.925957 -65.4758 -6.0511398
-44.715851 -65.45298 -6.1878648
-49.620327 -65.404472 -6.5142741
-46.055191 -65.558937 -6.8622041
-41.659103 -65.322388 -1.735131
-58.697433 -65.214622 -1.831643
-56.659397 -65.344971 -1.81022
-55.322754 -65.262665 -1.8213151
-54.088242 -65.207588 -1.835312
-53.845001 -65.377052 -1.853385
-52.632065 -65.388649 -1.817
-43.025791 -65.320114 -2.4398329
-48.628002 -65.395111 -3.424931
-44.748741 -65.286362 -4.7405519
-44.035572 -65.223526 -5.3145499
-49.651062 -65.282394 -5.818192
-49.351448 -65.37957 -5.9658828
-49.465981 -65.329773 -6.1471982
-44.885471 -65.27356 -6.2397952
-58.673386 -65.137314 -1.8591861
-49.830734 -65.045876 -3.163635
-48.721031 -65.185875 -3.9461019
-48.856331 -65.039719 -4.0670109
-48.567238 -65.104774 -4.07023
-44.575264 -65.080185 -4.9214988
-48.702957 -65.156136 -5.3339071
-43.700333 -65.143738 -6.2327671
-44.436951 -64.813507 -1.76562
-58.268665 -64.979218 -1.856725
-57.854469 -64.996437 -1.837652
-54.0784 -64.999939 -1.838509
-42.937592 -64.935295 -2.375303
-42.894291 -64.986176 -2.469975
-50.125984 -64.925911 -3.299422
-44.460526 -64.967041 -4.7709551
-49.080746 -64.879456 -5.1799169
-58.25787 -64.629936 -1.771724
-56.618633 -64.634094 -1.7618051
-52.380642 -64.751694 -1.733749
-59.041382 -64.635376 -1.800606
-54.967743 -64.705887 -1.89016
-50.385513 -64.622627 -3.643589
-48.702927 -64.688141 -5.1579309
-49.037521 -64.746704 -5.4424472
-48.739883 -64.691818 -5.835721
-48.743515 -64.645721 -6.5793481
-52.540466 -64.514816 -1.7345541
-47.850536 -64.560364 -1.7228251
-42.476864 -64.433945 -1.659796
-57.730339 -64.534103 -1.835278
-50.260834 -64.555267 -3.374686
-43.890793 -64.477104 -3.9680591
-44.085335 -64.477226 -4.0627699
-58.428001 -64.271004 -1.758497
-52.292332 -64.244141 -1.670822
-45.186474 -64.377197 -1.700982
-41.832684 -64.307846 -1.628777
-49.080372 -64.317413 -3.0516
-48.894806 -64.217438 -3.2668171
-50.447063 -64.338829 -4.019773
-43.985878 -64.296555 -4.0441751
-49.65258 -64.382492 -5.2644629
-48.451981 -64.307556 -5.2688389
-49.639534 -64.344971 -5.7088289
-48.538094 -64.212952 -5.8054318
-48.599022 -64.139252 -1.681211
-45.299225 -64.06897 -1.678533
-59.580948 -64.171791 -1.832827
-50.440323 -64.140381 -3.499393
-48.383949 -64.088493 -5.82583
-48.034096 -63.88763 -1.6639839
-54.468506 -63.930374 -1.8082
-49.050201 -63.809113 -3.170696
-48.983299 -63.942108 -3.1892469
-49.224586 -63.77346 -1.660231
-45.546387 -63.715935 -1.672464
-48.767014 -63.655262 -3.1862769
-48.734898 -63.704712 -3.8850701
-56.938766 -63.409679 -1.6861759
-52.77533 -63.536606 -1.686452
-46.107769 -63.444901 -1.6716
-49.299316 -63.58926 -3.0353169
-49.085194 -63.489136 -3.349144
-40.452881 -63.292015 -1.541476
-42.870171 -63.269554 -1.604594
-45.859379 -63.16095 -1.591222
-56.957909 -63.120605 -1.634812
-53.222969 -63.160229 -1.696932
-48.125961 -63.09882 -1.608133
-46.736488 -63.179352 -1.724362
-52.778553 -62.801338 -1.586354
-57.305901 -62.975563 -1.7025239
-46.600616 -62.998791 -1.68423
-51.274544 -62.632809 -1.52855
-48.852249 -62.680676 -1.588917
-54.251415 -62.639442 -1.6549881
-52.205246 -62.635872 -1.63314
-59.129963 -62.651814 -8.8954029
-48.817719 -62.566216 -1.609762
-46.895172 -62.593727 -1.687597
-41.942467 -62.459976 -3.3540871
-55.406517 -62.288544 -1.581579
-53.079407 -62.32502 -1.581194
-50.882462 -62.324364 -1.469097
-59.068138 -62.302963 -1.661747
-54.517769 -62.303139 -1.653384
-45.903252 -62.182716 -1.515617
-40.636162 -62.022484 -2.954047
-54.076214 -61.807896 -1.592587
-46.334328 -61.810188 -1.528929
-43.334656 -61.804298 -1.526016
-43.367332 -61.810631 -2.2312191
-41.816357 -61.875404 -2.9519241
-54.108887 -61.716217 -1.559916
-52.692318 -61.695351 -1.5056781
-42.67144 -61.795959 -1.493733
-59.178825 -61.791656 -1.646318
-46.933544 -61.775608 -1.623596
-55.800919 -61.405022 -1.553268
-47.783752 -61.474609 -1.4895869
-43.189419 -61.506519 -1.49617
-46.934769 -61.559967 -1.606115
-40.006912 -61.43848 -2.891505
-44.448704 -61.566544 -5.4555292
-57.002213 -61.286018 -1.581942
-56.586037 -61.26992 -1.561744
-53.372467 -61.381252 -1.541016
-48.101212 -61.27037 -1.492861
-45.002586 -61.396267 -1.531256
-40.930084 -61.335396 -2.712687
-51.882072 -61.22858 -5.5695219
-51.555515 -61.23761 -5.5812879
-51.740322 -61.239845 -5.6233549
-51.116348 -61.261963 -5.6351418
-50.935802 -61.237915 -5.6427269
-42.8069 -61.382759 -9.6545753
-57.46772 -61.054832 -1.5959671
-53.855339 -61.080376 -1.528548
-47.032696 -61.071884 -1.545662
-43.552441 -61.155296 -1.489931
-55.742111 -61.015381 -1.600467
-47.520988 -61.047573 -1.60482
-54.107399 -61.049324 -5.5745049
-50.733177 -61.19978 -5.5293579
-55.816139 -61.010201 -5.6685109
