# .PCD v0.7 - Point Cloud Data file format
VERSION 0.7
FIELDS x y z
SIZE 4 4 4
TYPE F F F
COUNT 1 1 1
WIDTH 1471
HEIGHT 1
VIEWPOINT 0 0 0 1 0 0 0
POINTS 1471
DATA ascii
-51.733994 -159.92447 -9.6566811
-42.844738 -159.91763 -9.8806477
-42.7995 -159.92436 -9.9844904
-52.990112 -159.89261 -10.557409
-52.398994 -159.92763 -10.511799
-42.461166 -159.92032 -10.534401
-49.755577 -159.89523 -10.658231
-41.589142 -159.96965 -10.808669
-53.337433 -159.80794 -11.000354
-49.662102 -159.91776 -11.014662
-50.28904 -159.92047 -11.352793
-52.707653 -159.81897 -12.06556
-40.611885 -159.74173 -4.1699228
-50.637691 -159.6188 -4.3186908
-49.465485 -159.77023 -4.2974572
-53.359482 -159.77415 -4.4276738
-53.482025 -159.70912 -8.9590273
-41.590607 -159.6777 -9.1247282
-53.248177 -159.64188 -9.4757833
-50.091492 -159.69067 -9.441474
-42.605846 -159.64125 -10.024295
-41.547752 -159.77548 -10.647934
-52.561882 -159.62044 -11.333658
-51.861397 -159.71265 -11.735487
-40.595383 -159.43633 -4.1460609
-55.856613 -159.44553 -4.361969
-55.034279 -159.43153 -4.396656
-58.874916 -159.56009 -4.4414439
-40.21006 -159.43192 -7.1588759
-52.467926 -159.52206 -8.3200436
-41.671837 -159.42422 -8.7427711
-40.55687 -159.54669 -9.7774916
-42.554955 -159.52074 -9.8337994
-49.057663 -159.49713 -10.537206
-53.620079 -159.57277 -10.779186
-40.274826 -159.28601 -8.174202
-40.986477 -159.29762 -8.7627935
-40.268673 -159.39337 -9.1226254
-53.270649 -159.34988 -9.4407501
-49.029625 -159.33432 -9.9074821
-49.314194 -159.38197 -10.194792
-41.684029 -159.35143 -10.048628
-49.887733 -159.312 -10.968588
-51.729012 -159.20515 -11.901486
-51.432827 -159.36609 -11.887125
-50.931599 -159.31488 -11.910953
-56.654087 -159.06233 -4.396894
-45.444752 -159.00044 -4.2829032
-43.181297 -159.02927 -4.2559481
-59.989151 -159.11539 -4.4883599
-53.316238 -159.16467 -9.4467735
-49.027679 -159.03729 -10.197324
-41.736351 -159.14345 -10.007174
-52.324352 -159.0838 -10.236353
-49.742073 -159.03152 -10.569205
-52.241814 -159.11026 -11.532621
-51.024357 -159.03011 -11.417908
-51.814518 -159.15875 -11.694469
-51.49366 -159.03204 -12.694021
-52.372559 -158.92354 -4.3628721
-45.620995 -158.95811 -4.2178278
-49.341927 -158.89935 -8.7423668
-52.455452 -158.94058 -9.1148796
-52.225998 -158.93335 -9.8522148
-51.012085 -158.94965 -9.8760662
-51.723038 -158.92499 -10.747108
-50.753532 -158.75705 -4.2860909
-59.64785 -158.72731 -4.451088
-51.63932 -158.60229 -9.2964802
-41.052383 -158.62975 -9.7678213
-41.502666 -158.78435 -9.9754086
-41.041252 -158.7345 -10.556587
-52.179199 -158.67514 -10.743769
-50.216022 -158.62537 -10.614542
-54.682034 -158.54866 -4.3783512
-40.877449 -158.49228 -8.7009506
-49.511726 -158.53677 -9.4267673
-51.067226 -158.51588 -9.9409227
-52.587025 -158.58122 -10.660172
-57.1147 -158.27769 -4.3973188
-46.942062 -158.24695 -4.2424541
-41.014671 -158.2764 -7.7707939
-40.658173 -158.29434 -7.7970052
-50.557014 -158.26871 -8.995347
-41.365417 -158.24261 -9.5676861
-40.607208 -158.21086 -9.7161598
-41.094143 -158.30051 -9.8259621
-50.691273 -158.2326 -10.156044
-41.416626 -158.37892 -10.741955
-41.224121 -158.14497 -4.1357169
-43.021381 -158.19768 -4.227047
-55.614548 -158.14357 -4.423224
-54.913696 -158.18585 -4.4186158
-40.475159 -158.02341 -9.0532961
-51.433983 -158.17786 -10.526978
-50.95929 -158.02789 -10.972356
-51.787426 -158.14352 -11.02203
-50.759285 -158.01659 -11.205957
-51.068497 -158.17097 -11.638625
-40.514893 -157.85559 -4.1846571
-57.3134 -157.93399 -4.3968401
-55.918694 -157.9234 -4.392777
-40.890358 -157.97369 -4.2137718
-55.1106 -157.87888 -4.4113259
-40.258728 -157.80293 -7.485096
-50.476494 -157.81525 -9.622324
-51.528187 -157.93584 -9.8111305
-41.844597 -157.82605 -10.033224
-51.782143 -157.95424 -10.777072
-51.211327 -157.8696 -11.405989
-42.757324 -157.69725 -4.1780739
-40.083809 -157.71362 -4.079144
-41.836617 -157.77238 -8.9592552
-41.556789 -157.77158 -8.8067169
-47.572876 -157.45811 -4.2256312
-40.818111 -157.52692 -7.1107712
-41.881824 -157.46338 -9.2135868
-41.177998 -157.33897 -4.2464871
-59.727577 -157.30988 -4.4607711
-55.579376 -157.3271 -4.4247322
-41.586353 -157.38542 -8.7096739
-40.741428 -157.21223 -8.8855762
-42.066128 -157.30977 -9.6724949
-54.604156 -157.00102 -4.3611908
-53.819172 -157.00143 -4.3498378
-40.442417 -157.0377 -7.9823341
-40.743401 -157.0833 -8.5837631
-48.535366 -156.89635 -4.24403
-41.288692 -156.88425 -8.610857
-42.282196 -156.91586 -9.4820509
-57.84005 -156.7554 -4.4004502
-41.347946 -156.79691 -8.5566711
-58.505142 -156.51744 -4.3713188
-40.74979 -156.45021 -7.9718409
-49.346706 -156.23497 -4.2432132
-40.86425 -156.2005 -7.936285
-40.354668 -156.26685 -8.9133358
-58.587101 -156.19081 -4.3750401
-56.865341 -156.07581 -4.418283
-55.006836 -155.89078 -4.345788
-46.696838 -155.96498 -4.2490711
-57.046238 -155.41089 -4.3807859
-56.008377 -155.57936 -4.3146548
-53.884651 -155.51407 -4.3084092
-47.865265 -155.08347 -4.2488952
-57.910507 -155.05463 -4.4202042
-55.219307 -154.81747 -4.319376
-50.876297 -154.92979 -4.2354999
-57.360828 -154.63034 -4.3631291
-48.580967 -154.57785 -4.2681422
-46.525494 -154.44601 -4.292449
-58.493694 -154.18912 -4.3713641
-56.536507 -154.08363 -4.316051
-55.396019 -154.11472 -4.2896018
-55.022305 -154.16649 -4.301578
-54.589825 -154.14996 -4.2814941
-49.418659 -154.19586 -4.297235
-46.875023 -154.05386 -4.2815838
-40.267498 -153.84398 -4.0165849
-56.659431 -153.89931 -4.3058419
-47.103062 -153.90628 -4.2827539
-57.692791 -153.73077 -4.3121772
-58.69952 -153.31528 -4.3196278
-54.663288 -153.38571 -4.2584658
-49.724976 -153.30719 -4.2820139
-59.416294 -153.27029 -6.6626091
-45.379688 -153.09897 -4.1025839
-54.246704 -153.0762 -4.2267461
-50.164238 -153.09863 -4.2571578
-49.014416 -153.00237 -4.2067099
-58.945953 -153.08548 -6.6551399
-59.73415 -152.95166 -4.3251138
-54.569511 -152.92355 -4.211731
-50.523808 -152.82472 -4.223897
-54.068214 -152.73892 -4.1925201
-53.997871 -152.76195 -4.1868262
-52.58139 -152.61633 -4.148654
-43.956841 -152.74719 -4.1197371
-54.539059 -152.75774 -6.5933318
-47.532532 -152.57062 -4.2192979
-58.742798 -152.59366 -6.5815082
-52.61314 -152.56052 -6.5856209
-51.812286 -152.44444 -6.5721688
-51.553764 -152.41216 -6.5744781
-52.82856 -152.5442 -6.6738281
-51.72744 -152.46271 -6.6255989
-54.251495 -152.27864 -4.1871591
-55.423908 -152.22868 -4.2219348
-50.619606 -152.10591 -4.1671681
-49.696533 -152.13614 -4.1581802
-48.37188 -152.0531 -4.2105579
-58.883453 -152.08353 -6.6104798
-48.965919 -152.18303 -6.690105
-59.124622 -151.89606 -4.2654562
-45.227413 -151.80486 -4.4749951
-52.1562 -151.83902 -6.4863482
-54.505024 -151.75574 -4.1852441
-50.333679 -151.74179 -4.1641312
-56.62178 -151.74454 -4.2466021
-51.710342 -151.75423 -4.2240739
-48.987206 -151.6611 -4.214191
-45.381855 -151.76813 -4.7999139
-44.531532 -151.67831 -4.7859149
-44.92366 -151.74504 -5.3177161
-44.698509 -151.73767 -5.313117
-43.875641 -151.63058 -5.3836498
-44.737648 -151.71793 -5.4846382
-45.25172 -151.745 -5.734982
-44.253792 -151.61507 -5.7424979
-45.507744 -151.69926 -5.8115311
-44.637318 -151.65929 -6.363503
-44.104355 -151.60378 -6.3654342
-58.967186 -151.73369 -7.0387678
-51.516129 -151.40079 -4.1948509
-50.983543 -151.54628 -4.2109618
-45.527916 -151.50731 -4.8525448
-43.809296 -151.57266 -4.9245491
-45.521854 -151.51398 -5.4692111
-42.921631 -151.47072 -6.5534029
-55.022591 -151.3839 -4.1981659
-54.452923 -151.34781 -4.1622891
-50.97364 -151.37466 -4.1861892
-58.984756 -151.38835 -4.264256
-54.926636 -151.27194 -4.2802081
-47.175812 -151.20906 -4.6969581
-41.486404 -151.35077 -4.7392602
-40.203735 -151.20076 -5.4266968
-45.52668 -151.39792 -5.7364101
-41.81839 -151.35388 -5.7060361
-52.200058 -151.27727 -6.3937912
-41.783993 -151.34155 -7.171402
-41.738205 -151.29929 -7.2230139
-49.191189 -151.14125 -4.1980619
-49.409546 -151.11705 -4.2078042
-40.029549 -151.10828 -4.6355729
-59.022133 -151.05522 -4.9997759
-45.558636 -151.05704 -5.5559311
-58.842686 -151.07884 -5.650547
-45.550186 -151.07938 -5.693706
-58.957306 -151.07959 -5.931118
-55.518475 -151.03465 -6.491138
-41.832897 -151.06189 -7.164959
-59.045448 -150.94183 -4.308629
-58.619392 -150.86642 -4.2612739
-51.84214 -150.97849 -4.2148061
-47.239758 -150.93918 -4.794477
-59.028732 -150.9651 -5.490798
-59.028339 -150.97569 -5.6631432
-59.3433 -150.89178 -7.1436038
-46.635426 -150.63698 -4.0956678
-47.853466 -150.6996 -4.7830911
-49.344669 -150.61093 -5.017117
-52.280285 -150.65324 -6.4533672
-55.727928 -150.47792 -4.3606472
-45.673317 -150.56146 -4.2030411
-55.709408 -150.56216 -4.498322
-55.710777 -150.48958 -5.1162858
-52.194736 -150.55916 -6.3930769
-45.611137 -150.47504 -6.2504911
-59.049133 -150.58719 -6.477427
-56.999176 -150.52129 -7.0684152
-56.567276 -150.50351 -7.064774
-41.713806 -150.55838 -7.2369709
-50.294212 -150.51535 -10.323222
-56.579792 -150.28546 -4.1990228
-48.351925 -150.28275 -4.1481881
-52.373898 -150.25809 -5.835639
-52.624176 -150.26315 -6.4987402
-52.418068 -150.29301 -6.4912262
-54.151512 -150.2114 -7.0485902
-49.763279 -150.22018 -9.9889269
-50.495346 -150.28683 -10.4039
-54.424652 -150.12354 -4.4840479
-54.158615 -150.11781 -4.4655342
-49.80891 -150.16815 -4.4635401
-50.611946 -150.11874 -4.6659598
-52.362282 -150.15045 -5.2681332
-52.412849 -150.08647 -5.713326
-42.136963 -150.04678 -6.7761459
-53.006657 -150.15314 -7.037262
-41.89616 -150.1884 -7.1526661
-48.603348 -150.04741 -10.982125
-56.779644 -149.94696 -4.2412019
-53.353729 -149.91177 -4.5639119
-53.495621 -149.95871 -5.1087379
-45.654598 -149.90121 -5.4593072
-52.404881 -149.99754 -5.707664
-49.000072 -149.9241 -5.9376688
-49.719582 -149.8331 -6.3627868
-55.739361 -149.83177 -6.5001688
-50.25901 -149.97896 -10.461068
-50.273827 -149.92168 -10.998165
-51.49358 -149.73495 -4.3607841
-50.11718 -149.76474 -4.905272
-59.1623 -149.67685 -6.535305
-48.589622 -149.62479 -6.9558949
-49.528168 -149.63921 -10.469624
-58.9776 -149.40419 -4.1961198
-55.787796 -149.50839 -4.1684189
-57.088017 -149.43744 -4.7541008
-50.705322 -149.58223 -4.9196911
-50.260509 -149.40605 -5.0223999
-57.021961 -149.42957 -5.2074351
-49.086536 -149.43846 -6.279572
-57.874382 -149.39778 -4.1952162
-51.253738 -149.36252 -4.3122792
-49.847855 -149.29002 -4.2059932
-51.395222 -149.39325 -4.9790039
-59.214676 -149.25079 -6.525579
-41.958874 -149.39464 -7.1178012
-52.467587 -149.11432 -6.4493999
-57.103935 -148.85159 -4.7114739
-53.526566 -148.93867 -4.9350238
-50.783138 -148.99106 -4.864625
-45.730896 -148.97118 -6.2965069
-52.018204 -148.97786 -6.8564219
-41.917282 -148.90152 -7.1719942
-50.966309 -148.95081 -10.987463
-57.425426 -148.62711 -4.1467638
-50.795067 -148.63632 -4.7411461
-59.555534 -148.60838 -10.553882
-51.369324 -148.74419 -10.961026
-52.296272 -148.5498 -4.157259
-47.58532 -148.40646 -4.0067129
-57.058395 -148.58981 -4.223217
-57.694115 -148.24376 -4.0985651
-57.376362 -148.32503 -4.117672
-52.455093 -148.33412 -4.1494679
-48.706688 -148.24594 -4.017746
-48.115906 -148.37555 -4.8234348
-49.175415 -148.26868 -6.3238888
-50.662521 -148.34258 -11.100515
-51.668297 -148.15256 -4.1010332
-57.985176 -147.8959 -4.103128
-51.892784 -147.87392 -4.0916471
-49.409897 -147.88341 -4.0174122
-53.432693 -147.60725 -3.9955111
-55.270039 -147.66101 -4.0358591
-52.669552 -147.40572 -3.9832771
-56.980495 -147.54764 -4.0494981
-54.639011 -147.55127 -4.0348358
-53.757278 -147.40231 -4.0047011
-45.880314 -147.42087 -5.3525448
-45.894714 -147.40329 -6.1468439
-50.664928 -147.43655 -6.5108428
-53.101707 -147.25128 -3.9920111
-45.898964 -147.27342 -4.9653559
-56.623272 -147.38997 -9.5031672
-56.264168 -147.25369 -9.8407717
-58.969429 -147.07919 -4.142292
-57.498074 -147.02289 -4.120235
-42.50259 -147.00439 -6.798162
-58.008331 -146.85236 -4.1872649
-56.58263 -146.91824 -4.0998592
-44.655113 -146.88058 -4.3487058
-45.687233 -146.96104 -4.4535322
-45.257034 -146.93115 -5.1521101
-45.267723 -146.89308 -6.0380769
-44.355911 -146.80138 -6.0080519
-56.909599 -146.9045 -9.465292
-56.623966 -146.61414 -4.1481471
-55.424599 -146.76208 -4.070869
-43.772835 -146.77228 -4.2994232
-43.409645 -146.73227 -4.2633438
-42.63501 -146.62285 -5.0857921
-44.247345 -146.77817 -5.94981
-43.418434 -146.67535 -5.9859438
-43.048149 -146.64069 -5.9369259
-42.933636 -146.61725 -6.0105519
-56.353821 -146.60358 -9.9106503
-51.261047 -146.53201 -4.0519018
-42.265198 -146.59439 -4.247345
-41.919613 -146.55095 -4.2635198
-41.296661 -146.43729 -5.9220028
-56.590752 -146.44066 -8.0150566
-57.684097 -146.42546 -9.9453239
-51.664921 -146.57474 -10.151749
-44.803761 -146.3419 -4.031899
-40.12735 -146.32812 -5.9097242
-56.32373 -146.21251 -9.4184389
-52.151634 -146.33466 -10.030039
-59.659031 -146.17856 -4.1277871
-57.727158 -146.15259 -4.1602311
-54.860439 -146.07768 -4.2406521
-41.164871 -146.03775 -6.8129711
-56.436523 -146.14487 -7.356483
-56.805981 -146.18451 -9.0007
-57.078979 -146.08049 -10.154791
-43.694218 -145.80658 -3.9258981
-48.326263 -145.84816 -4.015655
-56.241123 -145.84038 -4.2689281
-53.749802 -145.92383 -4.454937
-40.836952 -145.92433 -6.7262201
-56.989479 -145.80545 -8.3625603
-56.557709 -145.84065 -8.8450813
-56.352486 -145.92764 -9.3076868
-52.274895 -145.92393 -9.9383526
-51.881363 -145.88715 -10.077394
-44.652172 -145.73813 -3.922421
-59.454338 -145.66887 -4.0605969
-55.839111 -145.63928 -4.298923
-53.139984 -145.72945 -4.2793732
-57.330986 -145.63782 -8.1623888
-44.691345 -145.50323 -3.904995
-59.470917 -145.42857 -4.063488
-58.114536 -145.45769 -4.1158972
-57.901466 -145.4315 -4.0941262
-55.827545 -145.47751 -8.5959558
-57.209248 -145.55583 -8.6946907
-57.050709 -145.49432 -8.6861172
-51.53133 -145.42354 -10.099307
-45.66711 -145.21199 -3.9895811
-58.935402 -145.396 -4.080462
-57.591278 -145.24791 -4.1283441
-57.025345 -145.35666 -4.092803
-52.307831 -145.265 -9.182435
-51.560333 -145.24489 -9.3088188
-41.746151 -145.10974 -3.948637
-58.223904 -145.1662 -4.105803
-47.918938 -145.09406 -4.053977
-53.108452 -145.19492 -8.7611294
-56.528282 -145.187 -9.1893272
-56.520844 -145.11485 -9.3409901
-52.133987 -145.02808 -9.3235817
-52.968197 -144.95251 -9.7632103
-52.584984 -144.92529 -9.6398869
-56.530895 -144.91974 -9.8056602
-59.46917 -144.70148 -4.0787358
-55.009468 -144.63113 -4.170907
-53.039452 -144.68872 -9.7287283
-52.962658 -144.75566 -10.279476
-53.981415 -144.5946 -5.9140801
-50.536053 -144.58368 -9.4703999
-53.230255 -144.46088 -9.7566328
-54.202919 -144.33704 -5.9015098
-54.133747 -144.38072 -6.462194
-54.535652 -144.25232 -7.5093741
-53.897644 -144.21506 -7.7264271
-51.087315 -144.32179 -8.5233669
-52.9123 -144.34387 -9.0815105
-57.170174 -144.2036 -10.069281
-57.785793 -144.15857 -4.0753698
-44.618149 -144.01562 -4.047359
-53.789589 -144.03065 -6.4897151
-54.477329 -144.14999 -7.6765952
-54.636829 -144.04156 -8.2709265
-53.530876 -144.19777 -8.2103958
-51.854401 -144.0249 -9.0620441
-54.516083 -143.91913 -8.0227089
-51.845753 -143.82576 -8.601078
-53.745636 -143.85373 -9.6745491
-55.176231 -143.69757 -5.842567
-55.876373 -143.71176 -8.0841808
-55.561241 -143.71236 -8.7410088
-55.429634 -143.61487 -8.8948212
-54.021286 -143.71747 -10.213729
-43.104538 -143.58109 -3.979022
-59.548843 -143.49203 -4.1354589
-54.601265 -143.55989 -5.5228019
-55.710938 -143.43826 -7.891644
-55.459702 -143.4516 -8.1128578
-50.684814 -143.52945 -8.9946861
-55.379566 -143.2999 -7.7997308
-55.643669 -143.39932 -7.8233552
-54.884621 -143.25635 -8.5820475
-55.366364 -143.20442 -8.6174955
-55.359596 -143.28319 -9.0968819
-56.228199 -143.36462 -9.7053699
-49.267166 -143.10609 -3.9610569
-56.471527 -143.17842 -4.168191
-55.527573 -143.03001 -4.4623799
-54.956772 -143.11212 -5.9321818
-54.94854 -143.06482 -8.5609703
-54.914597 -143.14355 -9.0832291
-54.709389 -143.03703 -9.4384708
-56.966007 -142.92261 -4.1432309
-57.617188 -142.95006 -4.2457819
-57.43087 -142.96977 -4.2168031
-41.89246 -142.9028 -5.7423382
-41.781372 -142.86542 -6.2155938
-55.294712 -142.8649 -6.7071199
-55.378403 -142.9726 -8.0730209
-44.371727 -142.64484 -3.9286151
-41.837303 -142.64903 -4.7067938
-41.918427 -142.636 -5.9137311
-55.577805 -142.60634 -7.2939401
-57.78727 -142.55872 -4.204217
-55.459728 -142.51152 -6.1095061
-55.567947 -142.56273 -7.8892598
-55.663624 -142.48283 -8.9890003
-44.149014 -142.24165 -3.8832941
-55.313286 -142.26535 -4.5576992
-55.526073 -142.30807 -6.9266481
-56.293724 -142.33109 -7.0829968
-55.724102 -142.20764 -7.3268399
-55.494938 -142.27719 -7.35534
-56.510387 -142.22838 -7.9395099
-55.945793 -142.24788 -7.8994641
-56.164654 -142.31619 -8.0302992
-55.870773 -142.29655 -9.5795269
-59.096134 -142.1873 -3.9796381
-55.800083 -142.0551 -5.148478
-55.868179 -142.0329 -5.2586131
-55.731918 -142.13385 -5.459692
-54.369896 -142.10109 -5.5178981
-55.631084 -142.17731 -5.6807799
-55.670429 -142.1687 -6.5712371
-55.879749 -142.10086 -8.1000834
-43.701336 -141.97404 -3.899832
-56.108307 -141.86671 -4.1911168
-55.73978 -141.80321 -4.6917481
-55.873138 -141.98483 -5.329762
-55.31741 -141.81245 -6.5856781
-41.82877 -141.94981 -6.5234442
-55.814888 -141.84326 -8.0842381
-42.235138 -141.71118 -4.9291539
-42.261246 -141.64488 -5.6775079
-42.276009 -141.66806 -6.1555891
-56.169701 -141.6174 -7.402288
-54.700298 -141.7252 -8.7238083
-48.597595 -141.42201 -3.8418679
-55.503345 -141.50378 -5.2742562
-55.864647 -141.56277 -6.591939
-56.166298 -141.5654 -7.3662848
-56.509285 -141.45442 -7.7688289
-55.72604 -141.43269 -7.788342
-54.490715 -141.42169 -7.6213112
-55.741882 -141.32178 -6.2473488
-54.766304 -141.2646 -8.0046358
-55.326962 -141.34242 -10.287712
-56.620678 -141.15779 -4.0014558
-56.182224 -141.08777 -8.3064852
-56.333977 -141.15363 -9.5032787
-56.702904 -140.8779 -3.9244261
-44.736347 -140.8035 -3.82375
-56.172161 -140.8759 -4.0393562
-55.644905 -140.8671 -6.1898661
-55.747124 -140.88455 -7.9209218
-49.511749 -140.99597 -9.2583628
-55.714325 -140.60703 -7.3810911
-56.381905 -140.62778 -7.86202
-55.789276 -140.54282 -3.9877951
-40.252682 -140.5907 -3.9517961
-40.63052 -140.31992 -3.94385
-42.894581 -159.89792 -4.2276759
-42.069088 -159.80241 -6.9582372
-41.971504 -159.93146 -6.9930248
-42.972961 -159.89365 -8.3158016
-43.283527 -159.8558 -8.6686935
-42.159145 -159.90939 -9.1228867
-41.650757 -159.81229 -9.3614492
-52.562496 -159.91888 -10.939033
-50.294708 -159.90445 -11.790909
-42.421398 -159.68442 -4.3270769
-52.395401 -159.60333 -8.4192896
-41.6059 -159.67558 -8.7654305
-52.98278 -159.7406 -9.3722534
-52.36245 -159.74315 -9.5909042
-52.562126 -159.76608 -10.314821
-49.111404 -159.69078 -10.302214
-41.482544 -159.68521 -10.297494
-50.501461 -159.65019 -10.479403
-53.659027 -159.60219 -10.691669
-58.889114 -159.79065 -11.498871
-52.441154 -159.7999 -11.621196
-44.270725 -159.47807 -4.1684198
-52.965385 -159.41882 -4.3575888
-40.327789 -159.41934 -7.2179441
-42.258728 -159.50912 -8.4758301
-42.493652 -159.55782 -8.7455339
-52.743271 -159.47723 -8.9896402
-41.142342 -159.50031 -9.3742189
-53.140434 -159.44418 -10.93659
-58.604385 -159.41177 -11.39249
-48.61544 -159.24341 -4.2582469
-55.879166 -159.22531 -4.4389191
-40.694767 -159.29265 -6.9576311
-41.901512 -159.3399 -9.3517723
-41.335934 -159.35684 -9.247117
-52.927525 -159.27017 -10.240958
-52.090775 -159.32739 -10.701429
-50.928818 -159.07138 -4.2969952
-40.263435 -159.10031 -8.2229071
-49.307331 -159.07393 -9.7560644
-52.137619 -159.00351 -10.622367
-49.865639 -159.15173 -10.838856
-52.674515 -158.93483 -4.377645
-40.292042 -158.91403 -4.202806
-59.487259 -158.97322 -4.4551921
-56.528011 -158.91536 -4.421041
-40.074615 -158.94817 -6.6089358
-41.946037 -158.99213 -8.870244
-40.970776 -158.93031 -8.9442015
-52.270527 -158.90273 -9.2796707
-49.66671 -158.86928 -9.578928
-50.599133 -158.87125 -10.028037
-40.521973 -158.8851 -10.038239
-40.353706 -158.97372 -10.07513
-48.960228 -158.82062 -10.429441
-53.260288 -158.8838 -10.768364
-52.283451 -158.94316 -10.879643
-50.376328 -158.81024 -10.831535
-50.841244 -158.9429 -11.889782
-40.990852 -158.6516 -4.168807
-42.472946 -158.61087 -4.2161479
-56.676544 -158.63475 -4.4123869
-40.452007 -158.68452 -6.5624619
-49.127266 -158.72046 -9.2882795
-52.505489 -158.75549 -9.4552174
-52.085003 -158.71259 -10.852307
-49.314465 -158.70683 -11.174578
-58.585686 -158.77289 -11.273428
-46.385536 -158.48541 -4.2374482
-56.888184 -158.5488 -4.4397111
-40.617176 -158.58484 -7.8115168
-40.606319 -158.43097 -8.8899441
-51.082779 -158.56367 -9.5834599
-41.851883 -158.56609 -9.5906992
-50.071293 -158.44286 -9.6531029
-51.466698 -158.47549 -10.188993
-50.334187 -158.56879 -10.183325
-51.875118 -158.51855 -10.299338
-41.65609 -158.49565 -10.494711
-46.64539 -158.26234 -4.2299361
-49.990135 -158.36246 -8.8890305
-49.522514 -158.37801 -9.5456057
-57.519337 -158.1933 -4.3770528
-41.961452 -158.07553 -8.9062977
-40.074459 -158.15465 -9.3994703
-42.107681 -158.12292 -10.054811
-41.515274 -158.10403 -10.08457
-52.097851 -158.09593 -10.757637
-53.247871 -157.88457 -4.3545961
-46.982407 -157.91818 -4.2239761
-43.038105 -157.8568 -4.2055311
-41.054218 -157.94852 -8.1842957
-42.112778 -157.82083 -9.0815945
-51.636986 -157.96112 -9.8521681
-41.97831 -157.85635 -9.918416
-51.032501 -157.84683 -10.535492
-55.303082 -157.67451 -4.396894
-41.699707 -157.7283 -4.2039552
-41.466831 -157.51416 -4.2049232
-40.723457 -157.4632 -7.0794559
-40.199844 -157.54315 -7.0126901
-41.727554 -157.42325 -8.643569
-54.598888 -157.36533 -4.3756909
-45.03252 -157.25659 -4.2513118
-55.736732 -157.31985 -4.4194312
-41.015369 -157.29568 -9.0453396
-42.046089 -157.21135 -9.4489384
-59.858765 -157.09303 -4.473197
-40.245197 -157.0144 -6.4895921
-56.107101 -156.97415 -4.43188
-40.585529 -156.95969 -8.9514608
-55.895935 -156.71629 -4.4065018
-40.477436 -156.67429 -8.5618868
-42.177277 -156.74397 -9.5484371
-48.99601 -156.54439 -4.2456279
-40.939224 -156.52145 -7.9443712
-55.858036 -156.20766 -4.3432851
-53.74807 -156.30258 -4.3314152
-46.580063 -156.23566 -4.2857871
-56.783257 -156.116 -4.4181981
-55.890179 -155.80806 -4.3415818
-57.371578 -155.71262 -4.4323411
-59.586914 -155.46141 -4.385972
-50.243294 -155.44667 -4.2368779
-57.811043 -154.91919 -4.3881149
-46.022167 -154.87132 -4.2974639
-58.600834 -154.60056 -4.3762178
-54.913082 -154.60126 -4.313097
-51.105484 -154.64272 -4.2262249
-58.140541 -154.52924 -4.37887
-56.679707 -154.59897 -4.3398728
-47.563957 -154.14961 -4.1957521
-58.371368 -154.08116 -4.3672791
-54.629738 -153.83171 -4.27177
-48.844643 -153.94691 -4.2879181
-40.425694 -153.74617 -4.0171809
-56.777489 -153.71135 -4.2986698
-55.110962 -153.73921 -4.2881522
-49.016731 -153.68658 -4.2703791
-48.599617 -153.76472 -4.2433171
-41.937912 -153.5473 -4.0783439
-47.469521 -153.54793 -4.23561
-48.448631 -153.39272 -4.1918678
-59.333763 -153.36809 -4.329422
-58.58807 -153.26434 -4.3172698
-55.15139 -153.37665 -4.2731032
-58.994148 -153.2749 -6.6463418
-58.672207 -153.26506 -6.6731691
-45.993626 -153.15186 -4.16011
-43.772717 -153.12706 -4.124218
-49.437408 -153.05695 -4.2327108
-56.61005 -153.03012 -6.6883502
-57.013634 -153.17682 -6.8700581
-55.250435 -152.90068 -4.230969
-48.382927 -152.94189 -4.2789378
-54.903564 -152.82547 -6.5793629
-58.190205 -152.64146 -4.2713971
-57.112984 -152.68166 -4.2362428
-54.187965 -152.74231 -6.6081591
-53.497993 -152.67041 -6.614058
-45.74044 -152.58902 -4.0919619
-58.651855 -152.54279 -4.2750492
-57.499512 -152.50793 -4.2602038
-50.611893 -152.57315 -4.2377839
-48.487785 -152.58469 -4.257411
-51.368683 -152.42419 -6.57303
-54.780537 -152.21066 -4.199563
-44.986416 -152.22505 -4.12219
-49.225376 -152.21402 -6.6874132
-55.494438 -152.03607 -4.212203
-47.469009 -152.04156 -6.633018
-53.363869 -151.82785 -4.152431
-58.31995 -151.8952 -4.262445
-45.112755 -151.821 -4.322855
-45.47538 -151.80548 -4.6779542
-44.69677 -151.74142 -4.4566288
-43.823044 -151.64413 -4.5994382
-44.940048 -151.72177 -4.8656931
-45.164886 -151.76089 -5.3844252
-44.998711 -151.71046 -5.7522678
-44.215759 -151.64371 -6.5669799
-41.952785 -151.74214 -6.9772391
-59.548599 -151.53342 -4.264483
-55.647541 -151.41344 -4.215426
-41.687237 -151.44319 -4.216599
-43.421684 -151.57071 -5.0200629
-43.791908 -151.58926 -6.0600448
-44.200401 -151.59271 -6.25986
-41.361309 -151.42125 -6.640377
-57.832951 -151.30902 -4.2589469
-49.411201 -151.32071 -4.2648268
-48.522194 -151.30255 -4.5854301
-45.534046 -151.39252 -4.6978159
-42.065998 -151.30527 -5.67975
-40.674809 -151.22186 -5.6972351
-41.363087 -151.31042 -6.3141732
-58.975815 -151.25153 -6.5017419
-45.49744 -151.29179 -6.5165081
-56.233459 -151.03784 -4.2196641
-59.046173 -151.07124 -4.5572991
-47.182018 -151.0172 -4.870379
-59.035339 -151.10616 -5.0328159
-40.581017 -151.1404 -5.3681459
-40.651218 -151.16364 -5.7146721
-45.560253 -151.02094 -6.303391
-46.425381 -150.81857 -4.0807729
-53.110294 -150.98169 -4.2572961
-45.6054 -150.93369 -4.697391
-59.036243 -150.95912 -4.9503798
-48.582443 -150.86095 -4.905509
-59.039215 -150.9292 -5.0598741
-59.314648 -150.94086 -6.571207
-45.54644 -150.97839 -6.497798
-58.959625 -150.88226 -7.1639051
-58.189362 -150.8161 -7.1602478
-57.706406 -150.9911 -7.0554562
-41.729187 -150.87524 -7.2487922
-52.100025 -150.65874 -4.1993051
-55.077477 -150.78561 -4.345448
-54.455894 -150.72931 -4.3392701
-53.887878 -150.71449 -4.3170428
-49.442085 -150.6983 -4.2220421
-48.577385 -150.61375 -4.2240052
-55.685883 -150.65814 -4.733223
-55.690033 -150.65623 -5.1898699
-55.673679 -150.77591 -6.3961568
-59.07896 -150.70978 -6.513422
-56.973198 -150.69643 -6.5107012
-55.681087 -150.69232 -6.4860592
-59.130322 -150.64757 -7.051538
-58.238926 -150.63974 -7.0469408
-57.770912 -150.6059 -7.073473
-56.543953 -150.58632 -4.20467
-49.872589 -150.54886 -4.2158809
-45.590179 -150.59648 -4.3228912
-53.735897 -150.57626 -4.54635
-53.465767 -150.51288 -4.5545149
-45.620483 -150.58357 -4.992609
-55.697334 -150.52457 -5.7961831
-52.264545 -150.59444 -6.367425
-45.581985 -150.55406 -6.4731541
-54.768135 -150.40532 -7.1249781
-49.071247 -150.54514 -10.324573
-55.691582 -150.37834 -4.3312478
-52.118881 -150.35947 -4.3291478
-51.738449 -150.31964 -4.3152132
-49.892113 -150.31491 -4.2485452
-45.639355 -150.21283 -4.3167658
-51.087467 -150.24255 -4.4865122
-48.440674 -150.23466 -4.9628029
-55.659561 -150.369 -5.3992
-55.61042 -150.34412 -5.858397
-55.692554 -150.32658 -6.1050568
-48.94146 -150.20296 -6.4121342
-56.099449 -150.39038 -7.0541992
-55.048134 -150.30731 -7.053575
-49.320465 -150.29091 -10.564142
-49.125221 -150.29385 -10.47234
-51.717003 -150.13278 -4.4823322
-50.059036 -150.06015 -4.5807419
-47.292397 -150.08406 -4.8452139
-45.634178 -150.14461 -5.7053142
-55.674778 -150.02144 -6.368309
-49.01545 -150.10999 -6.2916908
-53.815338 -150.19861 -7.0543251
-50.348122 -150.05145 -11.614038
-48.363075 -149.8559 -4.3867311
-51.69677 -149.86609 -4.4284992
-49.361679 -149.81013 -4.6678958
-49.030849 -149.84369 -5.7133698
-45.669662 -149.83235 -5.628581
-49.048599 -149.84674 -6.3099561
-50.118732 -149.86523 -7.0118999
-56.217472 -149.75662 -4.1714721
-57.008541 -149.78592 -4.2334361
-51.798458 -149.76221 -4.3069181
-51.042408 -149.73868 -4.4269361
-50.544891 -149.77667 -4.5051079
-50.045815 -149.72234 -4.6561871
-49.974773 -149.75386 -4.6478162
-49.071072 -149.79631 -4.6177011
-48.998062 -149.64038 -4.9573059
-47.864548 -149.65315 -4.8084722
-56.689697 -149.72589 -5.3949032
-49.035675 -149.70724 -5.5595198
-55.68251 -149.61545 -6.3895059
-52.354713 -149.72678 -6.3143358
-42.092262 -149.71336 -7.0650029
-50.418339 -149.76917 -10.818623
-48.696564 -149.43692 -4.1523581
-50.317932 -149.50732 -4.2712412
-45.698765 -149.46112 -5.7016511
-59.160271 -149.40274 -6.538147
-54.861549 -149.29605 -4.181684
-49.448753 -149.32809 -4.716157
-45.698578 -149.36642 -5.5160012
-50.440208 -149.34879 -10.34554
-49.766373 -149.3429 -10.498224
-50.170181 -149.36203 -11.155913
-55.268158 -149.1673 -4.1222782
-51.097134 -149.1364 -4.0911689
-49.843414 -149.01198 -4.0869179
-48.836945 -149.04031 -4.0655499
-45.740234 -149.00201 -5.1038141
-57.910309 -148.98407 -4.1758199
-55.841118 -148.98827 -4.1227822
-47.692799 -148.88593 -4.0569482
-53.496029 -148.89529 -4.2519331
-50.053257 -148.92056 -4.2108388
-51.493645 -148.87407 -4.5036201
-50.906517 -148.94263 -4.7886882
-47.274921 -148.72592 -4.539166
-45.771137 -148.66084 -4.5317049
-52.524437 -148.78583 -6.4079199
-57.546268 -148.48016 -4.1498609
-57.306046 -148.49467 -4.127203
-48.014328 -148.47211 -4.0349979
-46.740879 -148.55621 -4.547029
-45.77829 -148.58835 -6.2370658
-47.257378 -148.21146 -3.9783449
-55.390438 -148.20224 -4.0797992
-54.836227 -148.29289 -4.0756812
-51.521965 -148.29092 -4.2436891
-47.389198 -148.25731 -4.7080469
-45.85141 -148.23853 -4.6007571
-49.432613 -148.28519 -4.8639011
-58.61903 -148.32352 -6.679491
-56.69577 -148.17955 -4.0519071
-53.39801 -148.1839 -4.054801
-55.329502 -148.0507 -6.4508352
-49.144444 -147.91762 -3.988585
-46.013813 -147.89293 -4.4511828
-45.823345 -147.84464 -6.2036529
-53.818363 -147.86809 -6.4122701
-55.816902 -147.78516 -4.040483
-54.263336 -147.75273 -4.046555
-50.858543 -147.75516 -4.032701
-45.854111 -147.75075 -4.6147418
-42.433472 -147.70572 -6.8764038
-56.986961 -147.71536 -9.4149723
-49.991272 -147.41351 -3.9724951
-49.474689 -147.53458 -3.990798
-49.28096 -147.47818 -3.968996
-56.143028 -147.44519 -4.037817
-55.792389 -147.45039 -4.0250268
-53.356541 -147.41602 -4.0285859
-49.37141 -147.56712 -4.008245
-55.99894 -147.46587 -9.0393591
-56.999855 -147.44023 -9.448041
-56.335629 -147.59758 -9.6209517
-52.023949 -147.46838 -10.688649
-51.527992 -147.57304 -10.846446
-50.180206 -147.35571 -3.9837661
-48.883522 -147.29089 -3.918576
-56.410877 -147.2168 -4.0383658
-45.902237 -147.3483 -4.2755709
-45.885384 -147.3633 -5.3468008
-56.21093 -147.39981 -9.4417868
-58.687714 -147.1104 -4.1203308
-56.80629 -147.07779 -4.0583339
-55.476265 -147.0065 -4.060348
-53.837082 -147.03094 -4.016892
-45.862392 -147.0508 -4.4889488
-45.914059 -147.12167 -5.2831292
-42.359779 -147.02034 -6.925179
-56.731552 -147.09399 -8.9037247
-45.578976 -146.97668 -4.3510141
-45.000153 -146.93082 -4.3262372
-45.879406 -146.99919 -5.2557321
-44.626827 -146.84607 -5.3185229
-45.896393 -146.96394 -6.0591369
-57.075027 -146.80403 -9.5094709
-57.268646 -146.9709 -10.134123
-57.413513 -146.94691 -10.529799
-49.750404 -146.74883 -3.952796
-59.718155 -146.74577 -4.0740442
-44.068409 -146.78513 -5.1310091
-43.402252 -146.70114 -5.1125169
-43.856396 -146.73587 -5.9544621
-44.042755 -146.75317 -6.13309
-56.488903 -146.65096 -9.4244804
-51.649548 -146.61258 -9.4199982
-56.719841 -146.60507 -10.637474
-51.486916 -146.7114 -11.049711
-58.511066 -146.4236 -4.138412
-57.401726 -146.5222 -4.1478729
-52.031242 -146.48578 -4.0967398
-42.187447 -146.58202 -4.7871308
-42.24358 -146.55702 -5.9819212
-51.453381 -146.50037 -9.7854977
-59.446934 -146.2254 -4.1238322
-57.730457 -146.39023 -4.1322289
-53.008492 -146.38246 -4.0725279
-52.772686 -146.27179 -4.0666699
-40.346367 -146.38162 -4.1332321
-40.087029 -146.31009 -6.039113
-56.898457 -146.33342 -9.9028282
-51.803959 -146.2612 -9.9644794
-51.405708 -146.28992 -9.9655685
-57.479538 -146.20547 -10.575394
-51.51738 -146.37839 -11.28161
-59.38026 -146.05028 -4.0836282
-58.489082 -146.16936 -4.1487298
-41.355247 -146.19321 -4.0985851
-54.340462 -146.14124 -4.3342919
-56.613052 -146.12059 -8.8391142
-52.078915 -146.15488 -9.2592258
-58.616482 -145.90858 -4.120986
-58.074444 -145.84013 -4.1283751
-57.127884 -145.97655 -4.1545649
-41.071873 -145.9796 -4.0162392
-53.963875 -145.98671 -4.3441491
-56.943336 -145.81187 -10.297924
-57.085175 -145.97017 -10.619804
-49.885563 -145.71906 -4.0959611
-48.719772 -145.7765 -4.0326452
-56.357903 -145.73967 -7.786047
-52.455292 -145.61722 -9.0947704
-56.54324 -145.77853 -9.8501987
-57.614273 -145.759 -10.133285
-52.55946 -145.66696 -10.467947
-59.823128 -145.45 -4.1563768
-58.69928 -145.41373 -4.0657959
-47.297028 -145.40608 -4.04493
-56.596485 -145.45059 -8.6987267
-56.877918 -145.40125 -9.8028011
-57.751854 -145.23732 -4.085012
-54.643188 -145.39484 -4.240273
-53.849464 -145.27576 -4.2669048
-56.210957 -145.25308 -8.6474419
-56.871437 -145.33714 -8.9181738
-52.068558 -145.29929 -9.2431297
-51.742016 -145.38158 -9.9326525
-46.108311 -145.1678 -4.010972
-55.730759 -145.19438 -8.2655706
-52.57568 -145.03918 -9.0061359
-58.7356 -144.8396 -4.1264558
-56.163223 -144.97702 -8.9552631
-56.155533 -144.87259 -9.3107624
-52.753632 -144.96748 -10.47497
-56.499954 -144.8468 -10.768194
-58.135899 -144.75543 -4.083241
-57.913815 -144.61029 -4.0835061
-53.793175 -144.74208 -4.3570108
-54.125389 -144.65129 -6.2665601
-56.163261 -144.75464 -8.5163918
-52.650635 -144.7345 -8.7185974
-51.711952 -144.74033 -8.8365297
-56.440132 -144.70895 -9.1686344
-56.657379 -144.64244 -10.283686
-42.751297 -144.47153 -3.979511
-56.685917 -144.55847 -4.2555718
-54.118271 -144.5105 -6.079679
-53.998039 -144.40587 -9.363369
-56.884167 -144.21338 -4.2462211
-48.82148 -144.29475 -4.4083762
-48.743546 -144.26282 -4.426744
-54.247543 -144.29538 -6.1654968
-53.955879 -144.3674 -6.825696
-50.656136 -144.39032 -9.3867569
-53.981205 -144.29004 -9.6819429
-53.338493 -144.30809 -9.657608
-54.287773 -144.16364 -7.4160962
-55.0811 -144.01776 -8.2804632
-41.276848 -143.80481 -3.9390399
-59.854843 -143.95097 -4.1313028
-55.659492 -143.80614 -8.4970417
-55.911049 -143.849 -9.7336378
-48.5093 -143.7419 -3.9726961
-40.617649 -143.63799 -3.917758
-55.480232 -143.72342 -4.3204088
-55.655933 -143.74187 -7.4890418
-50.753326 -143.61154 -9.0255432
-56.19931 -143.48634 -4.2423091
-51.867435 -143.41039 -9.1637135
-52.352516 -143.40285 -9.5150471
-45.600777 -143.31024 -4.0459051
-55.381554 -143.25162 -4.969346
-54.542667 -143.33798 -6.1275721
-59.291084 -143.10109 -4.0758519
-54.772469 -143.11859 -6.4118881
-55.292465 -143.0506 -6.9814558
-55.614487 -143.06796 -8.971118
-59.934044 -142.94843 -4.0411649
-55.772072 -142.88744 -4.198277
-55.473602 -142.9306 -4.286829
-55.791691 -142.93646 -9.6218958
-40.648224 -142.79263 -3.891778
-43.769234 -142.716 -4.0281
-56.25087 -142.60529 -4.229856
-55.443558 -142.70837 -4.2473879
-55.950279 -142.69875 -5.1999669
-56.032867 -142.78221 -5.209074
-42.041397 -142.76463 -6.1268291
-55.699547 -142.62418 -7.8410268
-55.548019 -142.668 -8.1680641
-56.865959 -142.56406 -4.1124039
-55.896072 -142.5336 -4.655653
-42.072968 -142.56038 -5.44841
-41.901978 -142.58545 -5.4269681
-54.242416 -142.56946 -5.9875741
-55.516914 -142.49576 -6.3528371
-56.453293 -142.43996 -7.935884
-56.01046 -142.41896 -8.0190744
-56.34235 -142.54254 -8.6357069
-55.660065 -142.48952 -8.6283588
-55.789757 -142.45134 -9.4386568
-55.284569 -142.58472 -9.859086
-59.548004 -142.2627 -4.0125961
-56.532169 -142.20993 -4.085197
-55.832336 -142.38217 -4.1729722
-55.466381 -142.28122 -5.138248
-41.784866 -142.21626 -5.5208559
-55.550034 -142.29684 -6.3159251
-55.568504 -142.26598 -6.536057
-56.579216 -142.02892 -4.0946589
-55.729122 -142.12144 -4.7091031
-55.312553 -142.18359 -4.6538091
-41.899834 -142.15843 -6.1384511
-55.7892 -142.15425 -7.1651721
-55.321079 -142.0914 -9.268074
-55.709175 -142.11691 -9.7608585
-59.854675 -141.85077 -3.919163
-43.396698 -141.8293 -3.9261751
-55.80616 -141.89648 -4.2901201
-55.74342 -141.84555 -6.5819998
-56.186241 -141.81506 -6.7006388
-55.014381 -141.85442 -6.9479241
-55.006493 -141.90265 -7.8400822
-55.252876 -141.89056 -9.0563412
-43.093948 -141.63432 -3.93401
-55.761024 -141.78104 -5.2919378
-55.439724 -141.78609 -5.880383
-56.756683 -141.6676 -6.2740002
-52.965591 -141.77223 -10.034641
-42.939262 -141.48712 -3.9118791
-56.478485 -141.46796 -4.080586
-55.682373 -141.58289 -4.7916322
-55.535622 -141.47696 -5.0858598
-55.420639 -141.41513 -5.7330108
-55.456589 -141.55771 -6.2615051
-56.16132 -141.44049 -9.5465622
-53.055946 -141.5603 -10.162427
-50.014729 -141.22638 -3.8401599
-42.930054 -141.38708 -3.904741
-56.227623 -141.34724 -4.1976848
-55.549068 -141.39621 -7.2349448
-59.551437 -141.17616 -3.907882
-54.497284 -141.00323 -5.4893689
-55.577477 -141.18805 -6.204669
-56.502502 -141.04648 -8.2749805
-55.910622 -141.18138 -9.5884924
-54.364403 -141.10268 -9.8356028
-56.503555 -140.91733 -3.961638
-56.43795 -140.99023 -6.8175602
-55.600578 -140.979 -10.079319
-43.678211 -140.65915 -3.8465309
-56.070316 -140.61337 -9.1856041
-49.420303 -140.62012 -9.0356083
-47.855064 -140.58636 -3.95982
-56.555859 -140.44548 -9.1172571
-51.256226 -140.48721 -9.3941336
-40.589924 -140.3145 -4.084311
-44.072723 -140.03571 -3.753022
-45.915962 -140.07495 -3.8247969
-55.338348 -159.89705 -4.3769579
-53.026466 -159.83427 -4.3924422
-54.768719 -159.94722 -4.4219718
-52.512058 -159.93198 -7.670918
-41.690895 -159.98984 -7.918725
-43.447147 -159.89194 -8.3384876
-42.917187 -159.82275 -8.743928
-41.762836 -159.82872 -9.1210279
-50.123405 -159.87686 -9.8806019
-51.545284 -159.94385 -10.366246
-49.301506 -159.87897 -10.21048
-49.420212 -159.87732 -10.578939
-50.652199 -159.8985 -11.78417
-52.941669 -159.87991 -12.039881
-54.994797 -159.7704 -4.3588719
-42.24057 -159.61226 -4.2341352
-42.948399 -159.77423 -8.7095165
-52.379425 -159.79318 -10.82207
-49.376862 -159.75594 -10.985641
-52.152306 -159.6898 -11.712767
-55.465801 -159.49435 -4.355618
-53.486069 -159.44391 -4.383409
-56.116402 -159.4687 -4.4254589
-40.413799 -159.54076 -7.2486138
-40.639175 -159.41914 -8.0489273
-42.364094 -159.55167 -8.2956514
-52.688492 -159.51794 -8.7197266
-41.558998 -159.51866 -8.6199865
-42.138176 -159.50648 -9.6593857
-52.668423 -159.42676 -9.8790264
-49.750511 -159.44954 -10.158943
-49.131866 -159.46736 -10.094831
-42.444744 -159.45041 -10.076812
-42.332882 -159.50526 -10.021277
-41.517532 -159.42218 -10.200878
-49.444256 -159.4016 -10.610736
-52.167999 -159.52588 -11.363824
-52.276733 -159.43542 -12.127686
-56.931488 -159.29065 -4.3835912
-48.275146 -159.22357 -4.2286649
-43.223843 -159.29092 -4.3354292
-59.226742 -159.28726 -4.454669
-55.521412 -159.27824 -4.4180832
-52.348267 -159.31929 -8.2882872
-40.200771 -159.30287 -8.782114
-41.909233 -159.371 -8.9055643
-53.468903 -159.36188 -9.0437803
-42.094299 -159.35161 -9.0172901
-49.107803 -159.33942 -9.5834036
-53.0014 -159.33185 -10.51321
-51.255783 -159.2926 -12.772258
-40.529343 -159.06438 -8.1970997
-41.010826 -159.19888 -8.2455711
-49.326912 -159.14679 -9.0586472
-40.256813 -159.15565 -9.0921717
-41.700111 -159.05081 -9.5883408
-50.630692 -159.03606 -9.9061661
-41.371838 -159.10332 -10.214153
-49.093819 -159.15988 -11.259132
-52.556732 -159.03151 -11.429003
-52.424206 -159.14154 -11.603903
-52.035545 -159.14856 -11.602369
-51.308762 -159.09277 -11.698278
-40.875107 -158.99484 -4.1360698
-54.436424 -158.87088 -4.4373512
-54.280647 -158.9415 -4.437427
-52.186874 -158.87299 -9.0607786
-42.191566 -158.87311 -9.5568457
-51.834064 -158.90422 -9.7948227
-50.257568 -158.89886 -9.7465696
-48.958347 -158.92978 -9.8161001
-50.11142 -158.84885 -10.77791
-51.790741 -158.91968 -12.636271
-42.045197 -158.61578 -4.19099
-56.867374 -158.65785 -4.3947558
-45.090683 -158.73674 -4.2398739
-54.540863 -158.65396 -4.4219551
-40.111668 -158.67194 -6.8698711
-51.965023 -158.73709 -8.4341164
-52.284157 -158.67363 -9.18013
-40.992786 -158.64006 -9.1313801
-42.055405 -158.73894 -9.5809116
-50.494759 -158.6088 -10.258978
-50.544834 -158.64154 -10.569176
-52.415455 -158.73668 -12.037588
-52.287083 -158.59216 -4.3576512
-54.101994 -158.5862 -4.4022522
-50.639038 -158.48196 -8.9143381
-40.67593 -158.48662 -9.7244368
-51.901585 -158.48946 -10.565219
-51.126396 -158.48129 -10.461659
-51.458878 -158.41574 -11.271137
-55.415962 -158.24719 -4.392159
-50.772106 -158.23926 -8.5475206
-40.951294 -158.35114 -10.011781
-50.193623 -158.28467 -10.565872
-41.647797 -158.24966 -10.460035
-51.419044 -158.30249 -11.633984
-41.082806 -158.12817 -4.188045
-45.366356 -158.04601 -4.3412828
-50.847511 -158.04829 -9.362587
-50.410423 -158.07811 -10.76483
-51.455681 -158.0148 -11.670197
-50.294735 -157.91791 -9.727623
-42.03167 -157.83316 -9.8331947
-50.846626 -157.83641 -10.932708
-50.700764 -157.85788 -10.918133
-47.295242 -157.66237 -4.2238498
-40.853443 -157.61548 -8.8848467
-40.246628 -157.79599 -8.941597
-40.442642 -157.43144 -6.6568551
-40.645641 -157.40872 -7.4431911
-40.210018 -157.49695 -8.8906403
-41.71104 -157.57379 -10.004754
-43.083038 -157.33499 -4.172153
-56.84156 -157.28513 -4.3906221
-55.501286 -157.32143 -4.3947039
-44.002426 -157.3383 -4.222929
-41.022621 -157.35661 -9.5215836
-55.691799 -157.16553 -4.3995872
-55.117973 -157.05797 -4.3839612
-56.16983 -157.0611 -4.4479232
-40.416256 -157.07446 -8.0258865
-40.963249 -157.097 -9.4308271
-41.397942 -157.17334 -9.9767447
-40.328041 -156.93518 -8.7032518
-41.355976 -156.93991 -9.0842724
-40.295975 -156.96649 -9.8056526
-53.551804 -156.78903 -4.3347788
-53.602295 -156.58762 -4.330514
-40.996044 -156.59464 -8.0316954
-40.718178 -156.29396 -8.0193796
-56.515831 -155.82115 -4.3682499
-59.372902 -155.76709 -4.3941178
-55.114029 -155.40219 -4.335835
-59.787376 -155.22203 -4.3706112
-57.305321 -155.01343 -4.3713999
-50.538414 -155.18115 -4.2341461
-56.920631 -154.97751 -4.3125148
-54.485493 -154.92422 -4.303349
-48.105297 -154.81874 -4.2416329
-51.26239 -154.59785 -4.2330661
-56.246094 -154.38756 -4.3161311
-48.738182 -154.27484 -4.2354579
-45.760727 -154.32236 -4.259172
-57.358833 -153.91032 -4.3089781
-50.303814 -153.92625 -4.3106928
-49.268349 -153.89708 -4.2367921
-58.608765 -153.71017 -4.3519168
-58.143646 -153.7196 -4.309371
-47.2729 -153.78763 -4.2829571
-50.928944 -153.4882 -4.3070049
-49.540394 -153.49675 -4.2873521
-49.397137 -153.40344 -4.266499
-59.742107 -153.4426 -6.8390889
-43.716068 -153.32756 -4.1372619
-58.815735 -153.38411 -6.8910141
-57.792175 -153.2587 -6.8538818
-52.607845 -153.01511 -4.1859078
-58.686348 -153.1331 -4.294982
-57.494957 -153.14938 -4.27353
-48.754433 -153.09598 -4.2133889
-58.183495 -152.98358 -4.2852211
-56.917999 -152.98195 -4.246345
-55.905197 -152.9705 -4.2694659
-55.295765 -152.61571 -4.2286029
-50.586788 -152.76392 -4.2226138
-54.878952 -152.74712 -6.6620169
-47.529678 -152.34512 -4.201901
-50.182011 -152.27345 -6.5608058
-51.721001 -152.38472 -6.6830902
-49.542114 -152.03206 -4.1871881
-45.139164 -152.0974 -4.1146321
-58.908539 -152.05083 -4.271452
-56.62672 -152.15392 -4.2456779
-50.978333 -152.11777 -4.2177129
-54.960052 -151.83618 -4.1965961
-50.915676 -151.81218 -4.1515069
-50.116096 -151.9391 -4.1848898
-45.508251 -151.80273 -4.941587
-58.8727 -151.82257 -6.5724521
-51.396301 -151.74039 -4.1952181
-51.072826 -151.79214 -4.168427
-47.887596 -151.66827 -4.1691432
-59.344933 -151.72327 -4.2663321
-55.488506 -151.73175 -4.2173042
-52.242233 -151.65634 -4.2281299
-44.964691 -151.78328 -4.4665589
-45.035851 -151.73883 -4.6929002
-43.87096 -151.61194 -4.9558759
-45.512062 -151.70732 -5.7285461
-44.89344 -151.67105 -6.2854648
-45.367828 -151.72467 -6.5601401
-50.179756 -151.48001 -4.166162
-45.549667 -151.4463 -4.084353
-41.599285 -151.53137 -4.2200031
-43.0518 -151.5481 -5.4638538
-43.668766 -151.56271 -5.696424
-43.555824 -151.53238 -6.366611
-55.582565 -151.45508 -6.5733199
-56.656643 -151.34187 -4.2467222
-53.848316 -151.27898 -4.2193422
-51.284634 -151.25397 -4.2136321
-40.310654 -151.2308 -5.638948
-45.526775 -151.32407 -6.311903
-40.542404 -151.22418 -6.3134189
-52.22654 -151.28445 -6.4800711
-48.903938 -151.30559 -6.512188
-41.921234 -151.32718 -6.61656
-40.346104 -151.22523 -6.6545701
-59.036621 -151.05844 -4.3394661
-55.548595 -151.14482 -4.217474
-53.728958 -151.03946 -4.2729959
-52.368645 -151.12491 -4.2061968
-49.876724 -151.14056 -4.2229648
-40.28788 -151.17719 -5.7178349
-58.789452 -151.15906 -6.2835679
-55.639259 -151.02896 -6.4893479
-50.989468 -150.89493 -4.162745
-56.54464 -150.80966 -4.228519
-55.878952 -150.89322 -4.2008891
-59.029701 -150.89355 -4.4828849
-54.943192 -150.82182 -4.4747529
-49.364258 -150.90894 -4.949728
-47.309532 -150.87326 -4.9512992
-55.498589 -150.86746 -6.3643522
-58.964165 -150.77768 -4.505538
-54.714237 -150.75485 -4.4850841
-54.175148 -150.7108 -4.4809222
-55.703735 -150.62671 -4.894938
-48.422131 -150.6424 -4.9627271
-56.746067 -150.68756 -6.5074759
-59.765377 -150.69669 -7.0578341
-58.648529 -150.69724 -7.0565662
-41.925491 -150.62714 -7.1164432
-58.370148 -150.79662 -7.2034869
-55.678925 -150.56979 -6.4300971
-53.768867 -150.4366 -6.513257
-42.108932 -150.51726 -6.745615
-56.28476 -150.45551 -7.0602999
-49.982574 -150.40265 -10.137127
-59.021393 -150.20792 -4.2287211
-47.901661 -150.21019 -4.6014962
-52.409828 -150.2296 -4.9894748
-52.280968 -150.34067 -4.9690762
-55.534424 -150.32466 -5.981822
-58.978828 -150.35818 -6.5097661
-55.691334 -150.32661 -6.449183
-50.552155 -150.24245 -10.376239
-48.602669 -150.15817 -4.1514759
-57.797497 -150.18352 -4.2295098
-56.919189 -150.01044 -4.7232852
-56.781555 -150.08679 -4.6889601
-52.385914 -150.06454 -5.6930499
-52.36248 -150.1207 -5.8867011
-52.366627 -150.19968 -6.187706
-55.725689 -150.18384 -6.4440079
-52.160816 -150.04608 -7.0424562
-55.40947 -149.87677 -4.1940169
-47.051559 -149.93448 -4.1606579
-53.637913 -149.88718 -4.6251841
-56.94566 -149.85796 -4.8478322
-49.054527 -149.85321 -5.5403218
-50.544895 -149.9725 -6.981925
-51.805618 -149.99445 -7.042933
-55.777878 -149.74747 -4.1581588
-50.965008 -149.68399 -4.3560309
-53.277805 -149.77359 -5.2168841
-41.87146 -149.7576 -7.1554351
-57.044529 -149.4435 -4.89188
-49.014099 -149.5963 -5.5628071
-53.659695 -149.24072 -4.9429612
-53.559418 -149.33743 -4.9934392
-49.074966 -149.34103 -6.1943889
-55.707752 -149.3924 -6.3684349
-49.08456 -149.26001 -6.2669802
-42.25647 -149.38344 -6.7201948
-50.53904 -149.2908 -10.50564
-50.178822 -149.20593 -10.408752
-50.680214 -149.19212 -4.4363012
-51.426826 -149.16113 -4.8652501
-45.73172 -149.00055 -5.5180831
-45.718002 -149.13933 -5.7310162
-49.021606 -149.1071 -10.265514
-53.603271 -148.88873 -4.7263451
-59.223312 -148.99487 -6.5174389
-51.315773 -148.89536 -10.92433
-55.877983 -148.70461 -4.109848
-57.090668 -148.64784 -4.295938
-53.606834 -148.76959 -4.599823
-51.601009 -148.68356 -4.8837218
-51.56649 -148.70837 -4.899426
-50.852825 -148.73738 -4.859066
-52.506542 -148.60803 -6.3883691
-50.201248 -148.76929 -10.42891
-58.001595 -148.54474 -4.152472
-56.273911 -148.56978 -4.113431
-54.309814 -148.59009 -4.157207
-57.054504 -148.5461 -4.7656708
-48.074982 -148.57571 -4.740314
-49.482101 -148.55177 -4.8560748
-47.492672 -148.43097 -4.804533
-49.157516 -148.55461 -6.3407969
-59.815857 -148.56192 -6.586937
-58.101532 -148.41577 -6.4493608
-42.24057 -148.52551 -6.9994731
-57.039032 -148.20816 -4.065146
-49.11129 -148.20898 -4.0186639
-57.715202 -148.27599 -6.559237
-58.924316 -148.35246 -6.6779799
-41.966831 -148.33311 -7.1542459
-49.017792 -148.07716 -3.9917941
-57.070286 -148.19444 -4.0897951
-56.542717 -148.16388 -4.0545182
-55.375095 -148.13637 -4.057642
-50.707443 -148.12598 -4.049736
-50.220886 -148.03722 -4.041759
-56.453476 -148.18231 -6.4821849
-42.157516 -148.16611 -7.052012
-49.826786 -148.02798 -11.192499
-51.084267 -148.16702 -11.216729
-58.002831 -147.82314 -4.0995212
-57.578133 -147.8812 -4.0801172
-56.743118 -147.92465 -4.0580139
-55.006977 -147.94826 -4.025908
-49.754482 -147.86658 -4.0217361
-54.523365 -147.95284 -6.4306488
-53.094002 -147.73576 -3.9788599
-49.332291 -147.72618 -3.988081
-58.154411 -147.37991 -4.081708
-54.869537 -147.33154 -4.0299792
-53.841125 -147.34998 -4.0070901
-42.466621 -147.30716 -6.8400111
-56.76796 -147.23993 -8.8208332
-50.578747 -147.05292 -3.992949
-56.490868 -147.05363 -4.065834
-56.202663 -147.02193 -4.1206131
-55.08905 -147.10857 -4.038816
-45.921467 -147.14381 -4.159565
-45.922096 -147.04254 -5.9398522
-56.282143 -147.12347 -9.8072996
-55.98415 -147.18698 -9.8179483
-50.105301 -147.17708 -11.243536
-59.409088 -146.99254 -4.0774808
-44.885567 -146.86148 -6.0446329
-44.694828 -146.83162 -6.036036
-59.21946 -146.61839 -4.124887
-44.752769 -146.63632 -4.0278611
-43.641975 -146.7562 -4.4254632
-44.51722 -146.79723 -6.0363231
-43.789291 -146.7243 -6.0241771
-56.231853 -146.65625 -9.5143223
-56.519318 -146.60315 -10.037559
-54.211617 -146.51611 -4.3833342
-40.980461 -146.43268 -5.100153
-57.585373 -146.44643 -9.8410673
-49.669983 -146.58127 -11.079313
-56.286045 -146.27887 -7.9083638
-42.351036 -146.09801 -6.7222381
-56.517326 -146.16325 -7.446239
-56.546822 -146.0873 -9.3704357
-51.484741 -146.15915 -9.330411
