# .PCD v0.7 - Point Cloud Data file format
VERSION 0.7
FIELDS x y z
SIZE 4 4 4
TYPE F F F
COUNT 1 1 1
WIDTH 1466
HEIGHT 1
VIEWPOINT 0 0 0 1 0 0 0
POINTS 1466
DATA ascii
-41.332581 -268.76773 -8.1987429
-42.878273 -268.67352 -8.6410942
-40.760365 -268.62503 -9.5168104
-41.433876 -268.6394 -11.526962
-41.021091 -268.51105 -10.776449
-42.665199 -268.09491 -9.1758308
-42.111961 -268.08099 -9.0812054
-41.03746 -268.13843 -9.4711885
-42.216808 -268.0791 -9.7109156
-42.561104 -268.08041 -9.8152752
-40.590897 -268.17679 -9.8585958
-41.091469 -268.1149 -10.08375
-40.590485 -268.04361 -13.071347
-42.899651 -267.84686 -8.3329458
-42.890057 -267.81311 -10.477097
-42.288818 -267.92462 -13.927549
-42.599312 -267.8801 -14.874561
-40.222378 -267.98819 -15.072475
-41.804558 -267.87634 -15.479739
-42.843903 -267.72968 -11.273685
-42.838699 -267.65564 -14.582281
-41.862831 -267.74854 -15.713772
-42.833694 -267.56628 -7.8899221
-43.247025 -267.49197 -8.5168095
-42.960487 -267.50269 -9.1327438
-42.977341 -267.49564 -10.123144
-42.965656 -267.37704 -14.551395
-42.962486 -267.3573 -15.76968
-43.288742 -267.04572 -8.5016203
-43.250885 -267.15363 -16.218279
-43.2911 -266.92761 -7.833252
-43.223198 -266.96674 -12.451351
-43.305092 -266.68787 -8.3125372
-43.215412 -266.7359 -14.100969
-40.989799 -266.04071 -14.447746
-43.218632 -265.7067 -14.639791
-43.237061 -265.49054 -7.740088
-40.061119 -265.31674 -9.3401527
-43.205772 -265.25223 -9.6605082
-40.490028 -265.04123 -8.4650946
-43.16795 -265.12802 -9.02596
-40.071739 -265.13757 -9.2133503
-43.189793 -265.05591 -9.4313116
-40.201557 -265.05908 -9.804039
-40.293701 -265.13672 -13.084977
-40.233437 -264.92865 -8.2875214
-40.255203 -264.62143 -9.4000969
-40.946068 -264.51019 -8.6838074
-40.720146 -264.51807 -8.7436237
-43.108566 -264.40363 -10.708269
-41.176102 -264.55261 -14.045055
-41.899677 -264.24597 -9.9893227
-41.560013 -264.2413 -13.162546
-40.619884 -264.30756 -13.235439
-44.071594 -264.06683 -7.675395
-44.546356 -264.00238 -8.6301765
-43.115761 -264.08795 -8.6999826
-48.999329 -264.06403 -9.5717564
-44.264442 -264.02045 -9.4679909
-43.96096 -264.02979 -9.5996246
-40.424706 -264.16431 -10.297552
-42.996086 -264.04691 -13.247986
-49.680008 -263.84192 -7.5327382
-48.630039 -263.866 -7.534873
-48.370647 -263.82904 -8.3167839
-49.799957 -263.83408 -8.6596394
-48.95956 -263.85336 -8.7170563
-48.627991 -263.87897 -8.6816597
-43.876663 -263.91907 -8.6894703
-48.911766 -263.83853 -8.8540115
-48.582474 -263.85425 -8.8361874
-47.306725 -263.83499 -9.5486088
-44.615253 -263.99045 -9.5462904
-41.438606 -263.97208 -10.584599
-40.183365 -263.96777 -10.460861
-45.534618 -263.92648 -10.934731
-44.610611 -263.94601 -10.871037
-42.166477 -263.85126 -13.354503
-40.707802 -263.8504 -14.465666
-53.006729 -263.69177 -7.5394182
-52.18782 -263.74295 -7.5005512
-50.986107 -263.73462 -7.557189
-55.35434 -263.62726 -7.7567348
-55.045532 -263.62082 -7.8388662
-54.559341 -263.61169 -8.1773872
-52.582489 -263.65042 -8.533823
-50.466438 -263.72653 -8.5813551
-54.747948 -263.608 -8.6816788
-52.936241 -263.66858 -8.6768913
-51.881874 -263.72327 -8.6562586
-51.47554 -263.74384 -8.71451
-54.70829 -263.60361 -8.8290939
-53.352177 -263.66 -8.8230324
-52.653465 -263.6994 -8.8697014
-50.9146 -263.75082 -8.8627005
-50.507751 -263.72571 -8.9527187
-51.059559 -263.75156 -9.092823
-43.117863 -263.77444 -9.0970087
-49.693924 -263.79895 -9.5331478
-51.36351 -263.72455 -9.7776995
-51.067581 -263.65756 -10.081137
-51.869301 -263.64575 -10.290485
-48.986176 -263.79858 -10.572134
-49.077518 -263.69128 -10.948974
-47.907764 -263.73254 -10.973415
-50.218872 -263.68301 -11.094518
-51.181297 -263.66412 -11.232395
-46.225723 -263.73001 -11.379684
-43.708672 -263.65396 -12.736326
-43.77853 -263.77878 -13.390516
-48.223259 -263.66016 -13.86729
-45.859619 -263.65771 -13.802495
-41.592621 -263.61749 -14.598423
-43.363945 -263.76688 -16.807598
-43.107124 -263.73071 -17.825695
-43.361397 -263.74261 -18.234158
-57.053658 -263.45233 -7.5648618
-53.377026 -263.508 -7.506577
-47.712746 -263.48639 -7.6733751
-59.003674 -263.41562 -7.9414959
-57.291428 -263.46573 -8.0876675
-54.46822 -263.42456 -8.0725861
-50.476089 -263.43704 -8.4987936
-54.58374 -263.4971 -8.7251368
-54.658096 -263.53918 -8.8757315
-51.481621 -263.44315 -9.0854626
-50.658592 -263.51746 -9.0894928
-56.129829 -263.59555 -9.9929104
-55.684731 -263.45767 -10.096292
-43.12989 -263.48248 -10.123213
-51.188087 -263.59479 -10.524847
-49.798233 -263.47562 -10.615505
-48.997322 -263.41486 -10.654999
-49.7799 -263.51276 -11.30899
-55.77795 -263.4335 -11.683217
-51.296959 -263.46469 -12.912437
-43.686066 -263.41922 -12.881929
-44.407688 -263.444 -13.054207
-51.309692 -263.49982 -13.555283
-51.189156 -263.50824 -13.650417
-50.103188 -263.48016 -14.322179
-47.714218 -263.48096 -14.521514
-48.287521 -263.53049 -18.374302
-59.525856 -263.27597 -7.5257888
-45.627899 -263.35056 -8.1274595
-59.965382 -263.37216 -8.2816601
-59.337791 -263.36658 -8.8592644
-45.432182 -263.27032 -8.9840956
-48.635685 -263.21579 -9.1402502
-47.870918 -263.22021 -9.1012554
-48.150505 -263.26093 -9.5715609
-48.137867 -263.25531 -9.7268858
-47.272984 -263.29398 -9.6254396
-44.67971 -263.36346 -9.652317
-47.379051 -263.272 -9.8071117
-47.146931 -263.23135 -9.8662233
-55.280224 -263.38916 -10.043448
-54.700378 -263.29056 -10.046268
-46.485771 -263.32242 -10.162874
-43.69474 -263.36917 -10.082508
-49.10548 -263.24088 -10.281749
-47.595119 -263.26651 -10.376211
-47.275787 -263.26404 -10.36567
-44.580872 -263.36224 -10.236501
-56.928688 -263.34232 -10.597658
-46.0737 -263.30127 -10.496879
-45.153076 -263.34567 -10.583668
-58.700897 -263.33408 -10.652124
-56.205276 -263.35504 -10.641392
-54.018497 -263.25549 -10.70801
-48.464142 -263.24014 -10.728463
-48.139751 -263.21671 -10.684791
-47.560703 -263.21014 -10.946071
-58.261444 -263.26953 -11.125885
-56.207985 -263.27979 -11.07431
-55.695343 -263.37671 -11.088188
-55.347412 -263.33347 -11.053734
-56.603783 -263.36035 -11.325336
-56.208607 -263.37473 -11.304911
-53.105316 -263.34784 -11.376271
-45.80677 -263.27344 -11.263437
-56.525265 -263.29526 -11.753829
-54.721851 -263.30411 -11.696159
-43.468307 -263.38 -12.298044
-52.614769 -263.33557 -12.868959
-41.025894 -263.39325 -13.253395
-51.404297 -263.35455 -14.239226
-49.530144 -263.37439 -14.282877
-44.607651 -263.24609 -14.307131
-43.943344 -263.27832 -14.482649
-45.501915 -263.27975 -14.61492
-48.697998 -263.32724 -14.9921
-45.70462 -263.23346 -14.858936
-48.711308 -263.23663 -15.032217
-45.786762 -263.27054 -15.270255
-55.712029 -263.25012 -17.053047
-45.68404 -263.07428 -7.565156
-41.65403 -263.14478 -7.5344
-54.59404 -263.02246 -7.6930022
-40.536903 -263.14301 -7.8331838
-45.650196 -263.11111 -8.3001499
-50.464512 -263.11761 -8.6270456
-55.514687 -263.02454 -9.3555441
-53.234608 -263.18289 -9.3963261
-53.098553 -263.04016 -9.3853703
-52.185463 -263.12659 -9.3080864
-51.760468 -263.16199 -9.3043365
-52.662361 -263.07822 -9.4613752
-51.570614 -263.16904 -9.5126238
-55.95937 -263.03082 -9.7958736
-52.669487 -263.01636 -9.8596764
-52.939018 -263.16476 -10.025257
-52.678471 -263.01245 -10.114536
-52.124821 -263.10822 -10.106281
-51.895634 -263.04868 -10.13439
-51.560928 -263.0878 -10.141719
-46.64138 -263.17462 -10.106579
-51.999798 -263.0376 -10.210573
-50.950729 -263.0817 -10.321109
-58.685684 -263.03162 -10.545393
-57.218021 -263.11566 -10.586494
-52.922943 -263.0072 -10.49621
-51.340752 -263.0545 -10.524696
-49.46764 -263.15039 -10.531281
-53.610046 -263.19019 -10.617846
-50.911186 -263.13208 -10.779941
-51.355732 -263.11401 -10.823841
-53.257675 -263.11255 -11.253582
-53.007301 -263.06183 -11.325497
-49.717468 -263.11871 -11.357222
-51.349236 -263.03699 -11.725821
-49.383263 -263.07117 -12.948078
-49.339005 -263.07324 -13.043343
-46.216213 -263.0174 -13.092915
-46.190041 -263.14572 -13.413493
-51.473808 -263.01526 -13.970949
-47.31921 -263.1438 -13.934705
-46.26857 -263.19424 -13.808472
-49.70644 -263.12677 -14.094627
-47.617729 -263.1806 -14.227967
-47.185802 -263.11307 -14.294025
-46.298088 -263.19379 -14.689735
-49.168335 -263.05258 -14.802189
-48.629417 -263.0896 -14.901424
-49.721848 -263.02063 -15.269024
-49.374977 -263.05017 -15.31959
-45.779472 -263.04971 -15.752002
-43.809387 -263.12613 -16.216251
-50.888203 -262.87421 -7.6608181
-50.886986 -262.89169 -8.0701694
-50.462177 -262.93652 -8.1612692
-43.11924 -262.93637 -8.6338921
-43.117374 -262.89493 -8.968977
-59.969124 -262.8378 -9.111517
-55.594978 -262.94086 -9.3916893
-54.033798 -262.93097 -9.3375692
-58.989723 -262.95636 -9.4196177
-58.572693 -262.90381 -9.7984991
-57.664951 -262.88043 -9.764904
-55.789566 -262.91138 -9.7492867
-43.133862 -262.8884 -9.6470852
-57.409405 -262.87729 -9.8895121
-55.650314 -262.90402 -9.9378777
-54.661785 -262.93613 -9.9691248
-53.919819 -262.9837 -9.9035988
-51.495697 -262.97803 -9.9002342
-43.277641 -262.8573 -9.8045568
-57.427582 -262.98178 -10.093888
-56.974163 -262.90808 -10.075134
-54.574295 -262.88791 -10.1481
-53.670631 -262.97498 -10.152828
-52.984646 -262.98883 -10.121613
-53.331184 -262.9931 -10.275629
-58.949722 -262.99078 -10.56601
-56.767536 -262.83563 -10.563575
-56.343391 -262.84857 -10.502411
-54.663464 -262.92285 -10.58367
-43.139023 -262.86905 -10.536752
-56.900341 -262.86804 -10.776308
-55.931751 -262.86084 -10.655299
-55.387772 -262.90656 -10.645041
-59.163872 -262.84286 -10.865918
-58.649185 -262.85938 -10.896212
-57.682869 -262.80399 -11.189648
-56.723259 -262.83093 -11.226873
-55.500603 -262.96063 -11.242414
-57.669594 -262.81134 -11.44647
-53.972996 -262.96924 -11.47122
-52.330326 -262.98645 -11.56893
-56.299461 -262.85846 -11.786201
-43.507027 -262.83521 -11.839898
-51.479046 -262.89941 -12.149146
-52.202381 -262.8786 -12.291855
-53.089657 -262.82837 -12.558573
-40.282867 -262.92041 -12.563808
-55.515388 -262.83417 -12.77592
-41.580093 -262.93793 -12.712341
-55.321342 -262.83392 -12.992435
-53.690136 -262.89041 -12.999215
-53.429729 -262.9169 -12.956161
-43.072979 -262.84839 -12.897352
-40.682766 -262.87665 -12.919796
-56.262821 -262.81226 -13.049847
-55.872704 -262.81042 -13.076015
-54.042233 -262.88513 -13.14765
-55.798363 -262.8252 -13.283943
-55.016792 -262.87408 -13.339028
-52.660423 -262.91473 -13.336716
-44.767307 -262.87796 -13.342784
-40.972519 -262.95844 -13.347696
-52.56044 -262.92068 -13.431747
-51.344109 -262.9798 -13.539276
-54.058289 -262.83621 -13.782084
-43.085289 -262.98981 -13.771196
-55.443817 -262.8674 -13.968923
-56.739643 -262.80032 -14.006666
-55.256279 -262.87384 -14.009137
-52.943779 -262.94571 -14.075567
-47.191299 -262.87622 -14.004358
-50.408073 -262.86484 -14.346272
-53.010666 -262.89749 -14.566887
-51.735947 -262.98138 -14.434906
-58.259819 -262.82297 -15.332075
-49.358757 -262.892 -15.653818
-48.460922 -262.91068 -16.37537
-50.788219 -262.83334 -18.611753
-51.434814 -262.75143 -7.5296741
-47.043968 -262.78644 -7.5321202
-50.855827 -262.66415 -7.6937742
-50.583946 -262.63425 -7.761497
-54.086269 -262.73615 -7.8185072
-50.7206 -262.67325 -7.8218679
-40.221363 -262.65552 -7.9105458
-50.839523 -262.69974 -8.064909
-50.601635 -262.61578 -8.2248726
-44.056587 -262.64969 -8.3199654
-46.945927 -262.77332 -8.9268303
-59.466522 -262.63596 -9.1397047
-58.439827 -262.68369 -9.1439991
-55.682045 -262.78119 -9.136198
-42.845222 -262.67908 -9.1599083
-46.940926 -262.74893 -9.396059
-54.544022 -262.64908 -9.4302988
-59.037113 -262.7262 -9.7444649
-58.928833 -262.73642 -10.144459
-58.225891 -262.71606 -10.182012
-57.467613 -262.79041 -10.34792
-50.852798 -262.67542 -10.315174
-47.057579 -262.7099 -10.208438
-47.086224 -262.69577 -10.670328
-57.737457 -262.75598 -11.158617
-58.30547 -262.72974 -11.298439
-57.50848 -262.78665 -11.268164
-59.017426 -262.70038 -11.697186
-59.753765 -262.65427 -11.898788
-56.611267 -262.70984 -11.914441
-55.461231 -262.72858 -11.828669
-53.901707 -262.75137 -11.885662
-46.331116 -262.64825 -12.178583
-54.991501 -262.73752 -12.580965
-54.030396 -262.75037 -12.48751
-53.939064 -262.74875 -12.518282
-46.963539 -262.65765 -12.615179
-50.821812 -262.63666 -12.957144
-57.289669 -262.75458 -13.380892
-57.662243 -262.64984 -13.935774
-50.857876 -262.67035 -13.889377
-53.917145 -262.77142 -14.41416
-55.926697 -262.76544 -14.608657
-55.303123 -262.78226 -14.664586
-57.006344 -262.69547 -15.003624
-47.00576 -262.61829 -15.065649
-46.703915 -262.66977 -15.270555
-57.353355 -262.67352 -15.440441
-53.82925 -262.69031 -15.553041
-43.877071 -262.61407 -15.4456
-52.984314 -262.72675 -15.853808
-43.16095 -262.7204 -16.294222
-54.525494 -262.50244 -8.0836468
-54.11636 -262.44867 -8.196105
-54.170937 -262.43164 -8.586853
-54.277485 -262.43488 -8.7477446
-54.540897 -262.5155 -8.8510361
-45.04184 -262.52142 -8.9276161
-50.732265 -262.56485 -9.4976273
-54.465008 -262.43524 -9.8615665
-50.648327 -262.55569 -10.022945
-54.377251 -262.40393 -10.459207
-54.104355 -262.41708 -10.595271
-50.459629 -262.53165 -10.93605
-44.523727 -262.41391 -11.897382
-50.37252 -262.52283 -12.281426
-41.516674 -262.57065 -12.272778
-40.894444 -262.51077 -13.275921
-45.037777 -262.45728 -13.791394
-45.108353 -262.49356 -13.862579
-54.015057 -262.57458 -14.506205
-50.368603 -262.45258 -14.565504
-50.35862 -262.46307 -14.600546
-50.742737 -262.41635 -15.382668
-46.742603 -262.57336 -15.908804
-55.263519 -262.3457 -7.4949532
-55.285744 -262.37753 -7.716845
-58.261223 -262.29193 -8.2804565
-57.741959 -262.29562 -9.1158209
-54.222023 -262.39719 -9.0767088
-57.931969 -262.24771 -9.6806583
-58.139149 -262.2713 -9.8321915
-57.881443 -262.25177 -9.9307594
-54.48737 -262.38568 -10.093619
-54.234703 -262.39166 -10.174366
-47.02544 -262.2243 -10.286303
-54.316597 -262.3847 -10.500801
-57.851395 -262.23755 -10.695137
-58.116737 -262.22809 -11.339671
-54.433327 -262.36981 -11.54285
-54.44236 -262.36481 -11.873254
-58.056335 -262.20346 -12.087904
-54.121567 -262.35983 -12.161312
-54.437992 -262.32135 -12.357462
-54.44989 -262.34149 -12.527915
-40.575516 -262.3537 -12.424317
-40.063461 -262.22531 -13.26112
-40.597256 -262.26624 -13.49599
-40.003284 -262.38226 -13.648898
-54.023895 -262.33484 -13.918896
-41.375454 -262.23224 -14.848122
-54.126339 -262.27231 -15.880011
-50.536194 -262.1911 -7.5347061
-45.615746 -262.14301 -8.4206657
-45.524246 -262.10394 -8.568099
-42.575817 -262.16434 -9.4161301
-47.148487 -262.08929 -11.101634
-42.280704 -262.11945 -12.118769
-40.955379 -262.06845 -12.694064
-57.863647 -262.1539 -13.890476
-45.756683 -262.11356 -13.909245
-45.179592 -262.17386 -14.155831
-44.557461 -261.88971 -8.4784203
-42.753143 -261.82581 -8.5973206
-40.217388 -261.85181 -11.323882
-40.487003 -261.89713 -11.631904
-41.025124 -261.84583 -12.294262
-47.246613 -261.97174 -13.406432
-41.702446 -261.88782 -13.407751
-41.292152 -261.80145 -13.508995
-40.626385 -261.99362 -14.214849
-40.236759 -261.888 -14.227623
-40.481956 -261.92328 -14.633553
-55.020233 -261.76535 -7.5836468
-51.32328 -261.77277 -7.565012
-46.566097 -261.73468 -7.4497652
-45.649776 -261.77478 -8.1092396
-42.020042 -261.68588 -9.2132998
-59.436203 -261.76825 -10.436392
-45.47242 -261.74756 -11.891867
-46.984779 -261.67117 -12.754175
-41.934578 -261.79651 -12.941565
-45.979919 -261.73544 -14.249178
-46.69339 -261.46735 -7.3757782
-41.677643 -261.50266 -7.3598738
-43.312973 -261.50412 -7.6671791
-42.634697 -261.53442 -7.8553181
-42.085537 -261.42468 -8.3408051
-45.542038 -261.41479 -8.4399433
-46.534393 -261.55112 -9.9457293
-46.234009 -261.53735 -10.053158
-58.681084 -261.45123 -11.34444
-59.016312 -261.57016 -11.767626
-59.586761 -261.59891 -12.041153
-46.562309 -261.50598 -12.079744
-40.085728 -261.41986 -13.536161
-45.661419 -261.56293 -13.995321
-42.272835 -261.42065 -14.541815
-40.257946 -261.35123 -7.3395381
-48.930473 -261.32849 -7.4655108
-43.577003 -261.28748 -7.5697808
-42.952625 -261.32166 -7.535181
-42.562939 -261.35608 -7.5014439
-55.03083 -261.36145 -7.633965
-54.11557 -261.22858 -8.1277046
-53.881863 -261.28595 -8.3466969
-53.708035 -261.29034 -8.4891844
-42.445099 -261.38989 -9.0772247
-42.096264 -261.30954 -9.1666145
-42.707851 -261.25 -9.5176964
-42.51281 -261.22476 -9.6769915
-40.453922 -261.27188 -11.147755
-58.577332 -261.37186 -11.493049
-40.162956 -261.39648 -12.983974
-41.415665 -261.32678 -13.509708
-43.471188 -261.33759 -14.165403
-45.774677 -261.39893 -14.213654
-43.659454 -261.22403 -14.396022
-44.643333 -261.34192 -14.614408
-49.813202 -261.00262 -7.3982348
-58.459393 -261.12677 -7.5649438
-56.162872 -261.00751 -7.5597391
-53.050583 -261.06924 -7.461132
-52.86544 -261.18546 -7.6179228
-42.171513 -261.0704 -9.768878
-46.980434 -261.17081 -11.149821
-59.762787 -261.00177 -11.291762
-59.339905 -261.0972 -11.796775
-45.376034 -261.03864 -11.954302
-41.250004 -261.12094 -12.039937
-41.41964 -261.0473 -13.389846
-45.715382 -261.13797 -14.630305
-44.286198 -261.14032 -14.617805
-40.246025 -261.12097 -14.825077
-57.002625 -260.93027 -7.4677882
-43.44371 -260.9035 -7.531199
-56.42215 -260.91022 -7.8004751
-45.040985 -260.88898 -9.0094242
-46.048016 -260.86749 -9.8214474
-46.2817 -260.84583 -10.114552
-42.878517 -260.9007 -10.11939
-41.810013 -260.93793 -10.085199
-42.242889 -260.87863 -10.445793
-46.347572 -260.92023 -10.706892
-59.43465 -260.83655 -11.420538
-42.496082 -260.84824 -12.001915
-42.342674 -260.89917 -12.258737
-40.897663 -260.94043 -12.762987
-40.173157 -260.89148 -13.792619
-44.754463 -260.84839 -14.229773
-43.726238 -260.87775 -14.571762
-43.420364 -260.93878 -14.545808
-45.515713 -260.93732 -14.711207
-40.456364 -260.96222 -14.602162
-40.570305 -260.83652 -15.579747
-40.446571 -260.87897 -15.687622
-58.263607 -260.60779 -7.5075111
-53.405373 -260.62292 -7.4732409
-51.054634 -260.65997 -7.4123402
-53.702049 -260.75507 -7.602797
-56.635941 -260.75522 -8.1882572
-44.149975 -260.7182 -8.0168715
-59.224888 -260.71478 -8.2698231
-45.624687 -260.70197 -8.2273531
-45.43824 -260.74054 -8.6717758
-44.238071 -260.73175 -8.6421986
-48.730999 -260.66016 -9.1288261
-45.892834 -260.72772 -9.8463697
-42.481216 -260.68555 -10.020942
-45.859303 -260.65634 -11.262367
-59.189064 -260.67801 -12.033957
-42.134193 -260.68475 -14.879642
-40.569321 -260.61847 -15.735727
-44.051071 -260.43457 -7.3440661
-45.346649 -260.51349 -7.54005
-45.467293 -260.53992 -7.7465601
-44.015362 -260.56558 -7.673265
-59.045189 -260.49792 -8.1164207
-58.301285 -260.50461 -8.1270561
-48.946934 -260.52753 -8.5012608
-59.147018 -260.41812 -8.9915771
-48.133583 -260.47427 -8.937705
-46.843884 -260.58148 -9.4244041
-46.538727 -260.49991 -9.7094088
-41.749641 -260.59833 -10.158218
-42.614952 -260.52979 -10.223028
-41.39064 -260.49405 -11.084715
-41.365158 -260.45694 -12.170665
-45.414764 -260.51117 -12.612255
-41.315269 -260.5769 -13.163584
-40.111649 -260.52197 -13.443403
-44.846783 -260.57721 -14.202532
-44.413441 -260.59647 -15.111071
-55.317268 -260.21875 -7.3917761
-52.972519 -260.38235 -7.3886509
-54.256378 -260.32123 -7.4705639
-59.007946 -260.26749 -8.3112841
-49.585709 -260.28314 -8.2147923
-59.062294 -260.2326 -8.4818554
-54.149872 -260.31696 -8.7446775
-54.018452 -260.20764 -8.8967237
-49.500248 -260.21078 -8.8730297
-45.442818 -260.39185 -8.8998652
-54.11729 -260.26862 -9.0489969
-58.259846 -260.2597 -9.3212366
-59.376961 -260.36438 -10.938615
-43.403118 -260.2038 -10.903404
-45.333969 -260.22751 -11.388144
-40.176132 -260.39658 -12.135551
-46.330189 -260.26135 -12.304319
-41.30798 -260.26141 -12.655711
-40.907875 -260.27841 -13.306455
-41.747375 -260.31195 -13.476151
-57.026894 -260.29126 -14.170629
-58.764591 -260.25909 -14.212797
-45.910484 -260.3392 -14.531904
-54.667019 -260.17786 -7.387454
-46.60305 -260.19186 -7.3976059
-57.728966 -260.11276 -7.4715528
-52.762512 -260.00803 -7.427536
-59.37162 -260.11963 -9.176816
-47.239311 -260.02835 -10.519023
-43.086037 -260.17102 -10.584052
-46.264313 -260.04449 -10.738637
-45.843651 -260.12286 -10.659511
-43.536926 -260.08942 -10.760229
-47.630745 -260.15012 -10.848032
-59.645065 -260.02298 -11.110368
-44.779919 -260.18555 -11.154928
-43.818974 -260.05386 -11.076789
-59.707928 -260.09381 -11.814802
-40.580399 -260.14008 -12.123443
-57.73727 -260.10092 -13.053322
-58.162987 -260.10046 -13.44346
-42.772923 -260.1962 -14.276285
-40.930065 -260.14404 -14.993848
-42.109379 -273.26868 -10.430428
-40.6507 -268.80167 -8.0663214
-42.180626 -268.74136 -7.962666
-41.76825 -268.7359 -8.7373409
-40.654099 -268.78659 -8.7492323
-42.157532 -268.63147 -8.974472
-41.75016 -268.7037 -8.9748249
-42.781216 -268.62848 -10.750891
-40.64666 -268.70312 -10.872818
-40.566772 -268.52496 -9.6027813
-40.993362 -268.20358 -7.5905652
-42.90266 -268.16284 -8.4972715
-41.425377 -268.07416 -9.0147362
-40.868435 -268.15805 -9.1540928
-40.55983 -268.14349 -9.0929279
-41.00853 -268.11188 -11.368801
-40.581783 -268.19958 -11.431637
-42.236912 -267.99149 -8.9925652
-42.892242 -267.82559 -9.3836384
-40.258331 -267.93628 -12.201033
-41.020119 -267.97241 -13.046963
-40.908058 -267.96863 -13.863703
-40.226345 -267.98236 -14.707489
-42.650112 -267.86682 -15.438511
-42.137859 -267.85925 -15.482654
-42.274834 -267.78839 -15.694569
-40.081001 -267.77148 -18.577934
-43.018951 -267.54645 -7.8460922
-43.239738 -267.48438 -9.3444414
-43.057251 -267.49118 -10.739852
-42.980236 -267.41461 -13.518264
-43.230946 -267.28842 -15.809949
-40.543938 -267.0087 -9.0686207
-43.288239 -266.61639 -9.7328644
-43.230637 -266.69016 -16.131046
-43.29528 -266.5542 -8.9942074
-43.184761 -266.41943 -9.9180584
-43.252136 -266.2558 -9.7314796
-43.171589 -265.784 -7.649003
-43.253925 -265.70782 -8.3194761
-41.029621 -265.57892 -14.367071
-43.231918 -265.38159 -8.2598696
-40.119537 -265.39548 -12.968203
-43.222458 -265.06085 -8.9478683
-43.236404 -265.06604 -9.3978806
-40.820858 -264.60455 -8.814002
-41.405182 -264.68387 -11.069193
-41.626892 -264.7576 -12.505596
-43.027039 -264.53125 -12.146435
-41.440956 -264.20032 -10.254637
-44.070427 -264.02185 -8.6377697
-40.48632 -264.13113 -9.3932781
-40.232864 -264.17981 -9.3423376
-44.463486 -264.00891 -9.4484873
-49.030502 -264.06839 -9.616312
-42.229584 -264.07495 -10.452013
-42.993996 -264.15723 -12.221767
-42.599281 -264.0148 -12.241127
-43.03463 -264.0416 -12.505556
-49.289673 -263.86603 -7.4692602
-48.97126 -263.87463 -7.4872499
-46.670853 -263.97699 -7.5589471
-46.072868 -263.99097 -7.5878701
-50.082676 -263.82861 -7.742517
-43.93396 -263.96371 -7.8593121
-43.151451 -263.94684 -7.981287
-47.864571 -263.87653 -8.5110559
-48.26741 -263.88464 -8.6940498
-47.38702 -263.90698 -8.873867
-40.695435 -263.93201 -9.3741188
-40.549068 -263.83563 -10.441483
-44.139637 -263.93008 -10.998859
-40.147896 -263.87222 -12.500053
-43.068977 -263.90512 -14.045423
-40.867775 -263.89905 -14.19459
-53.309242 -263.66168 -7.542079
-52.956585 -263.70108 -7.6822371
-51.770916 -263.73904 -7.7227802
-51.441479 -263.76239 -7.68329
-40.311249 -263.67145 -7.7449322
-54.665283 -263.62469 -7.8736
-54.640892 -263.61157 -8.1721287
-51.305779 -263.77133 -8.1696568
-50.133007 -263.79056 -8.7154398
-54.988205 -263.62872 -8.9049788
-52.96843 -263.66357 -8.9179916
-51.748955 -263.70938 -8.9198933
-51.339493 -263.74323 -8.8459339
-48.92767 -263.64731 -9.297122
-53.327873 -263.6264 -9.4422684
-51.246555 -263.73273 -9.4429531
-44.021446 -263.77438 -9.463521
-47.560547 -263.66122 -10.920301
-51.07309 -263.67642 -11.179737
-40.726238 -263.74008 -11.024944
-50.154633 -263.66669 -11.327648
-49.758163 -263.6571 -11.436864
-48.959824 -263.60229 -11.652405
-41.12545 -263.75525 -12.392974
-48.694359 -263.64716 -14.169922
-46.418991 -263.71509 -14.224069
-45.751293 -263.60864 -15.350868
-43.156368 -263.78595 -16.542294
-41.028759 -263.51254 -7.5455718
-50.64238 -263.43811 -7.757174
-55.694733 -263.5744 -7.8675399
-55.528999 -263.57681 -7.8612609
-55.042988 -263.56787 -8.0724907
-56.164101 -263.55948 -8.2060165
-54.170319 -263.54248 -8.2143087
-45.589825 -263.41821 -8.2061224
-55.863579 -263.55017 -8.7095432
-54.94698 -263.58627 -8.9788494
-56.169353 -263.41913 -9.3845453
-52.646748 -263.43167 -9.3029194
-53.110191 -263.44012 -10.157013
-52.680176 -263.41635 -10.915548
-54.985947 -263.45956 -11.071695
-49.301296 -263.44989 -11.269861
-51.057484 -263.40649 -11.436903
-52.675285 -263.44595 -11.694567
-50.067596 -263.44489 -13.082443
-59.886566 -263.41052 -13.469822
-53.068642 -263.43109 -14.154062
-49.292561 -263.41943 -14.523476
-51.277107 -263.44464 -14.937546
-59.730228 -263.31976 -7.512187
-59.068596 -263.39188 -7.556633
-50.901138 -263.36371 -8.6289749
-58.89941 -263.38037 -8.8948059
-44.560448 -263.27219 -8.9299431
-57.836205 -263.28253 -9.1007061
-52.290497 -263.2554 -9.3467407
-48.734108 -263.22412 -9.3388252
-46.752029 -263.29221 -9.3760643
-51.855228 -263.22314 -9.5019026
-46.741341 -263.28326 -9.4804249
-48.60601 -263.2384 -9.6676464
-58.349304 -263.39398 -9.9039421
-53.676895 -263.3486 -9.8421936
-44.575977 -263.33698 -10.0881
-44.215473 -263.38593 -10.158427
-43.521629 -263.37018 -10.179041
-58.984802 -263.32318 -10.33305
-59.277786 -263.3522 -10.471685
-44.289253 -263.37268 -10.513226
-53.095177 -263.30096 -10.638027
-52.809315 -263.22052 -10.635
-59.690857 -263.24072 -10.981365
-59.3507 -263.23566 -11.056751
-58.903698 -263.30206 -11.039936
-56.657497 -263.26526 -11.161415
-44.130859 -263.36151 -11.087861
-57.607861 -263.30371 -11.295591
-49.065796 -263.29639 -11.371166
-48.704674 -263.37488 -11.309278
-53.784805 -263.30136 -11.666963
-45.099808 -263.22028 -11.65088
-53.867538 -263.32443 -12.894068
-40.516373 -263.37399 -12.90159
-40.212078 -263.31567 -13.165343
-43.864098 -263.28177 -13.315596
-43.077557 -263.24622 -13.279491
-49.207775 -263.25793 -14.227353
-48.891247 -263.31335 -14.861648
-45.510551 -263.23132 -14.869955
-49.030045 -263.21118 -15.001751
-57.725712 -263.24103 -17.696091
-47.679806 -263.0347 -7.5408492
-44.080757 -263.05548 -7.7761579
-58.608749 -263.12131 -7.9258509
-50.888931 -263.10126 -8.7006578
-49.388084 -263.10474 -8.9873142
-46.189869 -263.17941 -8.9652262
-52.215431 -263.07837 -9.1632214
-49.736847 -263.06372 -9.0007772
-48.178379 -263.16229 -9.0134506
-52.172871 -263.15903 -9.2658644
-51.880562 -263.05356 -9.353672
-55.939751 -263.11139 -9.5464878
-53.65361 -263.00842 -9.4791775
-52.250618 -263.1116 -9.4683113
-48.975445 -263.19415 -9.5298758
-52.398209 -263.185 -9.612566
-49.345924 -263.1828 -9.7265139
-53.041183 -263.16373 -10.100513
-52.394768 -263.02521 -10.22917
-51.72966 -263.0423 -10.349001
-51.383888 -263.0517 -10.337465
-51.09021 -263.16324 -10.286896
-48.866047 -263.18515 -10.554003
-52.945171 -263.01578 -11.093335
-50.42807 -263.02145 -11.324949
-52.828533 -263.00137 -11.690924
-49.273888 -263.0108 -11.788978
-48.680626 -263.04767 -11.739487
-48.931831 -263.02087 -12.257227
-51.415913 -263.00058 -12.722071
-49.342472 -263.07321 -12.767434
-48.691994 -263.11395 -12.788177
-48.170078 -263.12738 -12.62009
-48.217323 -263.08673 -13.231075
-48.262962 -263.11615 -13.489763
-51.033981 -263.01718 -13.770763
-48.549801 -263.10455 -13.794872
-46.621498 -263.11511 -13.724555
-53.563103 -263.12903 -13.891256
-46.162323 -263.19604 -14.185053
-48.167946 -263.0946 -14.936229
-47.875004 -263.10599 -14.97023
-45.879955 -263.19235 -15.056194
-47.420639 -263.00653 -15.446045
-44.974197 -263.06757 -16.195936
-59.78273 -263.07666 -18.387863
-47.361843 -262.98782 -7.6480961
-40.108292 -262.93921 -7.802114
-47.014133 -262.84521 -8.1143684
-50.888588 -262.875 -8.7970123
-50.943924 -262.9903 -8.997695
-56.120235 -262.80463 -9.1381893
-55.848412 -262.81012 -9.1527672
-55.047054 -262.83069 -9.1554623
-55.985241 -262.95474 -9.2515802
-47.000542 -262.85239 -9.3827324
-40.157551 -262.95004 -9.3326607
-55.881104 -262.91068 -9.4988909
-57.657269 -262.88983 -10.114876
-47.160618 -262.96747 -10.188218
-55.02071 -262.92688 -10.599895
-53.507515 -262.96149 -10.517471
-50.85054 -262.94958 -10.503689
-43.400436 -262.88739 -10.483574
-57.083862 -262.85434 -10.648052
-55.74128 -262.86859 -10.655012
-54.546257 -262.8934 -10.642504
-53.76236 -262.94952 -10.695822
-47.198967 -262.82147 -10.747053
-59.394066 -262.8595 -10.931511
-55.481236 -262.91614 -10.825038
-54.970631 -262.93753 -10.912745
-53.68578 -262.95795 -10.895872
-43.41291 -262.90869 -10.880674
-57.37487 -262.86865 -11.053336
-56.639122 -262.87463 -11.179239
-56.926659 -262.88263 -11.32607
-56.588257 -262.86823 -11.285079
-54.018166 -262.90329 -11.332872
-59.021862 -262.965 -11.462479
-58.644455 -262.89502 -11.510167
-56.370766 -262.90985 -11.42404
-55.400085 -262.88916 -11.476845
-53.727516 -262.89301 -11.463421
-46.27507 -262.95114 -11.989794
-53.381405 -262.82339 -12.29199
-52.884537 -262.8382 -12.285686
-52.502892 -262.84772 -12.210817
-49.846062 -262.9584 -12.461778
-53.427521 -262.92062 -12.793016
-51.827728 -262.92801 -12.628107
-50.187988 -262.98346 -12.6516
-51.875957 -262.96814 -12.856085
-58.277111 -262.99982 -13.03855
-56.764038 -262.80914 -13.253862
-53.743721 -262.87961 -13.319017
-52.439713 -262.93124 -13.322708
-52.309586 -262.93515 -13.385778
-53.267506 -262.8924 -13.4783
-52.163982 -262.94003 -13.507023
-51.844955 -262.95502 -13.478752
-55.337975 -262.87735 -13.971609
-53.37809 -262.96405 -13.831209
-54.780205 -262.8584 -14.003769
-52.42131 -262.91995 -14.56098
-51.708588 -262.97702 -14.674259
-53.399147 -262.8678 -15.104498
-52.196609 -262.89697 -15.039965
-50.978836 -262.80975 -18.954563
-45.63607 -262.73404 -7.8875399
-57.557808 -262.73761 -8.0007038
-47.063263 -262.77133 -8.1193447
-47.215298 -262.75891 -8.3560944
-46.972866 -262.75763 -8.5451584
-50.391659 -262.60092 -8.8695831
-57.057713 -262.74533 -9.1421089
-50.820133 -262.64337 -9.0205545
-42.680866 -262.68671 -9.1179924
-50.659126 -262.61194 -9.3325596
-50.856556 -262.72192 -9.5110149
-47.148994 -262.72873 -9.4066563
-47.134361 -262.71713 -9.6215706
-46.748451 -262.7478 -9.694293
-59.709297 -262.67822 -10.241088
-58.526829 -262.74316 -10.26767
-46.758652 -262.7019 -10.252729
-54.465038 -262.63657 -10.520455
-59.576256 -262.71155 -10.939939
-46.982021 -262.66922 -10.948127
-59.727974 -262.6933 -11.277596
-50.416641 -262.74564 -11.244325
-57.668167 -262.65509 -11.786501
-58.679092 -262.69211 -11.879271
-56.577656 -262.70212 -12.045857
-52.9842 -262.79041 -12.595028
-47.197044 -262.6535 -12.541029
-56.231392 -262.78131 -13.17493
-53.987408 -262.75946 -13.122019
-50.391052 -262.72586 -13.099901
-46.728363 -262.63507 -13.32493
-59.858734 -262.62665 -13.437656
-57.014568 -262.77747 -13.993453
-47.03318 -262.63031 -13.89537
-57.0994 -262.75488 -14.093236
-44.179497 -262.72644 -14.186269
-54.039223 -262.61859 -14.222481
-57.63868 -262.62299 -15.286022
-58.600929 -262.55682 -7.5279689
-54.172516 -262.46759 -7.5722971
-40.8377 -262.47592 -7.498672
-54.966583 -262.49261 -7.660223
-54.2724 -262.47202 -8.2243214
-44.175224 -262.58563 -8.5444365
-54.128761 -262.43903 -8.7798176
-45.006779 -262.41974 -8.7221832
-50.610367 -262.5954 -8.9790897
-44.561783 -262.57767 -8.9412136
-54.499641 -262.46008 -9.0195456
-54.488617 -262.50262 -9.4545345
-50.519295 -262.59375 -9.698822
-42.611046 -262.42245 -9.6918564
-50.640221 -262.53613 -10.47665
-50.463814 -262.53766 -10.498605
-54.087055 -262.4707 -11.36799
-46.684864 -262.42142 -11.391903
-58.998154 -262.59253 -12.2052
-50.477684 -262.50333 -12.306377
-50.383755 -262.5752 -12.907456
-54.090683 -262.54846 -13.0849
-50.771484 -262.46017 -13.049337
-41.688374 -262.521 -13.008493
-40.686028 -262.52228 -13.368355
-50.84325 -262.45206 -13.509995
-50.377232 -262.50421 -13.437736
-40.230484 -262.49683 -13.410935
-50.746254 -262.46869 -13.914022
-44.61116 -262.49567 -13.870188
-50.538517 -262.45892 -14.101111
-50.359138 -262.45505 -14.239511
-42.63369 -262.58011 -14.330135
-57.699532 -262.49121 -14.592423
-46.951313 -262.58383 -15.250431
-54.052521 -262.59842 -15.411025
-58.409805 -262.37457 -7.5246158
-41.221413 -262.20901 -7.4854012
-58.105568 -262.29089 -8.165575
-57.831688 -262.28967 -8.6316147
-57.837795 -262.27786 -8.9072428
-45.087608 -262.27884 -8.9060669
-57.818111 -262.26416 -9.2960567
-57.859043 -262.25647 -10.103731
-58.089306 -262.23108 -10.328145
-57.751366 -262.24988 -10.530504
-57.726273 -262.26761 -11.120492
-54.465805 -262.38348 -11.295724
-54.344635 -262.36014 -11.781944
-53.972698 -262.34583 -11.82122
-46.738316 -262.33319 -12.344369
-45.667435 -262.20087 -13.146575
-41.673904 -262.27997 -13.071981
-40.081589 -262.31793 -13.05934
-54.421761 -262.28528 -14.447783
-54.004101 -262.34875 -14.502386
-50.523262 -262.3909 -14.771727
-46.654572 -262.13449 -7.5286021
-42.318066 -262.11884 -7.7467518
-40.504005 -262.15369 -8.1249981
-46.775299 -262.04852 -10.374726
-41.107681 -262.10019 -10.623201
-46.306038 -262.11349 -10.914032
-44.495956 -262.19797 -12.181008
-46.96106 -262.1817 -13.337146
-46.604469 -262.18439 -13.399942
-47.254604 -262.05792 -13.464428
-58.102875 -262.13275 -14.169498
-41.530865 -262.15009 -14.154675
-58.060455 -262.12924 -14.549127
-45.476307 -262.12347 -14.779991
-57.860622 -262.19348 -15.012288
-57.757072 -262.13721 -15.074984
-57.842094 -262.14209 -15.375259
-45.029259 -262.06018 -15.392164
-44.514862 -262.15781 -15.372945
-54.45467 -262.1991 -15.90584
-41.941986 -261.81241 -7.36936
-50.671165 -261.91476 -7.659277
-45.650223 -261.98682 -8.1053371
-41.929932 -261.88742 -9.9426813
-42.53912 -261.89172 -10.124283
-59.394348 -261.94208 -10.455212
-47.211853 -261.95581 -11.093824
-40.205505 -261.84283 -12.134652
-45.899006 -261.89197 -13.715946
-40.86441 -261.87616 -14.665234
-44.91914 -261.95654 -15.389204
-42.307892 -261.70319 -8.4616671
-46.27634 -261.79883 -10.105999
-59.773094 -261.61578 -10.327844
-43.429619 -261.62079 -11.375251
-59.570652 -261.70074 -11.920097
-42.056152 -261.62305 -11.901364
-41.618473 -261.73062 -12.665112
-40.54483 -261.7019 -12.626976
-40.499092 -261.70135 -13.295919
-45.480072 -261.52802 -8.2651787
-42.672375 -261.43817 -8.4265289
-41.935158 -261.46149 -8.7951841
-42.586643 -261.49066 -8.982008
-42.360744 -261.52148 -9.040473
-42.536945 -261.42996 -9.8050117
-59.860271 -261.56937 -10.331282
-59.532482 -261.43512 -10.37045
-59.635208 -261.43066 -10.553751
-44.570362 -261.40198 -11.141909
-59.048519 -261.49466 -11.831705
-44.302937 -261.51569 -12.704919
-40.715652 -261.49658 -12.644564
-40.350906 -261.57361 -12.607605
-45.641964 -261.50256 -12.855035
-42.257767 -261.56113 -15.440182
-58.62352 -261.47906 -16.798721
-40.958736 -261.38367 -7.3472538
-55.351574 -261.28683 -7.5425949
-55.016754 -261.29871 -7.5060372
-52.181023 -261.26962 -7.5270801
-46.186497 -261.392 -7.476223
-52.311798 -261.39752 -7.6382909
-50.84087 -261.37827 -7.6087742
-45.773544 -261.2951 -7.775424
-44.185482 -261.27124 -8.0344315
-44.193665 -261.33716 -8.2229481
-42.066162 -261.34982 -8.3171024
-42.678482 -261.39511 -8.7666636
-44.413136 -261.27808 -9.0012884
-42.540325 -261.33099 -9.2697182
-42.181408 -261.3736 -9.3103065
-42.152336 -261.2663 -9.6724815
-41.788113 -261.23462 -10.170784
-59.718658 -261.29449 -10.699039
-58.779346 -261.37378 -11.116501
-46.97427 -261.29776 -11.057036
-46.279507 -261.30948 -11.114724
-46.132874 -261.33264 -12.042374
-45.453262 -261.23346 -12.214114
-43.053886 -261.21146 -12.395557
-45.423416 -261.32684 -12.881813
-41.465561 -261.36121 -13.143552
-40.609848 -261.39313 -13.463602
-40.818726 -261.28183 -14.33571
-58.635712 -261.39331 -16.804598
-55.55027 -261.04449 -7.5270581
-54.978401 -261.10367 -7.5329528
-52.541939 -261.08868 -7.591877
-56.540501 -261.0275 -7.71421
-56.335327 -261.04816 -7.7122312
-44.438789 -261.04303 -7.8730469
-53.541943 -261.10815 -8.9495602
-43.68074 -261.02887 -9.0411568
-53.733124 -261.17548 -9.2493172
-41.789539 -261.17816 -9.7014856
-42.290672 -261.0741 -10.05898
-41.909542 -261.04984 -10.207148
-40.118755 -261.0621 -10.626907
-59.059147 -261.02234 -11.661846
-44.519112 -261.08524 -13.694261
-44.237656 -261.00629 -14.153795
-45.649059 -261.12482 -14.256086
-43.3825 -261.02173 -14.26811
-57.493042 -261.00238 -14.719025
-54.329605 -260.83142 -7.5871301
-46.507027 -260.93573 -7.4189448
-56.516975 -260.86438 -8.2548456
-44.21117 -260.88046 -8.3055296
-58.422348 -260.84622 -9.7017879
-45.513664 -260.88629 -9.9208326
-42.82938 -260.98819 -9.9559097
-42.650356 -260.95203 -10.091247
-59.267128 -260.86938 -10.304409
-40.939613 -260.89099 -11.089968
-46.014355 -260.85928 -11.363102
-43.781525 -260.98257 -13.596737
-41.651691 -260.88235 -14.251647
-44.536583 -260.83542 -14.425779
-42.590176 -260.91022 -15.446073
-57.096405 -260.74261 -7.3801842
-50.272148 -260.6001 -7.3952909
-40.526184 -260.74994 -7.3258028
-54.624306 -260.6582 -7.4717731
-46.071754 -260.61169 -7.6725121
-45.632179 -260.67877 -7.8442588
-45.462822 -260.65167 -8.1512423
-58.315956 -260.78717 -8.5107574
-56.434692 -260.79276 -8.5354919
-49.439198 -260.64417 -8.5696087
-58.956524 -260.60834 -8.6594009
-45.395226 -260.67889 -8.7291451
-59.018978 -260.61694 -9.222559
-58.257351 -260.64975 -9.6803989
-46.168503 -260.65442 -9.9228239
-42.821556 -260.7406 -9.947813
-42.121292 -260.67929 -10.221649
-59.11573 -260.74695 -11.19493
-43.960274 -260.63788 -11.245618
-41.304962 -260.7478 -12.771518
-57.553146 -260.62195 -13.503758
-41.737194 -260.63135 -13.699177
-40.057682 -260.76865 -14.196959
-44.046619 -260.69449 -14.243611
-40.123962 -260.63583 -15.556738
-42.745064 -260.67453 -15.803106
-42.846886 -260.60062 -16.037479
-44.270958 -260.58032 -7.3290119
-41.801262 -260.43774 -7.283267
-41.302677 -260.57245 -7.264822
-49.498276 -260.52936 -7.4147129
-48.894939 -260.5762 -7.452425
-46.467392 -260.4953 -7.5217209
-48.5448 -260.50021 -8.1523647
-54.292137 -260.4364 -8.7720661
-53.902367 -260.49548 -8.7039356
-49.515106 -260.44272 -8.9309759
-49.128082 -260.42023 -9.3184242
-48.781864 -260.53003 -9.2507229
-46.28196 -260.49622 -9.4918709
-58.554276 -260.48111 -9.7280846
-45.124912 -260.53003 -11.174947
-41.840851 -260.43781 -11.061019
-59.396141 -260.54965 -11.281023
-46.176834 -260.52063 -12.144789
-41.773048 -260.44284 -13.052117
-42.185299 -260.56287 -13.490176
-44.550335 -260.49234 -13.725517
-59.878918 -260.53091 -13.908786
-58.985146 -260.57263 -14.086248
-57.749588 -260.40771 -14.144199
-56.910908 -260.53189 -14.391176
-43.032196 -260.54572 -14.263672
-45.370094 -260.55542 -14.587743
-52.083176 -260.33899 -7.3981318
-51.035187 -260.34198 -7.3825898
-41.014572 -260.30203 -7.303349
-58.699471 -260.29465 -8.3126297
-58.932175 -260.2348 -8.688921
-54.245461 -260.24319 -8.6933641
-47.597603 -260.33307 -8.7992249
-59.705719 -260.26175 -8.9747314
-49.896957 -260.38104 -8.8194361
-49.061226 -260.30579 -8.8983288
-46.907814 -260.21527 -9.1426497
-45.083092 -260.28882 -10.04443
-42.662106 -260.33929 -10.187037
-46.2724 -260.24231 -11.00582
-43.470879 -260.21109 -11.266706
-41.273178 -260.3179 -11.221639
-40.161446 -260.20151 -11.903648
-46.238571 -260.23276 -12.478604
-40.602585 -260.22156 -13.094127
-42.27544 -260.31366 -13.406115
-42.575619 -260.22302 -13.816036
-44.182594 -260.353 -14.459459
-44.5564 -260.36737 -14.695104
-46.196457 -260.19296 -7.395494
-45.015617 -260.121 -7.3406401
-42.688774 -260.15823 -7.3134422
-58.995724 -260.15897 -8.4547729
-58.652168 -260.13559 -8.5546703
-58.744019 -260.10266 -8.627696
-59.529682 -260.12564 -8.9506769
-58.07605 -260.0925 -8.8301373
-59.370338 -260.16785 -9.3385019
-45.105938 -260.15118 -9.6612968
-46.498444 -260.02243 -10.683726
-46.525604 -260.17395 -10.985891
-45.815708 -260.08319 -11.067631
-42.49918 -260.14462 -11.061274
-44.4408 -260.14771 -11.251708
-40.917629 -260.08118 -11.810507
-40.487534 -260.16214 -12.561188
-40.15107 -260.11606 -12.497705
-42.947891 -268.65897 -7.814744
-40.96035 -268.76059 -8.8856697
-41.568012 -268.70422 -9.4348488
-42.044235 -268.65588 -10.734488
-40.155499 -268.40009 -10.319519
-40.226067 -268.14008 -9.0331774
-41.800179 -268.13947 -9.3865938
-42.869831 -268.04675 -9.7859669
-41.373104 -268.10703 -9.6961842
-42.217285 -268.06598 -10.085522
-40.2169 -268.19247 -10.246313
-42.238644 -268.06445 -10.521979
-40.14901 -268.0463 -13.879093
-41.394703 -267.88428 -12.213656
-41.858902 -267.8663 -12.524428
-41.494072 -267.96625 -12.893972
-40.18364 -267.98141 -13.052984
-40.370174 -267.99854 -13.235386
-41.687267 -267.9201 -13.835707
-41.390003 -267.93237 -14.184248
-40.858307 -267.95883 -14.15581
-41.006687 -267.94586 -14.748987
-41.437714 -267.91565 -14.878126
-42.801125 -267.84283 -15.202576
-41.505577 -267.75256 -15.67302
-43.113701 -267.42874 -12.625902
-43.315556 -267.37936 -10.296404
-43.096336 -267.32526 -16.13343
-40.411469 -266.65793 -8.7367468
-40.56665 -266.66028 -8.9832306
-40.391991 -266.65863 -9.1825886
-43.233814 -266.45258 -15.424971
-40.49501 -266.37332 -8.9922352
-40.065067 -266.1362 -12.933677
-40.138443 -265.9223 -8.5247097
-40.029247 -265.4577 -12.640831
-40.928535 -265.27484 -8.0470066
-40.766373 -265.23419 -8.4845552
-41.325562 -265.17523 -11.92625
-40.412663 -265.07614 -12.840741
-43.175014 -264.90082 -12.911683
-40.08659 -264.62146 -8.6993694
-43.224442 -264.68436 -9.3473339
-42.193039 -264.49548 -9.867857
-40.399078 -264.50705 -13.595448
-41.57251 -264.26794 -7.5720372
-43.157291 -264.39911 -7.6011038
-42.119335 -264.36853 -9.9330797
-40.074287 -264.2226 -12.475224
-40.598831 -264.27966 -13.080908
-43.087708 -264.16251 -9.3311958
-42.305374 -264.14447 -10.2068
-40.26754 -264.04938 -10.512985
-43.10881 -264.1698 -10.978308
-40.042839 -264.05597 -14.543992
-48.235058 -263.84607 -7.4966502
-49.306557 -263.81586 -7.6818271
-48.977127 -263.83673 -7.674593
-48.192478 -263.85117 -7.6977692
-46.275417 -263.97675 -7.705081
-44.101952 -263.88959 -7.6985679
-50.004066 -263.81686 -8.0591536
-48.963261 -263.84149 -8.0727777
-49.708981 -263.82111 -8.3028955
-46.479637 -263.94879 -8.267375
-45.683147 -263.9397 -8.3435793
-45.573059 -263.85629 -8.3914375
-46.843086 -263.89832 -8.6204557
-48.226974 -263.85376 -8.8662434
-47.794556 -263.89313 -8.8597908
-46.467064 -263.93604 -8.9465446
-46.292046 -263.8186 -8.9343128
-45.073029 -263.8699 -8.9287539
-47.78043 -263.81519 -9.5226364
-45.666897 -263.97522 -9.4291325
-45.435478 -263.94299 -11.204755
-40.447563 -263.9295 -11.693511
-40.140617 -263.96564 -13.177744
-44.411976 -263.90887 -15.039043
-53.725441 -263.65033 -7.543777
-52.533257 -263.7132 -7.7539392
-52.232849 -263.72391 -7.6935229
-51.108627 -263.75647 -7.655756
-47.466362 -263.70734 -7.8985939
-52.958344 -263.65009 -8.0520258
-51.040207 -263.69611 -8.1328888
-50.47892 -263.66962 -8.1504717
-47.009529 -263.79468 -8.1692867
-53.797089 -263.63416 -8.580555
-52.120541 -263.67783 -8.9379301
-52.479336 -263.6394 -9.2832355
-50.964348 -263.76044 -9.3425512
-54.704971 -263.61203 -9.4256544
-50.159954 -263.69528 -9.7978153
-47.34137 -263.72296 -13.38262
-49.54451 -263.62006 -13.945614
-48.904869 -263.72684 -14.17207
-46.471481 -263.68225 -14.468559
-47.352127 -263.65942 -14.731226
-43.302494 -263.75992 -16.655846
-46.801632 -263.63589 -17.572102
-43.863888 -263.67972 -18.371092
-48.297928 -263.48102 -7.3935299
-56.231903 -263.513 -7.5914688
-56.577 -263.53003 -7.7217979
-57.24691 -263.47308 -7.911427
-58.50383 -263.44382 -8.1005697
-55.774956 -263.5542 -8.1034584
-55.444675 -263.54987 -8.1214571
-47.323978 -263.45911 -8.0357227
-57.699303 -263.46234 -8.3005199
-44.081993 -263.42749 -8.3438053
-43.129929 -263.47165 -8.2768402
-47.268036 -263.54492 -8.4292812
-58.330563 -263.41898 -8.6004391
-55.389961 -263.57004 -8.7551441
-50.362862 -263.55914 -8.7004585
-46.822929 -263.48566 -8.7082596
-50.391403 -263.58307 -8.9404535
-54.750538 -263.49225 -9.4971714
-45.770302 -263.53278 -9.4438086
-55.331055 -263.45557 -9.9251518
-53.366871 -263.45862 -9.8984079
-47.514648 -263.41629 -10.198572
-53.744446 -263.48938 -10.558411
-44.541412 -263.46301 -11.39612
-40.25061 -263.44153 -12.593467
-49.935902 -263.40518 -13.431097
-47.423756 -263.43631 -13.408704
-53.470444 -263.49515 -14.167224
-48.986015 -263.4245 -14.568796
-41.485039 -263.59598 -14.423527
-44.953636 -263.41345 -14.944973
-50.611237 -263.46649 -17.181023
-47.963657 -263.53998 -18.369762
-57.287338 -263.35132 -7.5525479
-53.809158 -263.38599 -7.5276818
-51.332268 -263.24847 -7.5120692
-45.765175 -263.28973 -7.683157
-59.781399 -263.33524 -7.8893509
-59.359825 -263.35684 -7.8046732
-59.806408 -263.34027 -8.5007849
-46.790661 -263.31851 -8.6863918
-47.295906 -263.25604 -8.9910135
-43.587288 -263.27997 -8.9315233
-44.549728 -263.39926 -9.2892628
-51.509098 -263.30682 -9.4753304
-45.085503 -263.35751 -9.5992889
-54.054298 -263.37726 -9.798521
-45.00367 -263.37616 -9.6486626
-59.129868 -263.26175 -9.9321213
-56.730324 -263.29993 -9.9484272
-55.636261 -263.37634 -9.9806643
-51.725487 -263.3317 -10.150943
-51.121323 -263.31104 -10.183531
-47.361053 -263.26205 -10.192833
-45.910858 -263.28827 -10.162327
-48.482029 -263.21072 -10.340624
-48.095905 -263.25171 -10.214251
-45.390762 -263.32733 -10.209356
-55.072701 -263.36349 -10.642494
-52.673126 -263.25916 -10.695309
-50.410458 -263.21814 -10.65443
-49.548321 -263.27606 -10.747686
-47.818153 -263.21185 -10.982038
-47.31855 -263.25058 -10.959745
-49.20583 -263.28427 -11.023285
-48.894958 -263.32693 -11.144291
-48.115372 -263.2782 -11.395699
-50.149944 -263.28479 -11.48921
-46.598602 -263.24042 -11.407097
-47.683441 -263.2373 -11.655193
-57.370884 -263.24185 -11.900766
-52.701981 -263.24252 -12.766974
-47.869972 -263.31354 -13.799612
-45.018608 -263.20892 -13.752816
-48.229702 -263.34848 -13.830254
-46.263393 -263.21613 -13.876607
-47.961494 -263.25146 -14.02091
-48.967278 -263.37805 -14.317754
-46.094795 -263.31934 -14.523902
-53.059677 -263.39304 -14.683342
-44.374882 -263.24948 -14.939476
-46.137196 -263.23489 -15.223577
-44.135132 -263.21167 -15.4107
-59.393078 -263.12143 -7.9070301
-54.111565 -263.10089 -7.8208141
-45.686523 -263.05957 -7.869174
-59.938839 -263.11517 -8.0706463
-58.223831 -263.04077 -8.062726
-57.421337 -263.00745 -8.0074959
-54.55069 -263.0289 -8.7238121
-46.814003 -263.18738 -8.642128
-48.486504 -263.13733 -9.0463543
-53.86594 -263.12482 -9.2582645
-52.870781 -263.01401 -9.5713377
-52.440136 -263.1059 -9.5924244
-55.432732 -263.00128 -9.7549152
-53.340279 -263.02573 -9.9192858
-49.118916 -263.18622 -9.9787197
-58.905277 -263.19553 -10.038612
-52.162647 -263.02151 -10.366007
-49.430584 -263.17725 -10.351003
-47.811676 -263.18488 -10.302735
-47.231178 -263.03909 -10.304024
-51.134422 -263.0835 -10.884112
-47.844727 -263.19333 -11.023154
-56.325836 -263.07486 -11.292519
-55.776947 -263.10068 -11.205151
-47.840897 -263.19678 -11.342447
-51.999115 -263.05313 -11.530607
-51.776741 -263.01859 -11.459278
-48.131065 -263.07272 -11.784433
-46.552242 -263.11389 -11.995679
-48.160156 -263.04974 -12.155437
-46.188038 -263.12787 -12.066729
-49.46167 -263.06494 -12.917585
-42.227741 -263.09592 -12.947575
-48.221264 -263.13199 -13.023308
-47.745346 -263.13806 -13.389341
-49.469002 -263.05835 -13.85154
-48.899147 -263.0791 -13.817886
-47.95163 -263.12909 -13.841313
-45.155682 -263.09686 -13.908472
-51.967339 -263.15628 -14.091745
-47.769939 -263.15024 -14.129553
-51.843651 -263.00339 -14.303466
-46.541046 -263.17847 -14.336329
-47.713596 -263.12949 -14.493074
-49.326599 -263.03998 -14.937184
-49.03241 -263.07715 -15.093779
-47.338406 -263.14435 -15.018822
-49.143749 -263.05478 -15.307169
-48.712524 -263.06857 -15.275049
-45.240391 -263.07758 -15.822404
-44.585114 -263.09055 -16.182472
-57.851372 -263.09372 -17.274376
-57.840164 -263.16003 -17.76757
-50.252861 -262.80176 -7.4989629
-57.782089 -262.91956 -8.2920961
-50.88361 -262.89529 -8.2635098
-57.773746 -262.89087 -8.9852962
-54.555397 -262.96863 -8.8476114
-55.497967 -262.82599 -9.1368561
-54.537807 -262.89508 -9.3636618
-58.679321 -262.85266 -9.4362888
-55.549347 -262.94623 -9.5181332
-50.882164 -262.80246 -9.6444254
-47.067894 -262.83328 -9.6383448
-54.970592 -262.95767 -9.9835386
-56.568863 -262.85938 -10.076365
-56.385666 -262.85135 -10.17525
-43.129196 -262.84583 -10.109173
-56.405979 -262.82693 -10.352158
-50.690399 -262.8927 -10.25593
-57.661011 -262.87479 -10.53213
-57.330559 -262.89502 -10.526348
-56.550346 -262.84509 -10.608925
-53.857788 -262.97623 -10.626001
-57.057953 -262.83365 -11.111801
-55.931709 -262.9256 -11.03307
-54.085697 -262.87888 -11.014337
-57.399094 -262.85291 -11.427116
-55.657074 -262.93362 -11.568424
-55.093834 -262.91742 -11.536019
-52.70787 -262.97144 -11.656549
-53.378586 -262.86871 -11.814926
