# .PCD v0.7 - Point Cloud Data file format
VERSION 0.7
FIELDS x y z
SIZE 4 4 4
TYPE F F F
COUNT 1 1 1
WIDTH 1469
HEIGHT 1
VIEWPOINT 0 0 0 1 0 0 0
POINTS 1469
DATA ascii
-40.505329 -179.3136 -5.7443032
-40.47366 -179.21303 -5.8281641
-54.930916 -179.34068 -6.335681
-53.822536 -179.20558 -6.7552552
-40.663399 -179.35263 -9.6648226
-40.614899 -179.3718 -10.505098
-51.578411 -179.078 -4.7313261
-49.895847 -179.07309 -4.734479
-47.330429 -179.09294 -4.704494
-46.881107 -179.15147 -4.7094388
-46.490761 -179.13629 -4.6809759
-40.415882 -179.10287 -5.8185902
-53.9161 -179.01675 -6.1296821
-40.062778 -179.03673 -6.0018339
-40.661064 -179.02084 -9.7197018
-40.575012 -179.00055 -11.333212
-40.555107 -179.006 -11.795867
-49.055702 -178.88918 -4.7462468
-46.395416 -178.90051 -4.6684928
-40.020832 -178.99367 -5.5672441
-40.139084 -178.98837 -5.6988139
-54.754921 -178.96631 -6.83356
-40.656071 -178.88766 -9.5282812
-40.562592 -178.98761 -13.876232
-46.682491 -178.72113 -4.6423922
-54.362022 -178.61246 -5.1343398
-54.298363 -178.74832 -5.5743351
-53.755188 -178.63544 -6.7017531
-40.528919 -178.6899 -9.5678444
-40.612579 -178.74768 -9.7191057
-40.197357 -178.70441 -10.254412
-40.639275 -178.7235 -10.479603
-40.198605 -178.68883 -10.940926
-40.523537 -178.70833 -11.321516
-40.106705 -178.67207 -11.337868
-40.121994 -178.65227 -11.799748
-40.511818 -178.71213 -12.178532
-40.602909 -178.74666 -12.386446
-40.453629 -178.63673 -12.294653
-40.563713 -178.65849 -12.466231
-40.55574 -178.69609 -13.720372
-54.682785 -178.49344 -5.2204399
-41.516079 -178.41364 -5.394371
-41.607834 -178.48558 -5.4160271
-40.349628 -178.4548 -5.5279999
-54.588348 -178.55338 -6.2572999
-55.004055 -178.46333 -6.5462508
-41.404633 -178.59906 -8.6554117
-40.453903 -178.58922 -14.8382
-40.015068 -178.59908 -15.545242
-40.336498 -178.59113 -16.466047
-41.403515 -178.25688 -5.4558382
-40.295288 -178.29895 -5.5204349
-54.329727 -178.23746 -5.606235
-54.627319 -178.22186 -6.7157722
-54.1987 -178.25308 -6.7535772
-54.960121 -178.29422 -7.2315898
-54.589569 -178.15552 -5.241291
-54.334747 -178.12979 -5.3109622
-53.598694 -178.10069 -5.786931
-55.04298 -178.13037 -6.2124782
-54.295174 -178.15958 -7.1072922
-53.994904 -178.0522 -7.2447572
-58.622368 -177.98485 -4.9161649
-57.696274 -177.93195 -5.0024142
-55.139503 -177.9642 -5.027504
-54.157791 -177.8378 -5.3071399
-54.819965 -177.80556 -5.478838
-41.450417 -177.94023 -5.439981
-41.145145 -177.9731 -5.6235032
-54.576118 -177.8584 -6.7439289
-54.179729 -177.80478 -6.7192798
-53.84346 -177.84334 -7.050931
-45.825539 -177.78708 -4.7366629
-45.171391 -177.60953 -4.735827
-40.641357 -177.71022 -4.7563958
-59.931393 -177.75433 -4.9160109
-54.346878 -177.77313 -5.2465949
-53.761204 -177.76367 -5.7892108
-54.637337 -177.68872 -5.8709402
-53.903896 -177.7392 -6.624701
-45.092922 -177.42619 -4.7197809
-54.251919 -177.48323 -5.5217881
-54.179886 -177.43835 -5.8104281
-54.285633 -177.54182 -6.1328201
-53.779305 -177.44489 -6.1539812
-55.080925 -177.41193 -6.214375
-55.117317 -177.47931 -6.421906
-52.93578 -177.28375 -4.741117
-57.140358 -177.36032 -4.968133
-53.806313 -177.23418 -5.5739059
-55.247498 -177.28459 -5.7697182
-55.009636 -177.3947 -6.0194812
-53.643898 -177.05353 -4.7999058
-47.283188 -177.11549 -4.6752472
-57.671516 -177.06723 -4.9765062
-47.876938 -177.0961 -5.271585
-52.019958 -177.00092 -5.4301672
-53.961262 -177.07896 -5.783772
-54.694618 -177.1369 -5.8325419
-53.186653 -176.91011 -4.749475
-52.525261 -176.94016 -4.7296052
-59.350082 -176.95821 -4.952857
-51.698551 -176.89197 -4.9131041
-51.932785 -176.87051 -5.3526731
-52.056488 -176.95894 -5.4389191
-54.424431 -176.73805 -4.7942162
-54.178082 -176.60803 -4.8790302
-54.08403 -176.50677 -4.751904
-53.461624 -176.45836 -4.756752
-57.733215 -176.56767 -4.9682798
-57.23835 -176.57201 -5.307528
-53.035156 -176.23047 -4.7176442
-48.741741 -175.82309 -4.6549511
-53.822128 -175.90457 -4.8695922
-55.46257 -175.67604 -4.79565
-59.144489 -175.66042 -4.8532782
-54.216759 -175.43059 -4.734026
-58.306595 -175.59424 -4.9045882
-59.132599 -175.20003 -4.8340201
-44.230453 -175.38304 -4.8654671
-54.663681 -175.06061 -4.7864718
-51.713585 -175.11392 -4.6785212
-56.588905 -175.07242 -4.8997488
-40.471439 -175.13268 -4.8318319
-40.291275 -175.03464 -4.9831858
-54.565735 -174.93683 -4.73103
-44.150345 -174.98889 -4.7643719
-48.662418 -174.84973 -7.178092
-59.975647 -174.75909 -4.8210669
-59.441174 -174.69302 -4.84516
-55.317493 -174.4669 -4.8246822
-54.903801 -174.28296 -4.830873
-49.349796 -174.23695 -4.9299669
-56.054161 -174.10991 -4.7590318
-54.490311 -174.13553 -4.8176661
-49.296402 -174.12668 -5.706295
-49.302834 -174.17171 -6.403614
-50.47411 -173.88132 -5.33427
-48.179817 -173.86459 -6.7523742
-48.773731 -173.84866 -7.0980291
-48.127804 -173.80328 -7.0359759
-55.443878 -173.70596 -4.722589
-49.44788 -173.68016 -8.5737963
-56.363678 -173.54614 -4.7652402
-55.008976 -173.45335 -4.775322
-56.705048 -173.49403 -4.8026028
-49.800369 -173.48608 -7.7221661
-47.350662 -173.46536 -8.8134031
-56.736641 -173.34839 -4.8006701
-49.350296 -173.285 -9.3748884
-56.687241 -173.0598 -4.780889
-51.584469 -173.09619 -4.7222242
-59.773743 -173.0912 -4.8185158
-49.006268 -173.00468 -9.7451897
-48.676125 -173.02899 -9.6967306
-40.352089 -172.94186 -4.5235329
-51.858665 -172.96765 -4.651032
-50.849281 -172.81827 -7.8860879
-49.106102 -172.81314 -12.257
-55.714386 -172.60808 -4.7921748
-49.58762 -172.75618 -7.2970972
-49.196877 -172.73373 -8.2540445
-47.312435 -172.78099 -8.9315119
-49.725975 -172.65262 -9.4522495
-59.321705 -172.47281 -4.7696881
-47.008419 -172.56738 -7.275548
-49.690166 -172.54369 -9.1197977
-54.812462 -172.48219 -13.593788
-47.23278 -172.29681 -6.9041052
-51.035744 -172.2807 -7.751781
-50.990089 -172.37428 -7.769681
-46.522919 -172.23795 -8.8181038
-53.066055 -172.01904 -4.6589918
-55.762432 -172.11794 -4.8018069
-51.349483 -172.12128 -5.4821992
-51.099232 -172.10013 -7.863626
-56.377262 -172.19612 -12.317575
-49.406948 -171.80838 -5.4537892
-48.503967 -171.8707 -6.1890168
-50.13063 -171.9162 -7.1376882
-49.737053 -171.8255 -7.873837
-50.995506 -171.84737 -8.3259935
-51.118015 -171.82245 -8.5934238
-49.057339 -171.89677 -8.9605112
-49.021935 -171.90585 -9.2773094
-59.429977 -171.70129 -4.770637
-51.597839 -171.63916 -4.9974251
-48.673744 -171.68369 -5.6247211
-48.656464 -171.74533 -6.481328
-46.375546 -171.666 -6.6740069
-46.648624 -171.68932 -6.901125
-49.912689 -171.79883 -7.1236739
-47.652142 -171.63876 -7.3052068
-48.071163 -171.79884 -8.662365
-47.621574 -171.60916 -13.256227
-53.80761 -171.5069 -4.70544
-52.990929 -171.40067 -4.6282549
-52.245388 -171.4256 -4.7058101
-51.658463 -171.44753 -5.3195958
-56.592319 -171.54166 -5.4270682
-56.632908 -171.40631 -5.6383801
-48.826111 -171.48712 -6.2152929
-47.839657 -171.5452 -7.186532
-50.199539 -171.5101 -7.37849
-47.786404 -171.55598 -7.3268142
-50.325462 -171.40271 -8.6568623
-47.816372 -171.47549 -13.298764
-59.114052 -171.3905 -4.7387228
-55.253922 -171.35287 -4.6991901
-48.548607 -171.38937 -6.9909272
-54.676491 -171.2771 -11.161182
-55.88438 -171.3205 -12.523888
-50.785381 -171.21236 -12.806949
-49.468636 -171.36308 -13.149824
-47.823872 -171.37045 -13.152439
-56.554123 -171.2402 -13.939347
-49.15184 -171.03979 -5.5420852
-48.498051 -171.1669 -6.23316
-48.437904 -171.14261 -6.421854
-48.605728 -171.03601 -6.9635162
-50.814491 -171.17242 -7.2488708
-46.739258 -171.02547 -7.2084579
-53.771469 -171.0961 -12.628971
-49.43869 -171.05327 -12.91318
-57.544434 -170.9424 -4.7690892
-56.6432 -170.86304 -4.7682738
-52.581867 -170.93953 -4.6199212
-40.661388 -170.90343 -4.6546769
-40.568745 -170.94009 -5.0222168
-56.952766 -170.99406 -5.2225509
-49.035248 -170.9193 -5.4667511
-50.382038 -170.81113 -7.5958762
-48.468178 -170.96585 -8.1693068
-50.781868 -170.9743 -11.919529
-52.155205 -170.61841 -4.710515
-40.326843 -170.61322 -4.946898
-51.036507 -170.63837 -5.5125742
-49.736958 -170.6494 -7.7789159
-47.314499 -170.75137 -8.1600819
-55.730164 -170.75763 -13.711795
-47.273209 -170.53793 -6.7056832
-48.985538 -170.54573 -7.7580438
-47.699234 -170.41962 -8.1136751
-57.869934 -170.46025 -11.370487
-51.511135 -170.51488 -12.769541
-50.191402 -170.41364 -13.399529
-49.154251 -170.51202 -13.516756
-54.016953 -170.49783 -13.82922
-59.554802 -170.30602 -4.707427
-51.277771 -170.34543 -4.9043279
-50.037735 -170.25732 -7.2485151
-49.94524 -170.26794 -7.3108959
-57.247349 -170.36417 -10.056318
-50.891911 -170.23218 -11.323061
-51.277359 -170.1871 -5.3109212
-46.521011 -170.08467 -5.3137412
-46.61393 -170.03023 -6.2369981
-46.576408 -170.1494 -6.5837488
-48.955463 -170.07155 -7.7540522
-48.35334 -170.09018 -7.742888
-54.494148 -170.08907 -8.9198685
-52.114975 -170.02956 -10.578552
-49.20282 -170.15154 -13.379009
-52.874832 -169.87926 -4.679965
-52.546867 -169.95534 -4.6688628
-49.452011 -169.88989 -5.0641351
-46.639915 -169.85345 -5.3554339
-47.773407 -169.89513 -7.056531
-47.508217 -169.83163 -7.1376739
-46.23624 -169.89058 -7.7264962
-47.301418 -169.86626 -8.0599365
-47.499252 -169.93086 -8.4511375
-47.77552 -169.89554 -8.6392441
-54.584866 -169.8325 -8.9211369
-57.131535 -169.82674 -10.585637
-51.693764 -169.90434 -10.8487
-49.082375 -169.87115 -12.772606
-47.485245 -169.92743 -13.887735
-56.320084 -169.7327 -8.7869577
-49.083191 -169.75101 -10.294172
-56.2799 -169.72321 -12.441805
-50.430344 -169.78006 -12.651289
-48.733246 -169.76697 -13.552595
-59.663361 -169.54987 -6.4711199
-48.017342 -169.54309 -7.0192418
-54.284657 -169.50388 -9.2885513
-53.74229 -169.43245 -9.4526873
-49.08522 -169.53436 -10.296489
-52.097343 -169.45135 -10.574844
-57.51107 -169.46426 -11.570335
-59.34 -169.33955 -4.657589
-56.502708 -169.34726 -4.7066031
-54.162842 -169.24467 -4.608469
-56.466888 -169.37796 -8.8294373
-53.558487 -169.30759 -9.06847
-52.991028 -169.33688 -9.0643539
-53.174797 -169.21936 -9.3362036
-51.693535 -169.34305 -9.7403135
-56.315681 -169.29353 -9.8863144
-57.351662 -169.29367 -10.996267
-53.911785 -169.20918 -10.803992
-51.898586 -169.27652 -10.876915
-57.171097 -169.33438 -11.213797
-56.172066 -169.38831 -12.432034
-48.428772 -169.36827 -12.613336
-48.129635 -169.2742 -12.830986
-50.624947 -169.09375 -4.6239529
-50.267456 -169.12476 -4.719306
-59.597313 -169.09915 -5.4147182
-56.69899 -169.07829 -8.8875618
-55.763741 -169.00276 -9.0965595
-50.975517 -169.15698 -9.0248737
-54.088783 -169.08664 -10.499922
-53.762558 -169.17737 -10.816113
-51.840881 -169.01996 -11.649435
-51.480293 -169.07596 -11.63306
-40.447971 -168.88084 -4.541225
-59.961487 -168.91507 -4.6732278
-59.468567 -168.8848 -4.7012219
-50.185177 -168.97151 -5.1291552
-48.04266 -168.98605 -5.3796239
-53.129822 -168.99615 -7.9018278
-53.817402 -168.91864 -8.0660152
-56.318016 -168.94218 -9.5521612
-53.863415 -168.84128 -10.412167
-51.979855 -168.91119 -10.907001
-55.994431 -168.96579 -11.289383
-47.791004 -168.83252 -12.606695
-52.465279 -168.8266 -13.883457
-41.648357 -168.7901 -4.3976188
-54.320396 -168.67709 -4.599493
-53.922348 -168.70108 -4.6077909
-49.378296 -168.63525 -4.9871488
-49.865051 -168.76082 -5.3665781
-44.138237 -168.68529 -5.248641
-57.565807 -168.60208 -8.8871861
-52.007233 -168.79759 -10.258022
-52.642128 -168.7977 -10.65863
-57.279678 -168.76933 -11.339863
-52.676987 -168.56572 -4.5608592
-48.28167 -168.53317 -4.9407191
-47.932949 -168.50635 -5.0326281
-48.912346 -168.53244 -5.3555498
-47.733955 -168.59184 -8.5361948
-51.898781 -168.59392 -10.330314
-53.51239 -168.54443 -10.531813
-48.552094 -168.40404 -11.261468
-51.184723 -168.5025 -13.973248
-48.645653 -168.38055 -5.140141
-48.36343 -168.33548 -5.1602702
-48.245361 -168.36481 -5.3092608
-55.924263 -168.25015 -9.3469315
-56.277988 -168.23337 -10.180416
-55.970779 -168.2876 -10.348948
-55.56131 -168.21767 -10.441849
-48.223763 -168.34891 -10.587828
-52.238693 -168.30591 -10.622709
-56.178864 -168.21207 -10.952738
-57.822216 -168.36061 -12.421957
-57.851463 -168.15575 -4.6798139
-48.019466 -168.0778 -4.6042762
-54.486801 -168.04803 -10.801352
-54.889313 -168.01111 -13.361979
-48.402962 -168.12619 -13.677287
-47.947838 -168.03171 -13.687892
-58.205246 -167.85568 -4.6956391
-57.422695 -167.82446 -4.676291
-57.521637 -167.8479 -12.52426
-58.70993 -167.84685 -12.973974
-48.837982 -167.91638 -13.395691
-58.701729 -167.78223 -4.6984682
-52.497696 -167.74579 -10.357901
-53.390823 -167.6335 -10.586096
-47.963287 -167.63065 -10.631207
-53.334099 -167.621 -11.033494
-53.440464 -167.76291 -11.684578
-57.765705 -167.74991 -12.193346
-57.033081 -167.67261 -12.249773
-50.877151 -167.65634 -13.653531
-47.02943 -167.4516 -4.483758
-47.647415 -167.57899 -10.819962
-53.489399 -167.53485 -11.130704
-58.148918 -167.31097 -4.5816622
-48.830769 -167.25031 -4.5239139
-52.911919 -167.27531 -10.543705
-46.921665 -167.26788 -12.510268
-42.936478 -167.08636 -4.3164649
-59.423607 -167.02531 -4.6714621
-52.562698 -167.13446 -4.7430849
-51.289513 -167.15163 -10.230246
-52.703888 -167.06203 -10.534126
-53.68367 -167.00571 -11.075585
-53.642002 -166.93604 -4.5023999
-59.679394 -166.90617 -4.6114802
-57.249916 -166.86993 -4.618505
-51.203812 -166.952 -9.820591
-51.169239 -166.90663 -9.9078054
-53.420029 -166.8316 -10.326929
-53.638802 -166.98021 -10.774496
-58.552567 -166.80568 -12.767553
-40.253029 -166.67177 -4.6613312
-51.055637 -166.66293 -10.270559
-47.794552 -166.7171 -11.26483
-50.137741 -166.73508 -12.194885
-59.74815 -166.52992 -4.6393981
-50.645424 -166.45218 -10.377114
-51.485176 -166.22134 -8.9424725
-51.261322 -166.37791 -9.748641
-58.228836 -166.34369 -12.891253
-58.89814 -166.06491 -4.6511779
-51.634201 -166.04147 -8.6036587
-53.030754 -166.18344 -9.3022614
-53.64077 -166.17686 -10.751579
-48.571148 -166.11606 -11.230871
-54.215412 -165.94406 -4.5118532
-52.947952 -165.92853 -9.2822285
-53.295574 -165.84648 -10.60938
-43.78009 -165.83304 -10.735275
-53.18145 -165.81566 -10.840593
-44.098362 -165.91615 -10.941626
-48.536217 -165.99156 -11.203241
-59.186157 -165.79509 -4.5906539
-56.771053 -165.6714 -4.5484128
-53.177139 -165.61778 -4.94101
-52.211906 -165.65543 -5.836494
-52.427666 -165.62863 -7.8440952
-52.773613 -165.74419 -8.9655275
-53.134754 -165.78702 -9.9624548
-52.278706 -165.49326 -6.1661081
-52.450897 -165.40021 -7.7157712
-52.384857 -165.42323 -7.8233681
-41.500278 -165.52606 -7.8516798
-52.501957 -165.45593 -8.1122513
-50.988186 -165.4541 -8.97892
-51.423874 -165.44357 -9.0512829
-40.010036 -165.50143 -9.1301041
-42.358734 -165.42639 -10.826811
-41.073479 -165.52051 -12.896168
-52.149422 -165.37109 -5.1247902
-51.897873 -165.30435 -5.0302758
-52.08329 -165.26675 -6.045166
-52.396038 -165.39368 -7.1043072
-52.399002 -165.23744 -7.437428
-53.29715 -165.27519 -11.006581
-52.488712 -165.14682 -8.1542683
-52.567192 -165.00822 -8.9654694
-52.161278 -165.10461 -8.9873142
-40.563919 -165.19022 -9.4602718
-53.064987 -165.09032 -10.940831
-54.087914 -165.05891 -11.346048
-53.91394 -165.04694 -11.303635
-53.500526 -165.13397 -12.18386
-55.874111 -164.89514 -4.9237499
-53.774326 -164.90324 -4.883976
-48.126717 -164.83508 -4.999516
-40.162624 -164.98471 -9.4399195
-40.609947 -164.88599 -9.9673538
-49.175861 -164.63474 -4.3949928
-55.771439 -164.64941 -4.9025679
-48.09259 -164.73615 -5.089263
-42.606041 -164.66141 -6.5676608
-40.022915 -164.65057 -7.3908839
-42.470333 -164.77213 -7.8294029
-51.917999 -164.78253 -9.9836979
-47.59446 -164.76546 -10.426398
-42.82597 -164.63278 -10.925257
-43.504459 -164.61555 -11.773575
-50.258247 -164.66037 -12.387214
-50.94416 -164.61838 -12.569786
-40.053436 -164.60524 -12.748528
-44.441792 -164.5713 -4.276897
-53.788551 -164.58215 -4.7323341
-53.452965 -164.5188 -4.7393322
-55.600189 -164.55458 -4.8837328
-47.991753 -164.48083 -4.8762951
-42.57299 -164.504 -6.9293218
-52.989918 -164.52065 -9.8602238
-51.40871 -164.48207 -9.8840771
-49.11174 -164.42563 -10.015215
-40.132698 -164.56541 -10.221601
-53.219261 -164.47227 -10.692783
-42.639153 -164.48524 -11.394646
-51.304775 -164.57501 -11.451546
-56.169807 -164.52551 -11.763422
-57.407963 -164.29611 -4.5323472
-40.017704 -164.38033 -4.7229629
-51.569637 -164.21893 -4.830431
-50.277622 -164.3382 -4.9467931
-40.103756 -164.28232 -7.8269572
-51.913269 -164.27277 -8.9809141
-53.386055 -164.2359 -10.903063
-42.997017 -164.36061 -10.818489
-45.323662 -164.05051 -4.3145781
-59.08535 -164.13263 -4.643106
-58.528999 -164.18468 -4.6073108
-53.087013 -164.18086 -4.6733322
-52.777233 -164.01053 -4.6464262
-51.608032 -164.15311 -4.8293848
-40.02494 -164.02251 -7.453814
-51.766811 -164.15404 -8.719347
-40.519238 -164.15598 -8.9400415
-48.058987 -164.15425 -9.7267284
-52.68285 -164.09813 -10.382212
-52.589363 -164.04893 -10.484045
-51.286674 -164.11899 -10.591187
-48.223717 -164.10902 -10.613306
-47.878132 -164.08658 -11.203058
-54.361916 -164.06866 -11.796333
-51.994072 -163.81317 -4.5958309
-48.629585 -163.90579 -4.5015721
-52.549355 -163.88405 -4.6095619
-40.166573 -163.90109 -6.5669451
-43.008205 -163.89784 -8.7640514
-44.741631 -163.94891 -8.941927
-44.711517 -163.91095 -9.5332079
-50.381111 -163.94266 -10.268573
-53.009964 -163.83264 -10.473527
-53.618088 -163.88943 -10.902583
-47.399929 -163.81752 -11.27712
-49.219093 -163.94937 -11.459257
-51.635399 -163.98334 -11.646479
-50.920609 -163.85233 -11.723515
-52.650085 -163.71977 -4.4301939
-48.31691 -163.7411 -4.4182658
-43.828304 -163.75282 -8.1942558
-41.339325 -163.79706 -8.8266659
-49.829205 -163.75751 -10.698914
-49.074669 -163.77191 -10.9464
-44.808022 -163.78854 -10.880642
-47.721642 -163.79303 -11.250895
-57.958778 -163.47189 -4.648736
-44.02747 -163.42195 -7.792027
-43.438072 -163.41676 -7.7781429
-42.225208 -163.56081 -8.7304039
-52.270504 -163.40381 -9.1518784
-51.736732 -163.53522 -9.1767693
-53.037342 -163.40941 -9.2981005
-45.295937 -163.44199 -9.4789467
-52.701035 -163.48169 -9.8109083
-42.034378 -163.5708 -9.8554449
-41.959984 -163.58514 -9.9293137
-51.922924 -163.47505 -10.092223
-49.753975 -163.4783 -10.654162
-47.712566 -163.4574 -10.882628
-48.599384 -163.42198 -11.117165
-53.271156 -163.57846 -11.874758
-50.600342 -163.37959 -4.4428382
-53.682079 -163.379 -7.2508979
-48.92289 -163.30206 -7.7711229
-48.724113 -163.28983 -7.9181552
-53.031693 -163.34564 -8.4354019
-52.570713 -163.38016 -8.7756901
-40.20295 -163.25247 -8.9386005
-48.503769 -163.28853 -9.5571337
-53.71962 -163.21941 -10.306799
-46.874809 -163.30409 -10.877363
-51.827301 -163.39307 -11.248655
-55.026344 -163.32382 -11.767132
-58.717247 -163.13489 -4.562346
-42.715538 -163.03764 -6.3498611
-42.732651 -163.02393 -6.4673209
-53.08028 -163.03976 -7.9138432
-44.817085 -163.09537 -8.1410351
-48.533524 -163.01474 -8.7319717
-42.446354 -163.12421 -8.777935
-52.208958 -163.09247 -9.0040131
-51.563671 -163.13629 -10.580432
-57.240852 -163.14938 -10.676989
-57.445168 -163.10272 -10.916398
-48.733566 -163.18001 -11.527126
-47.570087 -163.02635 -11.780286
-48.59375 -163.07394 -11.877165
-56.547485 -162.97104 -4.4711919
-59.332397 -162.9164 -4.6147771
-42.945778 -162.95963 -6.6061268
-53.119499 -162.98102 -8.1550941
-52.955154 -162.91331 -8.534317
-51.694542 -162.80397 -8.4258423
-44.587563 -162.9572 -8.6079206
-44.079941 -162.94855 -8.6880417
-43.982185 -162.83179 -8.8605118
-48.370842 -162.94472 -9.9564533
-57.565483 -162.92284 -10.134464
-49.127357 -162.96628 -10.765503
-44.375961 -162.88727 -10.805178
-57.069946 -162.9621 -11.418776
-48.877163 -162.86426 -11.471836
-52.806702 -162.74275 -7.6107221
-51.91433 -162.67133 -8.5553045
-45.243671 -162.61868 -8.6805134
-57.040222 -162.78964 -10.903658
-47.610569 -162.55951 -4.3191109
-45.644951 -162.52686 -4.3168812
-42.07645 -162.46304 -4.2639751
-53.395683 -162.53053 -4.4455671
-40.885395 -162.52248 -7.3354449
-52.755844 -162.58459 -8.4647903
-48.539452 -162.43843 -8.9422922
-45.5028 -162.53888 -9.7032938
-47.775795 -162.55945 -10.581839
-44.664059 -162.59094 -10.725613
-57.944542 -162.56931 -11.977751
-48.165802 -162.57246 -12.715237
-48.915855 -162.55304 -13.061001
-51.11655 -162.20901 -4.4265928
-40.549412 -162.20732 -6.5525212
-44.50082 -162.24777 -6.6136718
-44.527603 -162.35931 -6.9391861
-53.33345 -162.31487 -7.364943
-42.408131 -162.37842 -7.2341032
-44.626652 -162.29416 -7.5776501
-53.487732 -162.21182 -7.7701111
-51.420418 -162.36176 -8.5756884
-51.632202 -162.28632 -9.1430998
-46.297855 -162.20476 -9.1958389
-53.666527 -162.33632 -13.138781
-42.702175 -162.0742 -4.2751608
-59.137478 -162.03116 -4.5410032
-57.271774 -162.08472 -4.577806
-52.414009 -162.02095 -4.4289498
-40.935551 -162.08873 -8.2700958
-52.972153 -162.11351 -9.6544905
-46.469028 -162.0705 -9.6099739
-45.819263 -162.14523 -10.157852
-50.677101 -162.11417 -12.286437
-59.062534 -161.88368 -4.5540061
-56.328102 -161.9191 -4.569016
-55.729202 -161.80794 -4.4584041
-40.397205 -161.93195 -4.480689
-58.207115 -161.88084 -4.980351
-44.525257 -161.98369 -6.4298601
-41.949211 -161.81958 -6.6363182
-52.913036 -161.94684 -7.5432382
-53.313538 -161.89606 -8.2905684
-43.74699 -161.80241 -8.5177126
-47.334793 -161.92874 -8.6064272
-44.096447 -161.88177 -8.9137115
-43.832649 -161.88931 -8.8747959
-52.716591 -161.86749 -9.0136633
-42.912502 -161.82587 -9.3133059
-42.566921 -161.8037 -9.4571896
-50.878639 -161.81735 -11.379203
-47.564213 -161.873 -12.304712
-54.675797 -161.93155 -12.976063
-54.00753 -161.80214 -13.653685
-54.522217 -161.69691 -4.431531
-40.749561 -161.61882 -5.4914918
-41.291748 -161.72681 -6.2066078
-44.376358 -161.74458 -7.1778688
-42.02552 -161.66649 -7.14397
-44.294899 -161.7821 -7.3080049
-53.956261 -161.78844 -7.4575958
-53.321014 -161.76611 -8.6034822
-43.396881 -161.69884 -8.9816761
-45.144363 -161.72429 -9.3536367
-48.019188 -161.72623 -9.4656267
-47.819324 -161.72775 -9.434082
-46.446945 -161.66211 -9.6729345
-44.994804 -161.72214 -10.525923
-47.915886 -161.78798 -10.986247
-48.058533 -161.71066 -11.004352
-55.349648 -161.40298 -4.3967762
-46.799095 -161.54738 -4.314878
-58.726662 -161.47322 -4.4587069
-58.56702 -161.41481 -4.467422
-40.108944 -161.41852 -4.5997701
-41.513916 -161.43228 -5.814116
-40.970722 -161.49307 -6.2067528
-50.932156 -161.42807 -6.9771819
-44.337036 -161.53059 -7.2471719
-53.925194 -161.51065 -7.6855502
-52.258316 -161.53088 -7.7711158
-47.941116 -161.57321 -7.6206722
-51.181751 -161.5204 -8.4949245
-48.28104 -161.48096 -8.4651899
-43.37558 -161.5101 -8.5122766
-51.841648 -161.44246 -8.9208565
-44.915829 -161.42029 -9.0578346
-43.321487 -161.41208 -9.2554264
-42.618984 -161.50214 -9.5422354
-47.177971 -161.49796 -10.683519
-47.869026 -161.49609 -10.935337
-55.873661 -161.38708 -4.3964801
-49.721233 -161.39934 -4.3899512
-48.475807 -161.32617 -4.3781538
-46.399525 -161.25478 -4.476584
-52.864792 -161.36133 -6.7544532
-52.925339 -161.26266 -7.0009508
-52.935783 -161.2776 -7.680542
-51.636673 -161.39359 -7.7513032
-53.356651 -161.3864 -8.9983616
-41.970474 -161.32797 -9.0417461
-52.379955 -161.22009 -9.3453712
-48.825436 -161.36642 -9.3516178
-47.377403 -161.28368 -9.5215282
-49.854153 -161.26318 -11.016874
-53.6577 -161.29358 -12.070524
-54.195793 -161.01411 -4.3469572
-46.935352 -161.17458 -4.253861
-41.165852 -161.06888 -4.3173518
-40.370777 -161.05283 -4.3555961
-52.657516 -161.13075 -6.3505478
-52.161949 -161.11322 -6.7666659
-51.439461 -161.0123 -6.6743279
-50.905617 -161.19807 -7.424952
-43.338696 -161.12083 -7.6928158
-53.062592 -161.17966 -8.507185
-52.350975 -161.10065 -9.3303108
-44.340565 -161.14778 -9.2011709
-44.068447 -161.16299 -9.6982193
-47.518772 -161.11761 -10.233913
-45.603535 -161.03427 -10.25679
-43.444336 -161.04807 -10.367361
-52.283302 -161.09839 -10.560476
-43.3274 -161.01846 -10.616025
-50.895966 -161.13339 -12.04944
-41.268711 -160.91908 -5.129046
-40.409088 -160.99078 -5.1935401
-41.347446 -160.99153 -5.298543
-40.134182 -160.95338 -5.586967
-41.722454 -160.89816 -7.1994939
-48.439232 -160.94952 -7.2290192
-44.031822 -160.95918 -7.9210091
-48.26096 -160.83012 -8.1784983
-48.643848 -160.87434 -8.3758755
-43.409187 -160.9581 -8.2581377
-43.332687 -160.96686 -8.8434401
-47.338802 -160.84183 -9.7510662
-48.405144 -160.87839 -9.99683
-49.334503 -160.85934 -10.69368
-47.42091 -160.86821 -10.657927
-49.534538 -160.6895 -4.319469
-45.865349 -160.64409 -4.2283511
-42.607117 -160.79256 -4.2548299
-40.364922 -160.78688 -4.363205
-41.31012 -160.77571 -4.5036588
-51.925831 -160.67232 -6.7523608
-47.859699 -160.7368 -7.8493571
-48.770706 -160.72507 -8.490448
-49.944664 -160.77405 -9.1522465
-47.831741 -160.65482 -10.141414
-47.74612 -160.60651 -10.731994
-42.039944 -160.61232 -10.669661
-41.884163 -160.64575 -10.641663
-52.686718 -160.60458 -11.046237
-52.527081 -160.63826 -12.319678
-41.377472 -160.45247 -5.3270969
-43.027111 -160.43732 -9.0936394
-43.273724 -160.59076 -9.6885567
-43.149109 -160.59947 -9.6900797
-42.361855 -160.53741 -10.148289
-52.871254 -160.53546 -10.927065
-50.136276 -160.57721 -11.715641
-52.354588 -160.24573 -4.4004502
-52.205051 -160.36951 -7.4358492
-51.864304 -160.3136 -8.0961046
-42.627121 -160.35538 -8.10112
-41.485329 -160.27835 -9.3676529
-49.323425 -160.34268 -10.29213
-43.239098 -160.39912 -10.296036
-42.54174 -160.25092 -10.619753
-52.569946 -160.28571 -12.224324
-51.031361 -160.24774 -12.232938
-56.569656 -160.18893 -4.3787742
-44.29768 -160.04639 -4.2436318
-43.000126 -160.0585 -8.3501825
-43.054958 -160.12749 -8.7616949
-49.390007 -160.16888 -9.1562004
-42.706223 -160.11449 -9.1203938
-52.020386 -160.17795 -9.5695372
-50.144497 -160.11868 -11.306032
-51.657635 -160.09818 -12.359295
-54.575397 -179.83501 -4.8630638
-40.486111 -179.82092 -5.8471389
-40.679157 -179.89062 -9.3484859
-40.619759 -179.87354 -12.181138
-40.614014 -179.88976 -13.736617
-40.604156 -179.8311 -14.615599
-59.471294 -179.78035 -4.9738059
-41.539871 -179.77975 -5.4471569
-40.46685 -179.73712 -5.9363828
-40.620216 -179.75021 -10.648409
-40.609238 -179.76961 -11.857269
-49.898422 -179.53731 -4.7128029
-40.594086 -179.43636 -13.422473
-40.547348 -179.40732 -16.599335
-47.388123 -179.28571 -4.7158542
-41.720905 -179.21533 -5.3576822
-54.558186 -179.29016 -6.328403
-40.629311 -179.27325 -11.053946
-40.607414 -179.29727 -13.676474
-50.020782 -179.17911 -4.793128
-54.678658 -179.1993 -4.8380098
-41.762192 -179.08884 -5.0525942
-54.539078 -179.00305 -5.4504428
-54.96497 -179.07695 -6.309762
-40.509903 -179.04596 -8.5771523
-40.623596 -179.0282 -10.385412
-40.622299 -179.08813 -13.169092
-40.582771 -179.08498 -14.430408
-40.506176 -179.09218 -16.0786
-41.749851 -178.91783 -4.7805481
-59.911392 -178.85719 -4.962975
-55.051098 -178.94438 -4.9625411
-54.933823 -178.9774 -5.2346449
-41.562927 -178.93631 -5.4241471
-55.619942 -178.86781 -5.8845258
-54.509857 -178.93478 -5.883925
-54.07225 -178.96692 -6.8060288
-40.58075 -178.98901 -10.559269
-40.616558 -178.83763 -10.625404
-40.577225 -178.88184 -12.70952
-40.575619 -178.94052 -14.229379
-40.497276 -178.96126 -17.35133
-58.774685 -178.78853 -5.008821
-57.523079 -178.73018 -5.0075908
-54.960304 -178.655 -5.6729021
-55.152267 -178.63065 -6.3064771
-40.201542 -178.71541 -9.5764275
-40.1614 -178.70532 -9.7306728
-40.574818 -178.76622 -10.696632
-40.056442 -178.7052 -10.650602
-40.615269 -178.72404 -11.384092
-40.569511 -178.71617 -11.511383
-40.485153 -178.67073 -11.61256
-40.533878 -178.71376 -13.103261
-40.580009 -178.69673 -13.407275
-40.386581 -178.61996 -13.557674
-40.197342 -178.61351 -13.77393
-40.07032 -178.64087 -14.282803
-51.155807 -178.48741 -4.7162852
-58.30521 -178.53116 -4.9373679
-54.91127 -178.51205 -5.1208401
-54.855354 -178.461 -5.229394
-55.667698 -178.58124 -5.698534
-54.263069 -178.5166 -5.6055079
-54.925468 -178.55246 -6.5466681
-54.318222 -178.51097 -6.8853178
-54.394577 -178.41663 -7.267159
-40.327003 -178.55299 -15.999004
-51.42342 -178.26891 -4.6946092
-50.661766 -178.33983 -4.7996449
-57.726898 -178.24306 -5.0135331
-54.87101 -178.2308 -5.2603369
-55.000965 -178.24997 -5.8736439
-54.603294 -178.22913 -6.172102
-53.482975 -178.3053 -6.1564279
-44.752544 -178.03485 -4.7667618
-59.798477 -178.00085 -4.9134212
-56.736233 -178.0363 -4.9358592
-55.47369 -178.10588 -4.8736129
-44.862663 -178.02982 -4.8228502
-54.246498 -178.07719 -5.114387
-53.459095 -178.05484 -5.0057468
-40.67672 -178.00323 -5.4563389
-54.228737 -178.15921 -6.159708
-53.809727 -178.13904 -6.723547
-54.275406 -178.17108 -7.2235031
-41.378479 -178.11142 -8.6673346
-44.657875 -177.93988 -4.8008881
-53.783829 -177.90309 -5.326736
-54.62048 -177.879 -5.4185219
-40.696426 -177.88063 -5.5906
-55.271225 -177.8213 -5.642848
-54.270752 -177.94844 -5.8205009
-52.988617 -177.99313 -6.337513
-52.725502 -177.96063 -6.3757429
-55.088013 -177.81511 -6.4676151
-54.714039 -177.98808 -6.8821268
-53.318195 -177.88428 -7.0225029
-45.476559 -177.67726 -4.7646852
-54.369705 -177.67218 -6.1916242
-53.522751 -177.64801 -6.5979252
-57.607098 -177.56125 -4.984098
-54.44471 -177.4225 -5.4856939
-53.745285 -177.52768 -5.7897248
-55.219986 -177.54271 -6.2444458
-53.720528 -177.59193 -7.0925469
-48.95554 -177.25462 -4.6606822
-47.522449 -177.31107 -4.637403
-54.16515 -177.29041 -6.5516658
-55.339546 -177.3194 -6.6326141
-47.725929 -177.00786 -4.685966
-40.339615 -177.17056 -4.707561
-57.0476 -177.12451 -4.984776
-57.292385 -177.1908 -5.041502
-51.862328 -176.91211 -4.7465701
-48.967949 -176.98109 -4.6005201
-48.736134 -176.94885 -4.6449909
-53.55365 -176.86389 -4.8322749
-52.103668 -176.88602 -4.9608378
-52.506107 -176.71031 -4.7253852
-51.497883 -176.74512 -4.738296
-48.837967 -176.79686 -4.612484
-52.012268 -176.66646 -5.026896
-51.817474 -176.66838 -5.289506
-59.299416 -176.32397 -4.9032488
-57.214314 -176.27806 -5.1094608
-57.086803 -176.36729 -5.3024011
-54.904388 -176.10254 -4.7986412
-51.809765 -176.19951 -4.769177
-48.534821 -176.19341 -4.6084599
-53.34782 -175.81985 -4.7691479
-53.759102 -175.71664 -4.7411642
-48.924454 -175.6272 -4.7175469
-59.338638 -175.72961 -4.8539319
-58.072258 -175.78249 -4.8899479
-57.911938 -175.77643 -4.877542
-57.249218 -175.77638 -4.928782
-54.735371 -175.6423 -4.8771362
-43.929745 -175.75542 -4.8203349
-53.451912 -175.44043 -4.685884
-59.24424 -175.49158 -4.8566608
-58.489937 -175.5527 -4.9178648
-56.724548 -175.45406 -4.9260721
-54.933571 -175.58304 -4.836103
-54.616165 -175.37149 -4.7658529
-50.533958 -175.39853 -4.629416
-54.768684 -175.32375 -4.8347712
-54.230015 -175.28979 -4.8395071
-50.810341 -174.69293 -4.628653
-56.274254 -174.64415 -4.8099561
-53.785255 -174.69711 -4.8040371
-51.791267 -174.45793 -4.6641731
-57.271252 -174.59995 -4.8656301
-48.963921 -174.55362 -7.1284108
-50.955856 -174.3125 -4.6278429
-55.286694 -174.3808 -4.817759
-54.210915 -174.21947 -4.81181
-49.31958 -174.20721 -6.2703991
-48.701569 -174.22954 -7.9110341
-54.797455 -174.1264 -4.7574821
-52.045517 -173.93188 -4.6375999
-59.57769 -173.85127 -4.8288312
-49.757988 -173.93459 -4.9156041
-49.341354 -173.91324 -8.2179432
-49.495331 -173.89351 -8.7033358
-52.536362 -173.68945 -4.6643381
-51.839661 -173.79832 -4.6140251
-49.430885 -173.68359 -7.468504
-49.069386 -173.65448 -9.6733074
-51.111023 -173.41806 -5.3785548
-46.932983 -173.4559 -5.5102348
-49.333572 -173.53256 -7.0399318
-49.179398 -173.54561 -7.1370401
-48.364918 -173.42018 -7.278336
-49.849438 -173.50131 -7.5089698
-49.147766 -173.47591 -7.7576008
-49.458759 -173.52975 -8.1003914
-47.29813 -173.54488 -8.3201504
-49.134941 -173.41479 -8.7528439
-48.912235 -173.478 -9.5608454
-56.556122 -173.28091 -4.7729702
-51.119473 -173.29852 -5.360394
-46.467941 -173.31824 -6.1686792
-49.430611 -173.36298 -7.5002708
-49.124321 -173.01184 -7.3491001
-49.412315 -173.11357 -7.4803262
-49.707184 -173.02742 -7.8375549
-49.376892 -173.18002 -8.0819902
-49.667931 -173.14398 -8.6936359
-49.334969 -173.03571 -9.8300037
-40.390488 -172.94321 -5.237493
-47.868774 -172.68622 -8.9693336
-51.430328 -172.5817 -5.332304
-45.90036 -172.51721 -6.357717
-45.92588 -172.4595 -6.435802
-46.657787 -172.54109 -7.1978002
-47.325138 -172.58621 -7.3166718
-51.595039 -172.42493 -8.364398
-49.332134 -172.53931 -8.28584
-48.592941 -172.56329 -8.7193375
-49.514618 -172.47835 -9.3420887
-48.830391 -172.49973 -12.542686
-46.623917 -172.25046 -6.5837469
-49.392349 -172.38638 -7.5247869
-51.820328 -172.2854 -8.2651596
-51.523312 -172.31828 -8.5820045
-46.675137 -172.26239 -8.6605492
-51.783218 -172.26558 -8.8599949
-47.060387 -172.24109 -8.8857822
-59.394714 -172.17894 -4.7725959
-53.354805 -172.16794 -4.6497049
-52.109634 -172.15694 -4.7021708
-51.642494 -172.13422 -4.8433619
-49.327721 -172.10381 -5.4639149
-46.866718 -172.18726 -6.5922952
-49.721638 -172.17592 -7.8291039
-48.763756 -172.16257 -7.856998
-49.431702 -172.13933 -8.1643591
-51.119186 -172.13655 -8.2270184
-48.1814 -172.03281 -8.7056665
-49.129608 -172.06311 -9.1921225
-56.815216 -172.09184 -12.215302
-53.52932 -171.9118 -4.6561232
-49.012589 -171.93362 -5.4333792
-48.998188 -171.81744 -5.6293311
-48.809288 -171.88641 -6.4906821
-50.576889 -171.9032 -7.1223359
-51.288918 -171.87222 -7.75664
-51.259666 -171.86005 -8.3233147
-48.576141 -171.99594 -9.1915216
-53.653687 -171.71539 -4.6601448
-46.053185 -171.76349 -5.3383861
-49.728935 -171.76079 -5.469727
-48.884735 -171.79105 -6.4691458
-48.046566 -171.6925 -6.9517589
-56.892059 -171.76089 -12.083246
-50.536858 -171.60059 -12.079184
-49.931889 -171.64565 -13.982786
-54.217079 -171.45053 -4.7663488
-57.686577 -171.57948 -4.8062272
-56.763004 -171.44498 -5.1020999
-51.434845 -171.58325 -5.4906549
-49.116856 -171.41779 -8.2086334
-50.892441 -171.56599 -8.850028
-49.245552 -171.51306 -11.089422
-57.26696 -171.49359 -11.850433
-53.856503 -171.53452 -12.702847
-49.97501 -171.54738 -12.961534
-56.368958 -171.31316 -4.7713571
-45.876198 -171.38068 -5.3340459
-48.86515 -171.34259 -5.7398262
-48.642902 -171.36829 -6.146997
-46.588993 -171.3667 -6.679173
-46.707497 -171.37502 -6.9169049
-50.854679 -171.34912 -7.0706801
-50.585503 -171.31326 -7.70854
-50.186852 -171.32327 -8.198761
-51.321747 -171.30527 -8.263608
-50.50425 -171.30344 -8.5626945
-56.686142 -171.31979 -12.500391
-55.966759 -171.10336 -4.760272
-55.343079 -171.15723 -4.7237902
-49.008308 -171.17488 -7.181839
-47.760899 -171.05957 -11.194156
-56.926529 -171.19485 -11.660999
-56.966496 -171.02063 -12.196527
-57.745178 -170.96027 -4.7139449
-51.791851 -170.85149 -4.7834029
-56.669285 -170.90784 -5.288002
-56.585091 -170.82228 -5.3611698
-56.544792 -170.81375 -5.4235449
-48.508793 -170.93536 -5.4433889
-46.485321 -170.99908 -6.3326292
-46.468285 -170.9516 -6.6082101
-49.73735 -170.85587 -7.3173542
-49.578518 -170.86911 -7.407196
-57.087685 -170.83464 -10.687634
-52.208057 -170.80467 -10.741018
-55.425804 -170.94987 -11.92835
-45.973392 -170.69644 -5.3117452
-46.36166 -170.76257 -6.2815132
-50.598511 -170.79602 -6.7597108
-50.616493 -170.66876 -7.3766541
-49.136131 -170.68059 -7.3062329
-50.272556 -170.71671 -7.7635822
-48.111359 -170.69385 -9.3629732
-48.61026 -170.75381 -12.942684
-57.046055 -170.6559 -13.081337
-53.90987 -170.61256 -13.840081
-56.156799 -170.47749 -4.6980138
-53.593323 -170.49367 -4.6058469
-45.95079 -170.58194 -5.4312482
-57.29213 -170.5934 -10.160843
-47.822681 -170.45558 -11.775514
-50.320854 -170.48697 -12.757866
-56.600521 -170.4982 -13.77193
-40.376595 -170.33682 -4.3922038
-59.794945 -170.21822 -5.2508979
-47.31044 -170.33138 -6.9960532
-47.028069 -170.29434 -6.9691849
-49.608887 -170.34706 -8.0082617
-51.777908 -170.37198 -9.5736399
-47.91209 -170.30429 -9.4258356
-57.011131 -170.32751 -11.950146
-57.009567 -170.2269 -12.167312
-56.229259 -170.26396 -13.050184
-56.721054 -170.36972 -13.358349
-50.572792 -170.35327 -13.499733
-48.079708 -170.29166 -14.026816
-49.7384 -170.3425 -14.330953
-57.436874 -170.15427 -4.7288442
-57.249287 -170.0166 -4.722434
-56.730301 -170.14429 -4.7138391
-55.813934 -170.19795 -4.709054
-52.233627 -170.18854 -4.6707592
-48.217979 -170.09821 -7.2296958
-46.315647 -170.00093 -7.9604192
-46.261467 -170.12413 -8.0780544
-56.299782 -170.04199 -8.5976982
-56.386337 -170.17596 -13.919432
-47.25325 -169.85876 -6.24719
-47.474075 -169.96867 -6.6391702
-47.181194 -169.91409 -7.1931248
-48.618462 -169.88486 -7.242619
-55.309166 -169.85623 -9.0002899
-53.60511 -169.82396 -13.102707
-54.791771 -169.6235 -4.6735988
-49.761753 -169.73749 -5.0161781
-46.821396 -169.6933 -5.401341
-53.885422 -169.71376 -8.460619
-54.020714 -169.76367 -8.7923679
-51.479549 -169.74506 -9.004261
-51.424789 -169.67192 -9.7398987
-54.510494 -169.77112 -10.536791
-48.122635 -169.75729 -12.69659
-53.374405 -169.68396 -13.194159
-48.382042 -169.60027 -14.381012
-59.759445 -169.457 -4.7879009
-50.604195 -169.43002 -5.3367472
-47.891888 -169.52831 -6.7975292
-47.918495 -169.53436 -6.895432
-52.666916 -169.45374 -9.1062088
-54.416824 -169.46648 -9.6852655
-57.54763 -169.5025 -11.756387
-57.013062 -169.46704 -12.718
-50.17271 -169.5181 -13.326735
-49.835823 -169.44272 -13.25216
-48.503235 -169.51729 -13.715557
-58.724213 -169.36105 -4.7154131
-56.314827 -169.32608 -4.6636539
-47.00082 -169.35883 -5.3487911
-54.099926 -169.24878 -8.727231
-51.462875 -169.38054 -9.0749922
-54.185478 -169.29689 -9.7434654
-56.253605 -169.2574 -10.085857
-53.728699 -169.2428 -10.178511
-51.450417 -169.32111 -10.175587
-54.835598 -169.20436 -10.61142
-54.749195 -169.34117 -10.6512
-56.583939 -169.26984 -11.865406
-56.14856 -169.38402 -12.204492
-52.56366 -169.0036 -4.568531
-53.658028 -169.09511 -4.6074858
-50.246513 -169.06354 -4.8114462
-49.803558 -169.00322 -5.3943892
-47.840942 -169.09378 -5.3762531
-47.740829 -169.00357 -8.5347328
-53.339211 -169.1792 -9.0580759
-54.063179 -169.08258 -10.217707
-51.920471 -169.13657 -10.796758
-56.222839 -169.02669 -11.017797
-57.292976 -169.17236 -11.704667
-50.849854 -169.10455 -13.948706
-54.283897 -168.99069 -4.6093488
-46.672203 -168.88921 -4.725008
-49.377247 -168.87279 -5.3929482
-47.60939 -168.85094 -8.3928261
-47.554558 -168.82161 -8.2989511
-53.904667 -168.94319 -8.7204399
-57.229187 -168.88658 -9.1953154
-55.573048 -168.89445 -9.8463631
-56.476158 -168.91449 -10.126423
-53.515438 -168.98401 -10.446493
-56.250515 -168.92087 -13.26764
-47.875633 -168.93239 -14.297459
-47.268112 -168.74294 -4.7627149
-47.120735 -168.78586 -4.8225951
-40.315292 -168.67543 -4.848732
-49.716007 -168.68271 -5.0156751
-47.589867 -168.73343 -8.3561668
-56.570312 -168.74637 -9.693778
-55.635059 -168.74586 -9.7772722
-55.535767 -168.73718 -9.7410135
-54.71283 -168.79417 -10.59253
-51.981449 -168.76639 -11.132155
-50.275475 -168.79085 -11.063977
-56.035347 -168.69446 -11.713917
-55.95298 -168.73935 -11.801049
-55.506454 -168.71951 -11.845238
-55.5028 -168.62341 -12.714767
-48.286629 -168.73447 -12.731403
-55.443573 -168.64639 -12.867962
-50.608826 -168.686 -13.882456
-57.669617 -168.51044 -8.7464619
-57.465141 -168.56183 -8.9066162
-55.912651 -168.58737 -10.444102
-47.86898 -168.29967 -4.6109352
-48.265831 -168.31361 -5.4450741
-56.630981 -168.28783 -10.145123
-55.698769 -168.29735 -10.47
-55.977394 -168.39447 -12.224748
-54.158958 -168.16064 -4.595644
-56.301163 -168.18004 -9.1623325
-56.132515 -168.19124 -9.5459442
-47.516869 -168.15945 -10.399887
-56.197102 -167.87621 -10.833412
-57.760689 -167.98972 -12.531867
-53.777878 -167.7775 -4.5527401
-44.105865 -167.68564 -4.4114661
-53.782951 -167.66017 -10.980817
-54.007732 -167.74997 -11.714804
-53.961624 -167.677 -11.771359
-57.872128 -167.70764 -11.869965
-53.302265 -167.52603 -10.639174
-51.419388 -167.4465 -11.203808
-56.571793 -167.53539 -11.639061
-54.31596 -167.4362 -12.262646
-58.630798 -167.56775 -13.011405
-51.134632 -167.25107 -9.467823
-53.081093 -167.37575 -9.7913799
-53.955616 -167.2706 -11.542209
-55.766647 -167.36029 -12.240015
-58.533611 -167.20683 -12.406801
-49.883423 -167.17708 -4.5291438
-59.05019 -167.04248 -4.6571212
-57.509136 -167.1017 -4.6009111
-52.827202 -167.04231 -4.8674579
-50.828316 -167.09381 -11.080166
-50.716518 -167.13824 -11.167216
-49.905334 -167.05743 -13.171362
-40.230797 -166.8046 -4.393775
-42.035202 -166.8606 -4.419981
-40.365665 -166.9794 -4.5198278
-40.028687 -166.84924 -7.5818782
-47.840538 -166.87111 -11.410374
-50.070602 -166.91348 -12.330717
-57.514881 -166.62291 -4.6189561
-50.256344 -166.72949 -11.939011
-57.480595 -166.73027 -12.672926
-53.17379 -166.46291 -9.6672659
-48.031036 -166.44836 -10.765957
-44.253273 -166.51552 -10.889292
-50.668221 -166.54964 -11.28272
-48.087379 -166.52649 -11.300129
-47.103157 -166.50473 -12.53605
-51.557827 -166.05005 -8.6186562
-41.389328 -166.04657 -12.781308
-47.772392 -166.09959 -13.128193
-51.770012 -165.86371 -8.0380383
-52.880726 -165.90598 -8.8689823
-53.193069 -165.87509 -10.620654
-42.302185 -165.87178 -10.904557
-58.424961 -165.95555 -12.402222
-43.773228 -165.79645 -4.3403878
-52.227783 -165.63379 -6.0788298
-52.645523 -165.69882 -8.5149498
-41.320919 -165.6004 -11.237695
-58.574917 -165.79179 -11.60619
-58.938515 -165.6678 -12.484525
-58.152428 -165.40016 -4.609868
-51.250992 -165.52625 -8.674572
-51.67128 -165.43457 -9.3191328
-41.536865 -165.50461 -11.245112
-54.020855 -165.45828 -12.841169
-53.759949 -165.27478 -4.7013421
-52.078575 -165.28569 -5.424386
-51.97654 -165.24146 -6.0795808
-51.929451 -165.27516 -6.251595
-42.310349 -165.28876 -6.9925318
-41.892941 -165.24321 -6.9132829
-51.958206 -165.21754 -7.0945239
-51.941391 -165.39325 -7.5411582
-42.099586 -165.22256 -7.4915819
-41.835251 -165.35388 -7.5254741
-51.901459 -165.29437 -7.6497502
-41.749176 -165.32532 -7.8330421
-52.566818 -165.38641 -8.4731264
-52.405472 -165.3804 -9.6353607
-53.577103 -165.28506 -12.188238
-53.851631 -165.35609 -12.767567
-40.551331 -165.39128 -12.940502
-56.365791 -165.19041 -4.5180769
-55.332035 -165.03836 -4.505486
-53.728371 -165.04559 -4.7471371
-52.289806 -165.15173 -7.4499979
-52.226192 -165.13545 -8.093811
-51.008522 -165.16319 -8.954977
-41.783501 -165.04678 -11.153548
-53.23233 -165.09718 -14.695746
-58.46032 -164.95267 -4.5913882
-58.166004 -164.90231 -4.5367541
-55.714596 -164.87656 -4.6083212
-53.770294 -164.9399 -4.731143
-57.935928 -164.92584 -4.9097791
-45.834667 -164.81125 -4.9543762
-57.974724 -164.95442 -5.1219578
-42.563099 -164.84558 -7.8143339
-51.796562 -164.94922 -8.2414494
-51.738205 -164.89064 -8.4669352
-52.786816 -164.9099 -9.1706161
-55.722008 -164.66736 -4.6260271
-48.041191 -164.64163 -4.6772552
-41.145378 -164.71852 -6.7556548
-41.536499 -164.64301 -6.9611049
-40.138531 -164.74826 -8.4274921
-51.533165 -164.62039 -8.9966297
-51.891853 -164.7569 -10.172318
-50.530914 -164.70911 -11.562826
-43.704578 -164.7948 -11.839174
-58.879829 -164.74976 -12.300468
-50.418327 -164.69499 -12.373199
-40.130669 -164.6799 -12.201851
-40.776436 -164.44861 -4.3358421
-54.265495 -164.55051 -4.451035
-49.52319 -164.56561 -4.42136
-41.861656 -164.56662 -4.4806628
-50.393761 -164.42102 -4.992023
-50.258316 -164.48456 -5.1070142
-42.136509 -164.41652 -7.9033442
-48.780746 -164.41707 -8.8191147
-44.450294 -164.47189 -8.9933033
-47.698132 -164.49934 -9.375123
-53.170197 -164.45605 -10.120815
-47.850197 -164.5191 -10.452826
-51.119282 -164.44937 -11.789448
-49.001793 -164.41364 -12.502997
-43.685665 -164.21738 -4.2708278
-44.846367 -164.34221 -8.7389088
-48.835129 -164.35118 -8.8048077
-48.526321 -164.27362 -9.4469738
-51.384804 -164.36508 -9.8588581
-44.246017 -164.31778 -9.8489857
-43.876865 -164.29851 -10.449276
-49.512138 -164.25041 -10.73951
-52.942852 -164.09917 -4.6613121
-42.758522 -164.06055 -7.354177
-40.422195 -164.19099 -7.8595629
-43.278671 -164.06955 -8.1845436
-49.931488 -164.18434 -9.6446466
-40.326614 -164.16302 -9.9797897
-49.037308 -164.16101 -10.205877
-47.792824 -164.06738 -10.61407
-51.77071 -164.12119 -11.677339
-47.327351 -163.8587 -4.398262
-52.340179 -163.84116 -4.6188388
-52.619274 -163.94351 -4.8096709
-44.205303 -163.81827 -8.127326
-51.827419 -163.82143 -8.3782787
-43.466309 -163.96869 -8.7713242
-42.96109 -163.85376 -8.8220329
-51.481262 -163.93311 -9.2667942
-40.845242 -163.95525 -9.3812027
-43.064789 -163.93297 -9.8549328
-44.771503 -163.96483 -10.060614
-53.314011 -163.80481 -10.388021
-51.358917 -163.82996 -10.654712
-53.731262 -163.96692 -11.483953
-45.797386 -163.73763 -4.3700428
-58.235676 -163.75453 -4.523798
-56.091915 -163.71313 -4.4800358
-52.480766 -163.64447 -8.6447296
-47.423164 -163.77838 -8.6129665
-52.207336 -163.70413 -9.117672
-44.929554 -163.63564 -9.5398769
-48.201042 -163.79257 -9.6255083
-46.440605 -163.72028 -9.7135439
-52.905643 -163.79028 -9.9632044
-44.739014 -163.7869 -9.8083019
-45.113289 -163.73451 -10.291253
-45.019192 -163.69827 -10.419703
-44.392727 -163.64264 -10.444369
-49.758213 -163.70927 -10.882673
-58.521019 -163.642 -12.240906
-50.02932 -163.74323 -12.58043
-47.269253 -163.50095 -4.3661571
-54.623077 -163.41318 -4.45575
-51.863079 -163.5551 -8.5091553
-44.266521 -163.40112 -8.7238731
-51.836285 -163.46332 -9.6991863
-53.823757 -163.47334 -10.599755
-52.67437 -163.40923 -10.523005
-53.433559 -163.5007 -10.610254
-53.423584 -163.46774 -10.878635
-40.085239 -163.39648 -4.2033019
-52.151577 -163.30734 -9.3108006
-48.544113 -163.37717 -10.760159
-44.569244 -163.33359 -10.725663
-42.948231 -163.2352 -10.910759
-51.752747 -163.34547 -11.192713
-56.99651 -163.27406 -11.371547
-56.750797 -163.25342 -11.332775
-54.968834 -163.29951 -12.355549
-49.303917 -163.33026 -12.314155
-49.197754 -163.3494 -12.281058
-40.265167 -163.06885 -7.3457851
-48.112595 -163.15805 -7.7622752
-42.824581 -163.06435 -8.6343517
-42.5597 -163.02579 -8.9717169
-52.927719 -163.04214 -9.8204651
-53.51173 -163.11751 -10.314691
-53.652161 -163.1024 -10.400873
-44.366238 -163.17183 -10.40633
-49.07962 -163.03262 -10.907186
-47.716179 -163.15253 -11.636164
-54.383846 -163.12756 -11.950851
-49.341003 -163.19121 -12.237995
-45.99184 -162.88071 -4.29177
-50.665051 -162.9637 -4.4387269
-41.844936 -162.97971 -6.997292
-48.765129 -162.82794 -7.9659429
-52.936699 -162.98547 -8.9268026
-52.703751 -162.90741 -9.232235
-48.556522 -162.90392 -9.6321602
-48.360653 -162.92688 -10.236517
-47.985817 -162.96638 -11.089378
-50.810127 -162.71678 -4.467495
-59.705803 -162.69133 -4.670639
-44.591679 -162.65469 -6.3942142
-53.61132 -162.63174 -6.9753132
-41.449749 -162.7234 -8.6201563
-44.997055 -162.67322 -8.8908024
-57.039352 -162.68095 -9.9475336
-47.873215 -162.67673 -9.8029165
-56.903336 -162.76442 -11.280596
-47.868736 -162.63547 -11.883667
-52.037262 -162.45743 -4.4383149
-53.41835 -162.47543 -7.7133422
-40.530418 -162.51802 -7.7843518
-47.847191 -162.46478 -8.5772324
-53.214935 -162.43156 -9.359663
-52.316116 -162.41428 -9.2874584
-45.8312 -162.59366 -9.6964264
-48.623005 -162.44101 -10.706016
-45.046455 -162.50986 -11.362451
-41.723766 -162.33006 -6.6539769
-44.276283 -162.24866 -7.174787
-40.993694 -162.216 -7.7551041
-53.161018 -162.35201 -7.8851838
-53.335785 -162.34021 -8.5163021
-51.719055 -162.31372 -9.2652483
-56.978149 -162.34756 -10.529502
-45.5993 -162.32057 -10.420228
-44.912746 -162.30154 -10.566347
-48.200874 -162.23265 -11.720514
-48.841957 -162.35651 -13.046246
-59.651218 -162.15646 -4.5190768
-59.380547 -162.12766 -4.8824139
-40.514992 -162.17947 -6.3054819
-47.527679 -162.14429 -8.5201921
-47.942112 -162.09511 -9.1904583
-47.800934 -162.04875 -10.466371
-42.41589 -161.95143 -4.304019
-59.639019 -161.92914 -4.5514369
-59.261925 -161.93701 -4.537353
-56.415592 -161.9411 -4.5324612
-57.83242 -161.92558 -4.6078272
-55.167412 -161.80992 -4.721035
-44.493645 -161.80501 -7.963923
-53.041405 -161.87961 -8.307415
-52.82547 -161.86545 -9.4742165
-48.116985 -161.82806 -9.9213047
-48.364571 -161.86327 -10.208988
-55.63002 -161.83792 -11.496491
-50.670753 -161.90038 -12.007776
-59.147591 -161.70078 -4.5165691
-58.522316 -161.64519 -4.464735
-52.952042 -161.66907 -4.4935532
-40.058376 -161.75436 -5.281415
-54.018078 -161.74274 -7.561914
-53.917084 -161.66742 -7.6984191
-52.687561 -161.77881 -7.693552
-48.234264 -161.61057 -8.6859055
-47.948322 -161.72122 -9.1540346
-43.473377 -161.72336 -10.981657
-48.536972 -161.71553 -11.665965
-59.328918 -161.59552 -4.5374708
-57.816086 -161.51187 -4.488503
-50.626217 -161.51497 -4.4684782
-50.011814 -161.45729 -4.4168091
-40.664948 -161.52353 -5.3407822
-52.479824 -161.42931 -6.371984
-40.278225 -161.43848 -6.38165
-52.460155 -161.42029 -6.4504218
-41.212296 -161.43292 -6.4551039
-50.787888 -161.49991 -7.0845351
-40.724705 -161.54207 -7.1361532
