# .PCD v0.7 - Point Cloud Data file format
VERSION 0.7
FIELDS x y z
SIZE 4 4 4
TYPE F F F
COUNT 1 1 1
WIDTH 1473
HEIGHT 1
VIEWPOINT 0 0 0 1 0 0 0
POINTS 1473
DATA ascii
-54.128822 -131.71344 -5.1337061
-53.727814 -131.73526 -5.1311002
-53.497063 -131.7645 -5.0549588
-53.340229 -131.77249 -5.0575709
-52.887859 -131.77515 -5.0971432
-55.548443 -131.63126 -5.5692248
-56.187134 -131.61343 -5.683599
-55.743973 -131.61163 -5.7942958
-54.637672 -131.63858 -5.7723331
-55.296494 -131.61688 -5.8469591
-54.936035 -131.63353 -5.8658409
-54.217361 -131.61798 -5.8178759
-53.203026 -131.61411 -5.8495989
-52.914169 -131.68918 -5.8773508
-55.405079 -131.61343 -6.5833931
-55.20393 -131.60889 -6.6025648
-54.957031 -131.61754 -6.6312542
-53.04673 -131.71786 -6.6952372
-51.697655 -131.74593 -6.698792
-51.301331 -131.77327 -6.710844
-50.440395 -131.78169 -7.3879628
-55.254494 -131.61313 -7.433394
-54.914154 -131.74944 -7.5099282
-54.558472 -131.62494 -7.5019798
-54.079491 -131.66658 -7.5416651
-54.161842 -131.69048 -7.7479782
-51.068832 -131.79161 -7.6855931
-50.772091 -131.77313 -7.6215911
-54.996288 -131.64554 -8.320488
-54.624886 -131.64513 -8.3035374
-54.33139 -131.6351 -8.3518543
-52.274849 -131.74759 -8.3581963
-54.628052 -131.62866 -8.5320721
-53.817295 -131.6644 -8.556592
-53.406502 -131.68085 -8.5231571
-52.774406 -131.70506 -8.4576015
-52.307907 -131.75705 -8.4805536
-51.358017 -131.76955 -8.5105066
-51.080612 -131.77242 -8.4820118
-50.66869 -131.78287 -8.469223
-55.010822 -131.62663 -8.6353798
-54.173843 -131.63565 -8.6003056
-51.73645 -131.73575 -8.8736916
-51.277065 -131.75131 -8.9896927
-53.737778 -131.72192 -9.3883495
-53.405899 -131.65991 -9.3959084
-52.995346 -131.73021 -9.3624287
-52.157516 -131.73148 -9.357357
-54.997601 -131.68198 -9.4829168
-54.572945 -131.6911 -9.4686432
-52.611008 -131.73058 -9.4636097
-51.300034 -131.77319 -9.414711
-49.711025 -131.79221 -9.5170879
-51.249805 -131.72722 -9.648984
-49.713192 -131.67528 -9.7428112
-52.964085 -131.63847 -10.160543
-52.090416 -131.67728 -10.24454
-51.302547 -131.71176 -10.268324
-49.376232 -131.77295 -10.591471
-48.270092 -131.78767 -10.407366
-52.416065 -131.61749 -10.649135
-48.405785 -131.78954 -10.645309
-49.656315 -131.7431 -10.837441
-59.77858 -131.52153 -3.7383139
-59.364906 -131.53625 -3.7198529
-59.00145 -131.55161 -3.73281
-58.597576 -131.57053 -3.7232111
-58.137688 -131.5838 -3.665549
-57.79911 -131.59767 -3.671793
-59.486534 -131.55679 -3.99295
-59.219231 -131.595 -3.985718
-59.767403 -131.53564 -4.3032508
-59.341099 -131.54074 -4.3474069
-58.974113 -131.57129 -4.3149362
-58.515308 -131.56316 -4.2821741
-58.104782 -131.56525 -4.341434
-57.686687 -131.58984 -4.3058758
-59.733986 -131.50687 -4.492579
-59.37207 -131.52022 -4.5646119
-58.999542 -131.54391 -4.5723381
-58.522202 -131.55362 -4.5102482
-58.143818 -131.57076 -4.4255929
-57.743217 -131.57913 -4.4148169
-57.368034 -131.59845 -4.4054918
-53.530334 -131.47758 -4.9866238
-58.680965 -131.53078 -5.093822
-59.659031 -131.4538 -5.5948
-59.369026 -131.46509 -5.5909462
-59.000175 -131.49222 -5.417583
-58.518761 -131.52695 -5.4041958
-58.168312 -131.53624 -5.5767899
-58.018372 -131.53366 -5.7179022
-59.675301 -131.40404 -5.864408
-58.194847 -131.51987 -5.844646
-59.792145 -131.41455 -6.1064448
-55.713055 -131.55276 -6.0479188
-55.501778 -131.54672 -6.0430441
-59.281353 -131.4274 -6.2038789
-59.424347 -131.45236 -6.5543432
-58.559856 -131.49443 -6.5528789
-58.137531 -131.4904 -6.5809278
-58.983139 -131.47746 -6.602458
-57.904259 -131.45041 -6.6382289
-56.313072 -131.54526 -6.6222129
-56.130814 -131.58961 -6.6441641
-55.869289 -131.56892 -6.6406469
-55.492287 -131.59578 -6.6354408
-50.272381 -131.47102 -6.6792889
-59.707478 -131.43959 -6.9349461
-59.352573 -131.46555 -6.9346318
-58.920876 -131.51057 -6.9345508
-58.164059 -131.50755 -6.8929119
-59.718643 -131.40417 -7.376359
-58.915363 -131.48424 -7.3772058
-56.271236 -131.50287 -7.3938208
-58.226131 -131.46523 -7.4455729
-55.867653 -131.56541 -7.4412131
-59.728924 -131.43999 -8.1112814
-59.045464 -131.42258 -8.1537724
-57.863796 -131.47052 -8.1979551
-58.267689 -131.50421 -8.2599955
-57.143646 -131.56735 -8.2843475
-55.721443 -131.5741 -8.3300095
-59.373116 -131.43225 -8.4378529
-59.075859 -131.48026 -8.5572672
-57.403465 -131.50963 -8.4897985
-56.696049 -131.55727 -8.5221758
-56.142044 -131.56004 -8.589756
-55.870293 -131.57925 -8.4693193
-55.336609 -131.57521 -8.4964161
-54.625641 -131.59032 -8.5062332
-59.876003 -131.40088 -8.6772976
-58.576881 -131.44601 -8.6246767
-58.222816 -131.46124 -8.6494598
-55.15303 -131.59485 -8.6485586
-58.134705 -131.49307 -8.8809671
-57.68972 -131.48491 -8.9637585
-57.412109 -131.4709 -8.9164925
-56.588383 -131.5146 -8.8806868
-56.355354 -131.50507 -8.933383
-55.822243 -131.51651 -8.9415016
-55.536221 -131.54408 -8.9317102
-55.075031 -131.5657 -8.931036
-58.646049 -131.40948 -9.3651915
-57.762627 -131.45851 -9.316
-57.009476 -131.48978 -9.3502626
-55.111324 -131.57823 -9.5533218
-54.663807 -131.59108 -9.4311771
-54.100861 -131.59616 -9.4285774
-55.841156 -131.50775 -9.7485428
-55.342297 -131.52313 -9.7492599
-54.973198 -131.55655 -9.6783848
-54.04747 -131.34863 -4.7877221
-53.708771 -131.33264 -4.7390909
-56.555626 -131.22072 -5.5735712
-57.698425 -131.25455 -5.7074819
-56.623539 -131.27219 -5.8305268
-53.816616 -131.35515 -5.9419179
-53.386738 -131.36906 -5.8613958
-59.754501 -131.36925 -6.5852418
-57.021072 -131.25702 -6.578795
-56.531555 -131.30885 -6.6094351
-49.904461 -131.38623 -7.2208052
-56.455105 -131.39421 -7.4525428
-54.078941 -131.31238 -7.4242568
-53.549244 -131.37782 -7.4478202
-59.360703 -131.36893 -9.2883615
-59.294216 -131.32669 -10.31191
-53.080109 -131.25526 -10.355658
-58.823589 -131.38753 -10.596305
-59.919464 -131.09076 -5.8695931
-57.000103 -131.17938 -5.8449888
-59.933395 -131.09964 -6.1040859
-59.845516 -131.17039 -6.5893168
-59.962738 -131.16389 -6.9214149
-59.837982 -131.10028 -7.384306
-56.978142 -131.04834 -7.457478
-59.70821 -139.83659 -3.7964339
-43.447685 -139.81535 -3.7991841
-56.769188 -139.46907 -3.795465
-56.21756 -139.40419 -3.8004291
-41.887573 -139.49881 -3.923841
-46.065166 -139.25241 -3.7299831
-50.772335 -139.38206 -9.8031635
-54.046341 -139.14307 -3.826257
-52.814331 -139.17867 -3.8149409
-53.255219 -138.9929 -3.8226509
-51.228729 -138.83868 -10.284398
-55.58609 -138.71451 -3.7096541
-54.580063 -138.61929 -3.7572789
-51.979733 -138.73219 -10.080473
-55.892891 -138.51122 -3.708318
-46.755241 -138.59337 -3.7974291
-42.781162 -138.4025 -3.6950591
-58.237137 -138.57082 -3.810003
-50.333672 -138.49464 -9.5316553
-55.857552 -138.28123 -3.683758
-55.442146 -138.35771 -3.679651
-54.720589 -138.30136 -3.741554
-47.826702 -138.30722 -3.740576
-52.51796 -138.28836 -9.9884319
-51.891869 -138.35225 -10.391449
-52.040176 -138.11021 -3.7915621
-50.656944 -138.13074 -3.6757481
-45.080257 -138.13611 -3.697691
-43.932716 -138.18114 -3.686429
-57.844345 -137.92676 -3.7326169
-56.004242 -137.89345 -3.6570921
-55.044106 -137.86224 -3.7657299
-53.489307 -137.8266 -3.7739201
-42.940395 -137.79039 -3.7226789
-55.04855 -137.43655 -3.793891
-45.752956 -137.47842 -3.6326039
-42.510384 -137.44528 -3.6663849
-52.931747 -137.41783 -10.104946
-57.732006 -137.28482 -3.6933739
-45.44812 -137.31622 -3.6383829
-54.709084 -137.31807 -3.8391349
-56.958885 -137.00256 -3.671731
-56.112419 -137.10724 -3.680393
-45.410988 -137.08261 -3.6281779
-54.341347 -137.13556 -3.8973639
-53.026474 -137.10309 -10.409551
-58.52766 -136.91313 -3.7067771
-56.216187 -136.94353 -3.6756041
-54.869209 -136.90491 -4.0977139
-54.865326 -136.89665 -4.4569502
-54.4711 -136.87274 -4.6744661
-54.522285 -136.83203 -4.9629612
-53.742752 -136.99356 -8.065671
-52.039635 -136.62228 -3.7331159
-45.919075 -136.63406 -3.6325071
-54.705822 -136.74826 -4.6958899
-54.345779 -136.68633 -5.942431
-54.159561 -136.70702 -6.5995669
-53.997356 -136.78816 -7.2588801
-50.426247 -136.53889 -3.6572311
-55.037342 -136.50342 -4.3006949
-55.016815 -136.52301 -4.6359682
-54.904739 -136.59958 -4.883544
-55.654518 -136.52617 -9.4820347
-59.330666 -136.28409 -3.795404
-50.273109 -136.22017 -3.6249571
-47.944714 -136.31934 -3.603272
-45.951653 -136.28305 -3.6407011
-58.930779 -136.27902 -3.818666
-55.046631 -136.27347 -5.400692
-55.105835 -136.27444 -5.9675422
-55.12133 -136.22171 -7.7589259
-53.239037 -136.38799 -8.5428972
-50.869701 -136.1808 -3.6667571
-50.747444 -136.0033 -3.627794
-55.203541 -136.0903 -7.1572218
-55.162296 -136.10953 -9.2950268
-56.91888 -135.8775 -3.756515
-47.401482 -135.80544 -3.61042
-46.121536 -135.93738 -3.663415
-56.306507 -135.85069 -9.6697998
-55.56786 -135.88652 -9.7502623
-49.846619 -135.75984 -3.6200049
-56.026718 -135.7233 -8.9885073
-56.058216 -135.67552 -9.3276176
-52.848717 -135.76843 -9.3970613
-45.626369 -135.53511 -3.5679719
-55.500671 -135.42413 -7.1185069
-55.547886 -135.47766 -7.460619
-57.347195 -135.3972 -3.7324381
-57.116055 -135.02432 -9.8492289
-44.915371 -134.9753 -3.5967059
-55.931721 -134.86201 -9.626214
-46.201588 -134.65698 -3.647105
-57.372757 -134.48578 -3.6966081
-56.944374 -134.35524 -3.6853919
-47.206486 -134.07339 -3.5389979
-45.434006 -134.15291 -3.5552809
-54.691578 -134.16521 -3.6810229
-59.615929 -133.89951 -10.028052
-50.547974 -133.71257 -3.574048
-51.48233 -133.71567 -3.8327601
-59.197258 -133.65355 -9.4890442
-52.57621 -133.46011 -3.556071
-52.20927 -133.44333 -3.8856349
-57.945339 -133.20837 -3.5398359
-56.886105 -133.38286 -3.546407
-52.50285 -133.28024 -4.0557642
-52.263947 -133.32439 -4.3043199
-52.556141 -133.3252 -4.5648041
-51.669449 -133.28528 -4.6906862
-51.490768 -133.33316 -5.1297989
-50.248932 -133.27686 -5.154984
-51.808659 -133.27042 -5.534781
-52.54567 -133.26958 -5.7521372
-49.548008 -133.32828 -5.7684579
-55.614037 -133.19914 -3.515697
-50.991951 -133.08028 -4.20011
-49.551544 -133.10333 -5.0238962
-50.948303 -133.12195 -5.8654008
-41.122299 -133.02298 -7.34691
-40.663467 -133.01117 -7.3567328
-52.522362 -132.8907 -3.567929
-52.560596 -132.92265 -3.8704109
-50.493484 -132.92386 -5.46734
-49.532578 -132.98627 -5.7536769
-42.123146 -132.90013 -7.3958292
-44.852173 -132.80728 -7.4102769
-41.156406 -132.70985 -3.3467441
-56.209835 -132.60995 -3.4155431
-49.559444 -132.75546 -4.2577939
-49.547783 -132.61864 -4.6971898
-44.526947 -132.66895 -4.9316621
-42.215538 -132.79594 -4.946825
-47.520096 -132.68332 -7.5922732
-54.018173 -132.42819 -3.351635
-45.532341 -132.52393 -3.548322
-54.066795 -132.4736 -3.6300981
-45.383064 -132.58417 -4.1135578
-46.937965 -132.49532 -4.6115408
-40.208443 -132.4379 -5.033092
-50.572498 -132.47816 -6.166368
-45.464134 -132.55795 -6.9990029
-45.133263 -132.59074 -7.011734
-51.011345 -132.53641 -7.5775199
-53.425743 -132.47046 -7.625596
-54.96344 -132.3172 -3.3915009
-55.240177 -132.37439 -3.405484
-53.550655 -132.39697 -3.5944941
-42.632042 -132.23972 -3.885354
-41.443207 -132.26065 -3.9502151
-48.964127 -132.26158 -4.177588
-42.162212 -132.27457 -4.0242009
-41.770493 -132.2822 -4.029922
-52.992477 -132.22058 -4.479075
-52.562576 -132.32809 -4.5100141
-43.029781 -132.26659 -4.9708719
-41.346676 -132.22595 -6.105639
-41.421364 -132.20345 -6.9704032
-45.991714 -132.29654 -7.359571
-55.40192 -132.33875 -7.5410562
-53.375576 -132.20508 -7.510807
-59.012833 -132.22733 -7.7238269
-58.506241 -132.26425 -7.6809301
-57.852684 -132.28133 -7.6920109
-56.512901 -132.31644 -7.6824932
-55.251236 -132.10814 -3.387557
-59.361912 -132.04636 -3.500654
-44.601044 -132.15784 -3.6768651
-44.078392 -132.18854 -4.0335879
-53.460316 -132.09999 -4.383688
-52.578079 -132.16249 -5.0443149
-51.826324 -132.07169 -6.3057089
-46.038139 -132.02753 -7.3160338
-44.739616 -132.05774 -7.753036
-42.619522 -132.12718 -7.7599258
-43.287807 -132.0918 -7.975812
-45.825134 -132.02374 -8.1779156
-42.227615 -132.14801 -8.3611336
-41.37286 -132.18407 -8.4747171
-43.510262 -132.06528 -9.0414238
-42.875755 -132.11699 -9.1815662
-42.184685 -132.08234 -10.241361
-45.392284 -132.01019 -11.24454
-57.713638 -131.85956 -3.4654441
-57.910332 -131.81422 -4.563642
-48.184555 -131.87419 -4.4944801
-58.114025 -131.95595 -4.6436839
-48.328423 -131.99455 -4.9997339
-53.012569 -131.84885 -5.0097198
-46.373665 -131.8494 -5.0016699
-52.552795 -131.88336 -5.3409882
-46.407463 -131.91289 -5.4902868
-46.36264 -131.94308 -5.9934459
-40.126659 -131.88101 -6.125443
-52.374767 -131.8786 -6.3038082
-50.442413 -131.90773 -6.3320231
-49.730247 -131.9165 -6.3212681
-46.408138 -131.85802 -6.3777761
-43.124672 -131.9194 -6.6403379
-40.099823 -131.94586 -6.854856
-43.381966 -131.83688 -7.0514159
-49.491982 -131.86575 -7.3607841
-48.728188 -131.88742 -7.212853
-50.249584 -131.81033 -7.928185
-46.987255 -131.93071 -7.9409332
-46.336975 -131.97238 -7.9753022
-48.150116 -131.91138 -8.0931969
-52.215244 -131.87762 -8.3243046
-49.756207 -131.80737 -8.5946474
-45.147728 -131.97078 -8.7201557
-45.111488 -131.93996 -9.1785069
-44.875996 -131.98573 -9.9215384
-49.013699 -131.81454 -10.544237
-54.285011 -131.77306 -3.5360401
-54.094368 -131.75049 -3.774971
-57.725327 -131.61632 -3.855274
-54.887028 -131.73335 -3.8132019
-54.407059 -131.72906 -3.8018861
-59.218697 -131.67374 -4.0435958
-58.500397 -131.6095 -4.0983109
-57.430008 -131.62782 -4.2644901
-55.771641 -131.67461 -4.2887769
-55.362148 -131.71136 -4.3156409
-54.996613 -131.7258 -4.29877
-54.134243 -131.74605 -4.3449588
-58.971233 -131.62291 -4.506186
-56.196178 -131.63158 -5.015326
-55.82634 -131.65628 -5.0549302
-53.798355 -131.73624 -5.1057491
-52.894341 -131.76305 -5.1251769
-58.438099 -131.62885 -5.3287959
-56.170849 -131.62485 -5.539011
-54.627823 -131.68689 -5.5999479
-55.542397 -131.6438 -5.6531501
-54.9235 -131.66711 -5.6928458
-54.593227 -131.6606 -5.6961188
-52.575356 -131.7226 -5.9501748
-46.469521 -131.78839 -5.947691
-55.839428 -131.61523 -6.2413921
-55.548515 -131.6246 -6.2509508
-46.87944 -131.68916 -6.5949192
-54.887669 -131.62984 -6.7088642
-46.474453 -131.66484 -6.9684491
-54.137405 -131.77354 -7.5343428
-51.79715 -131.74216 -7.76683
-54.987648 -131.6272 -8.3426933
-51.718925 -131.74948 -8.3656301
-54.588131 -131.62943 -8.610157
-54.903267 -131.64209 -9.3713636
-53.368237 -131.64188 -9.3156662
-55.838833 -131.61725 -9.4316473
-55.259098 -131.65363 -9.4719963
-52.981209 -131.73453 -9.4022865
-59.086189 -131.53893 -3.54459
-57.464405 -131.59439 -3.8527789
-59.287521 -131.56335 -4.1429229
-58.217922 -131.57814 -4.0515642
-58.986359 -131.56735 -4.2447662
-58.115646 -131.55049 -5.1683168
-56.016369 -131.5629 -5.4187851
-58.510914 -131.49365 -5.852808
-56.105553 -131.59711 -5.8395038
-54.495152 -131.58043 -5.9288068
-58.198788 -131.51674 -6.1000938
-54.781311 -131.59924 -6.027658
-59.376434 -131.45294 -6.5481801
-58.171673 -131.50114 -6.6211009
-58.571487 -131.50024 -6.892324
-50.2873 -131.46233 -7.385438
-53.459534 -131.45493 -7.4676738
-57.802181 -131.52133 -7.7855549
-57.836884 -131.49379 -8.3018646
-58.549812 -131.44839 -8.6905384
-53.887878 -131.5947 -9.1847649
-58.917213 -131.4512 -9.4119492
-58.722614 -131.44287 -10.170887
-57.965103 -131.42288 -10.151143
-53.03989 -131.49979 -10.168064
-55.495697 -131.52391 -10.299225
-54.923325 -131.54103 -10.474352
-56.943756 -131.30339 -5.5560069
-56.561646 -131.20087 -5.8229971
-53.714493 -131.26233 -6.1188192
-53.200615 -131.32358 -6.9429512
-59.745911 -131.39862 -8.0380774
-56.676514 -131.1676 -5.8747268
-57.323296 -131.10837 -7.453517
-55.838818 -139.82797 -3.8111119
-49.444401 -139.87335 -8.6273556
-56.735043 -139.67862 -3.8151841
-56.088181 -139.71394 -3.814362
-55.362114 -139.78185 -3.80056
-49.606071 -139.75093 -3.944489
-45.007473 -139.56161 -3.7522991
-50.698444 -139.4581 -10.499817
-47.07135 -139.26791 -3.7874899
-43.768417 -139.16937 -3.7513349
-58.055145 -139.0128 -3.8330159
-50.063759 -139.08266 -8.3097229
-49.983559 -139.15503 -8.4286966
-59.076454 -138.97995 -3.776063
-55.032112 -138.965 -3.833004
-52.466579 -138.85289 -10.311498
-59.755314 -138.69196 -3.795563
-59.077988 -138.70435 -3.7579861
-46.244102 -138.56448 -3.7460229
-44.949684 -138.59418 -3.6817911
-44.122826 -138.51883 -3.6678121
-59.65202 -138.03094 -3.760165
-59.32996 -138.19766 -3.7524559
-56.196323 -138.06784 -3.664525
-55.638084 -138.17456 -3.662472
-54.210472 -138.07794 -3.7654059
-53.294189 -138.17862 -3.7514341
-52.620941 -138.12521 -10.039972
-58.30978 -137.86041 -3.7346711
-47.447502 -137.93492 -3.685899
-52.319286 -137.97223 -9.262207
-52.587269 -137.83215 -10.07592
-54.566204 -137.7094 -3.786845
-52.788948 -137.6731 -9.1995287
-53.84716 -137.40311 -3.792053
-51.799213 -137.47905 -3.682009
-54.209435 -137.46335 -3.8257329
-52.693302 -137.51817 -9.9314041
-47.130386 -137.4453 -9.8911314
-45.57571 -137.25047 -3.5938511
-44.661652 -137.35179 -3.688302
-53.019356 -137.38098 -9.1339493
-45.870628 -137.0195 -3.6057971
-53.329037 -137.06152 -9.8445606
-53.154442 -137.15253 -9.9533844
-46.747353 -136.81612 -3.6802509
-55.636147 -136.96228 -3.826339
-54.540565 -136.97064 -3.9477561
-54.927898 -136.84705 -4.2942338
-54.465679 -136.86288 -4.491375
-53.912868 -136.95969 -6.6310868
-53.93779 -136.94366 -7.3175559
-53.837158 -136.96286 -7.8644471
-53.834709 -136.99702 -8.0164413
-45.167175 -136.79237 -3.570586
-46.762844 -136.72499 -3.6292341
-54.492516 -136.79012 -4.365478
-54.414551 -136.71732 -5.759366
-58.735153 -136.56001 -3.7390571
-56.15382 -136.54274 -3.767895
-49.767586 -136.52548 -3.6456251
-55.027405 -136.4248 -4.4256411
-57.285389 -136.47612 -10.000882
-46.987152 -136.21848 -3.5773909
-46.719109 -136.2939 -3.625385
-55.026592 -136.20715 -3.9188001
-54.698353 -136.30191 -4.2261562
-55.076374 -136.36247 -5.68572
-55.069187 -136.31099 -6.1821222
-55.072067 -136.22935 -7.0573959
-54.88483 -136.30429 -7.2873321
-48.226418 -136.04889 -3.594651
-56.486744 -136.18776 -3.7738321
-56.257572 -136.11151 -3.787307
-56.042362 -136.18065 -3.778131
-54.735924 -136.11861 -3.98826
-55.428757 -136.03445 -7.6569972
-56.089218 -136.02931 -9.7158089
-47.461628 -135.90833 -3.575201
-46.851799 -135.94606 -3.577167
-46.276619 -135.93643 -3.5270879
-56.391289 -135.87476 -3.7896681
-52.249916 -135.87738 -9.1580343
-47.851662 -135.51633 -3.5936699
-46.749283 -135.54752 -3.5408559
-45.594528 -135.54262 -3.601424
-55.634544 -135.52762 -7.091742
-57.601677 -135.29047 -9.7081795
-55.718834 -135.12796 -7.164351
-54.401154 -134.72639 -3.5555799
-48.219898 -134.6002 -3.556339
-56.899963 -134.66913 -3.7228961
-47.19463 -134.38374 -3.459574
-57.329643 -134.22838 -3.6963849
-52.498459 -133.69373 -5.8607621
-49.634781 -133.75409 -5.8245502
-50.03791 -133.45897 -3.5155859
-46.177208 -133.52995 -3.4729559
-57.489418 -133.51962 -3.6080849
-49.774513 -133.50414 -3.6908309
-50.674782 -133.41348 -3.8614309
-50.192089 -133.45746 -3.8409679
-51.539654 -133.42334 -4.212985
-58.913094 -133.49736 -9.9529619
-43.360836 -133.33122 -3.3321741
-57.685764 -133.39954 -3.650593
-52.577816 -133.29642 -3.6377311
-52.576157 -133.28333 -3.914191
-49.575878 -133.37286 -4.3433599
-52.568703 -133.26541 -4.7247791
-52.619389 -133.30879 -5.1404939
-52.257256 -133.26555 -5.531992
-50.125786 -133.32437 -5.7780399
-49.409443 -133.3324 -6.004631
-49.547237 -133.04095 -4.274837
-50.978065 -133.06766 -5.5377851
-56.654892 -132.80331 -3.4661419
-50.997929 -132.99084 -4.5535021
-52.554176 -132.60004 -3.5583191
-42.230007 -132.78485 -4.3861651
-52.596207 -132.61719 -5.0867591
-49.525349 -132.68974 -5.813962
-46.121281 -132.70503 -7.3677702
-47.009293 -132.74506 -7.5822992
-44.996067 -132.784 -7.4683971
-44.578381 -132.64882 -7.4259658
-54.207756 -132.40587 -3.5755119
-45.828007 -132.52199 -5.877357
-51.33852 -132.47168 -6.180294
-45.6586 -132.54318 -6.8999858
-54.441166 -132.41238 -7.538013
-53.779716 -132.41122 -7.652194
-43.04129 -132.28635 -3.3818309
-54.180771 -132.29468 -3.544008
-42.588226 -132.2012 -3.476392
-42.130749 -132.25446 -3.403399
-43.806622 -132.20285 -3.748244
-54.100887 -132.32115 -3.8174961
-53.845322 -132.30486 -3.8252139
-40.591331 -132.30658 -4.1737518
-40.171764 -132.31586 -4.2599878
-53.54932 -132.22778 -4.7073851
-40.378128 -132.34534 -4.6315999
-52.579353 -132.20522 -5.7047639
-52.55397 -132.22214 -6.2594819
-49.269386 -132.22139 -6.2482772
-56.309273 -132.34486 -7.5470352
-58.143211 -132.22871 -7.7793169
-54.434761 -132.39517 -7.6262259
-41.049324 -132.21005 -7.9456468
-40.668335 -132.2137 -7.883337
-40.386383 -132.22128 -8.0137625
-59.05212 -132.13716 -3.4864869
-56.934433 -132.15335 -3.439569
-54.16671 -132.19435 -3.7837551
-46.19458 -132.07378 -4.0677562
-48.673836 -132.15845 -4.2514181
-45.530243 -132.17331 -4.5918341
-46.418839 -132.01227 -4.9797549
-46.149647 -132.07196 -4.971221
-45.444321 -132.17798 -5.0087438
-52.981274 -132.03255 -5.4203038
-45.539978 -132.11696 -6.5172701
-41.910103 -132.15947 -6.988009
-41.703606 -132.14946 -7.545361
-40.608681 -132.18103 -7.4933081
-59.727345 -132.17438 -7.709856
-45.111687 -132.04538 -7.794147
-44.350445 -132.07114 -7.7763348
-45.45314 -132.0452 -7.803555
-44.56646 -132.06946 -8.1861343
-44.087715 -132.06981 -8.1624517
-45.81076 -132.01501 -8.5392036
-45.513935 -132.09901 -8.5570068
-42.255569 -132.14107 -8.5161304
-42.159134 -132.12885 -8.8619318
-45.468002 -132.07796 -9.1900101
-43.7472 -132.05569 -9.2167587
-41.333984 -132.13391 -10.348623
-45.511421 -132.10452 -10.554683
-42.628723 -132.01669 -11.475706
-54.157829 -131.92307 -3.569293
-47.869087 -131.80829 -4.483429
-59.839016 -131.98679 -4.773787
-58.501564 -131.92987 -4.6573172
-58.55233 -131.95386 -5.0627718
-47.846897 -131.98752 -5.040205
-53.401558 -131.83847 -5.4591079
-53.13979 -131.87628 -5.4086428
-52.64193 -131.86075 -5.7101669
-40.125214 -131.89742 -5.8624668
-50.163483 -131.85953 -6.337389
-49.003326 -131.88907 -6.3697891
-48.229053 -131.88016 -6.3598251
-52.442917 -131.86203 -6.4935479
-48.165401 -131.92703 -6.5493259
-49.436852 -131.88257 -6.6641669
-53.117676 -131.94878 -6.879508
-46.219074 -131.93591 -6.9842172
-49.446686 -131.86642 -7.1241698
-49.018627 -131.88016 -7.1488242
-43.630444 -131.81155 -7.0359049
-51.423183 -131.80536 -7.3667579
-47.456139 -131.86105 -7.3095522
-46.909149 -131.84438 -7.2709241
-52.18499 -131.86839 -7.5689669
-49.77264 -131.82503 -7.9350071
-49.371658 -131.82446 -7.9318571
-45.944065 -131.98643 -7.9961619
-49.054214 -131.8815 -8.0335445
-46.209087 -131.93791 -8.1503782
-51.973457 -131.82109 -8.3486347
-45.610584 -131.9512 -8.2244167
-47.054741 -131.89101 -8.9853725
-52.214363 -131.81024 -9.4619026
-45.562099 -131.96979 -10.315138
-58.128826 -131.62149 -3.531673
-56.665356 -131.78415 -3.4785011
-54.956516 -131.75241 -3.5779331
-53.72348 -131.78355 -3.7662361
-56.154079 -131.67203 -3.8690529
-55.678513 -131.69769 -3.8671701
-55.376476 -131.69922 -3.8567259
-54.655193 -131.73111 -3.83917
-53.872711 -131.75876 -3.8614969
-58.181786 -131.61217 -4.287384
-54.545731 -131.73099 -4.3585782
-53.86158 -131.75449 -4.3699961
-55.890182 -131.66925 -4.4999642
-59.14222 -131.65115 -4.8615589
-56.488998 -131.6123 -5.0777059
-55.043419 -131.68286 -5.034709
-54.842384 -131.68997 -5.0313721
-54.193203 -131.72327 -5.1098032
-54.90332 -131.67064 -5.5972762
-54.25309 -131.71017 -5.671011
-43.655701 -131.78558 -6.0210361
-55.584335 -131.60614 -6.745513
-51.659813 -131.75195 -6.8054919
-49.767216 -131.65436 -7.3815932
-55.128643 -131.62379 -7.5030832
-54.65593 -131.61995 -7.4463258
-51.388256 -131.74133 -8.359642
-51.034958 -131.78549 -8.3664932
-54.252304 -131.64227 -8.5086861
-52.717751 -131.72507 -8.5876884
-52.196266 -131.72011 -8.4699287
-55.466759 -131.61855 -8.6275225
-53.466778 -131.672 -8.6927204
-53.880272 -131.68562 -8.8296137
-52.567696 -131.62628 -8.9284449
-51.824738 -131.73013 -8.9068699
-51.278931 -131.7605 -8.9475985
-54.538498 -131.65004 -9.3866472
-51.758942 -131.79663 -9.4997129
-52.733181 -131.66666 -9.6649265
-52.931816 -131.62531 -10.122091
-49.385288 -131.77139 -10.669348
-59.411552 -131.52637 -3.516994
-59.79937 -131.53169 -3.838367
-58.196178 -131.57733 -3.904907
-58.581909 -131.55737 -4.1892791
-57.275806 -131.5705 -4.0382781
-53.52153 -131.49643 -4.9403791
-57.395531 -131.56566 -5.160531
-58.108543 -131.53387 -5.7394748
-56.221863 -131.59863 -5.620121
-54.351345 -131.54605 -5.8569498
-53.809471 -131.46141 -5.8271561
-56.267639 -131.57288 -6.134789
-55.376999 -131.58673 -6.7144318
-55.636932 -131.56653 -6.815743
-50.546646 -131.40134 -7.0247192
-50.24411 -131.45784 -7.103034
-53.226429 -131.43971 -7.462554
-58.979366 -131.44855 -7.9400539
-58.399803 -131.48051 -7.969604
-55.722504 -131.57072 -8.3005352
-59.480103 -131.41278 -8.5518665
-57.348553 -131.51982 -8.5045624
-59.017754 -131.47626 -8.6233826
-58.267742 -131.45053 -8.7222948
-59.390526 -131.42981 -8.8294792
-58.967499 -131.42134 -8.8558426
-58.555794 -131.41183 -8.8720894
-58.105881 -131.47272 -8.8543262
-55.778206 -131.54839 -9.0934696
-55.398746 -131.55792 -9.1136513
-54.670303 -131.59006 -9.287714
-54.168064 -131.59274 -9.3929367
-52.754738 -131.59868 -9.2865019
-56.672668 -131.54242 -9.4343948
-58.169876 -131.46118 -9.6551838
-55.035492 -131.5188 -9.7360315
-53.019989 -131.54103 -9.6960955
-57.96645 -131.43027 -10.808307
-46.344795 -131.59396 -10.862914
-53.671097 -131.32217 -4.6538849
-53.819672 -131.36761 -5.0227189
-59.709999 -131.39537 -5.5557122
-57.46854 -131.22739 -5.8036852
-57.246094 -131.21248 -6.07968
-54.171627 -131.27032 -6.143147
-53.322159 -131.30966 -6.6911941
-53.709347 -131.31711 -6.8919258
-56.513836 -131.39204 -7.3080459
-53.809395 -131.27261 -7.4844952
-53.279034 -131.33519 -9.6689043
-59.042011 -131.36343 -10.203459
-58.616913 -131.38441 -10.607225
-57.468834 -131.18597 -5.558702
-59.885933 -131.14517 -7.4622731
-56.587578 -131.14264 -7.45859
-52.144112 -130.1044 -10.59444
-44.50716 -139.82526 -3.768338
-56.869007 -139.80017 -3.8292611
-42.145134 -139.87927 -3.9538629
-50.223713 -139.83499 -9.4163971
-53.046806 -139.97896 -10.244001
-45.562584 -139.75775 -3.7447319
-55.460506 -139.67195 -3.804004
-44.247818 -139.44582 -3.7140839
-59.696899 -139.42741 -3.818866
-50.346169 -139.40155 -9.488636
-46.566238 -139.34683 -3.7644489
-58.585842 -139.32309 -3.8071139
-48.689102 -139.23363 -3.8716979
-50.120087 -139.28017 -8.8221159
-57.049843 -139.04684 -3.7772441
-55.729546 -139.04619 -3.762387
-44.175407 -139.08295 -3.7345281
-50.214542 -139.04541 -10.363234
-49.919617 -138.83685 -3.695868
-45.34808 -138.9476 -3.7314091
-55.39336 -138.85971 -3.8139369
-50.279106 -138.8407 -9.0081434
-43.808525 -138.6709 -3.718461
-54.102497 -138.44109 -3.7859111
-51.105579 -138.44795 -3.7279911
-50.291893 -138.5842 -3.69473
-47.360954 -138.41306 -3.723259
-46.972054 -138.49283 -3.719578
-45.454105 -138.45374 -3.7153299
-57.467983 -138.20944 -3.732697
-52.28223 -138.21028 -10.297676
-59.02552 -138.14583 -3.7359769
-52.748245 -138.00641 -9.3450928
-45.107346 -137.9613 -3.6903019
-44.165337 -137.93018 -3.650969
-50.359009 -137.998 -3.8098209
-52.668068 -137.88463 -9.2803192
-52.596489 -137.89014 -9.9360294
-47.189083 -137.94737 -10.683825
-45.416206 -137.70177 -3.6931441
-45.349586 -137.53766 -3.640667
-59.818001 -137.44414 -3.834877
-49.576908 -137.34053 -3.6855061
-52.667282 -137.39359 -9.4181156
-45.94854 -137.06384 -3.598757
-58.678055 -137.10632 -3.7415709
-55.813133 -137.1602 -3.781785
-55.016762 -137.01959 -3.868567
-52.92244 -137.13474 -10.026666
-59.646912 -136.99629 -3.7768941
-55.803192 -136.88449 -3.7866299
-54.962418 -136.84575 -3.9262991
-54.908852 -136.80296 -4.6216669
-54.076653 -136.868 -6.9795809
-59.68034 -136.74866 -3.7550709
-59.17281 -136.78535 -3.7567179
-48.60516 -136.64644 -3.6370821
-46.047585 -136.5235 -3.5869529
-58.288185 -136.5509 -3.718035
-49.101364 -136.5347 -3.655304
-55.013855 -136.43677 -5.9233999
-55.719891 -136.45947 -9.765892
-56.234985 -136.2045 -3.730705
-54.847702 -136.33774 -4.275394
-54.879005 -136.34645 -6.635509
-55.387459 -136.1037 -9.0669708
-52.938248 -136.15302 -10.030857
-48.362396 -135.94913 -3.5928891
-57.729214 -135.91957 -3.673856
-56.631668 -135.82016 -3.7972691
-45.822968 -135.86954 -3.638063
-59.5056 -135.85214 -3.8522429
-54.936462 -135.87308 -3.8464379
-55.581665 -135.98708 -9.3274155
-52.921925 -135.88274 -9.9722366
-46.605942 -135.73358 -3.547811
-56.897308 -135.74399 -3.788209
-55.906425 -135.74634 -9.4768734
-55.736259 -135.79547 -9.8318176
-47.872169 -135.53601 -3.683912
-56.871613 -135.46164 -3.8065021
-55.810265 -135.4306 -9.6212063
-55.992287 -135.48024 -10.194122
-56.936562 -135.34901 -3.788671
-56.225609 -135.25009 -9.8856382
-45.795574 -135.17232 -3.595643
-58.129372 -135.08879 -3.786129
-46.254982 -135.16592 -3.6068821
-55.436535 -135.07529 -7.0041938
-55.625999 -135.06833 -7.4163809
-55.935318 -135.18303 -9.5997295
-59.491707 -135.08696 -9.9770241
-47.053341 -134.86752 -3.636847
-46.491158 -134.97893 -3.6529641
-49.604992 -134.66127 -3.6275401
-46.468845 -134.43964 -3.567306
-43.184319 -134.40591 -3.559077
-56.180775 -134.56219 -3.6727231
-56.702923 -134.25198 -3.695199
-54.77697 -134.32541 -3.6652739
-57.263157 -134.0407 -3.636677
-54.853771 -134.19293 -3.6578879
-55.632969 -133.91849 -3.5849819
-46.745457 -133.99716 -3.5485439
-59.319935 -133.82602 -3.7033789
-57.791893 -133.83701 -3.6303461
-55.99308 -133.82124 -3.606287
-49.630711 -133.80466 -3.709938
-59.372986 -133.823 -10.061424
-57.461105 -133.75142 -3.627526
-51.805805 -133.69574 -3.8160739
-50.603416 -133.74338 -4.0683708
-50.480957 -133.48175 -3.5453379
-52.54081 -133.47795 -3.857821
-59.583817 -133.55089 -9.6737614
-55.802872 -133.38535 -3.543762
-50.984871 -133.39355 -3.8156271
-52.600513 -133.22128 -4.5478592
-51.465897 -133.29877 -4.6884441
-52.555962 -133.23169 -5.4934592
-51.6661 -133.30295 -5.8630128
-48.193062 -133.06601 -3.39095
-43.141048 -133.04968 -3.316417
-52.610474 -133.12294 -4.4921932
-55.394817 -132.89282 -3.441879
-52.559326 -132.9292 -5.509973
-42.574894 -132.88298 -7.3925881
-57.64563 -132.66809 -3.5049009
-56.624268 -132.67273 -3.455826
-52.550011 -132.64178 -4.3586588
-42.94379 -132.74274 -4.3947902
-42.562283 -132.74118 -4.3884802
-43.883354 -132.68985 -4.546205
-44.32682 -132.71927 -4.9514799
-52.554108 -132.67599 -5.4895759
-46.579243 -132.50021 -4.54076
-46.341824 -132.50323 -4.5705652
-43.064968 -132.44293 -5.5477738
-45.289864 -132.55501 -6.0215611
-42.93026 -132.5153 -6.091888
-42.486641 -132.55766 -6.1158071
-49.232216 -132.58961 -7.4862428
-56.669453 -132.28612 -3.4267001
-41.489265 -132.28635 -3.451318
-54.072903 -132.23167 -3.759304
-43.369507 -132.23381 -3.6472189
-53.53727 -132.31403 -3.808054
-43.384003 -132.22552 -3.806366
-42.157932 -132.23888 -3.917815
-40.985222 -132.29099 -4.101799
-47.150734 -132.25092 -4.5697069
-41.037651 -132.2856 -4.5196471
-43.499371 -132.3076 -5.027122
-41.770039 -132.20224 -5.933764
-52.598316 -132.21149 -6.98843
-52.866165 -132.3735 -7.4713569
-57.201569 -132.26494 -7.6189961
-53.447624 -132.39909 -7.6581059
-40.619141 -132.21739 -8.5329475
-46.406803 -132.06013 -3.487411
-46.100468 -132.06494 -3.476522
-43.723717 -132.17944 -3.455044
-46.959923 -132.08218 -4.067472
-48.379097 -132.08051 -4.42767
-52.800117 -132.17975 -4.6989102
-52.549812 -132.12993 -4.691956
-45.799625 -132.1142 -4.6289749
-59.548836 -132.02034 -5.0585308
-58.500206 -132.01468 -5.0332441
-58.12191 -132.01685 -5.0496812
-57.871521 -132.0168 -5.0854688
-44.607845 -132.14969 -5.0140171
-44.096687 -132.1938 -5.011127
-46.222195 -132.01796 -5.976398
-45.89444 -132.10681 -5.8472219
-44.690918 -132.10034 -5.8435888
-43.004082 -132.10928 -5.8264351
-45.809795 -132.06441 -6.0122919
-52.316002 -132.09521 -6.2910519
-43.12648 -132.04137 -6.4422441
-52.508995 -132.14378 -6.625721
-42.644836 -132.12091 -6.915565
-45.519043 -132.09229 -7.3004088
-42.695694 -132.17647 -7.5245428
-42.941917 -132.10803 -8.3081608
-43.04586 -132.13326 -8.5391254
-41.814049 -132.1172 -8.4968872
-40.941437 -132.1774 -8.6061544
-42.563938 -132.11395 -8.8371353
-42.537663 -132.06149 -10.255651
-57.307892 -131.85861 -3.451339
-52.532654 -131.864 -3.9867561
-53.442165 -131.8643 -4.3474941
-47.566563 -131.98715 -4.340796
-49.958595 -131.92961 -4.5691729
-47.514252 -131.84792 -4.505003
-59.610588 -131.99747 -4.9948649
-59.789997 -131.95601 -5.104085
-57.749374 -131.87929 -5.1057138
-57.031738 -131.86172 -5.0357089
-52.636887 -131.86571 -5.0373082
-47.418743 -131.89752 -5.0038209
-51.93132 -131.92966 -6.2913499
-48.611427 -131.90889 -6.482307
-47.959198 -131.93887 -6.6767201
-48.797741 -131.81277 -7.153903
-49.09956 -131.91194 -7.3589878
-46.261131 -131.91856 -7.305366
-48.656864 -131.84512 -8.0370235
-47.745663 -131.93655 -8.0938368
-47.068428 -131.93271 -8.0438213
-47.402447 -131.97076 -8.348712
-49.029121 -131.84393 -8.679781
-47.806839 -131.94617 -8.607975
-46.724628 -131.93825 -8.7111263
-48.270294 -131.85342 -8.837882
-49.863331 -131.83591 -9.0950356
-50.186836 -131.91797 -9.4991817
-48.61253 -131.82507 -9.6619635
-45.279446 -131.95372 -9.8460093
-48.158779 -131.84871 -10.155941
-44.94392 -131.95129 -10.006094
-46.318371 -131.87497 -10.255102
-55.370705 -131.72775 -3.571142
-54.487801 -131.76593 -3.564213
-58.586662 -131.60812 -3.755384
-55.354118 -131.71532 -3.763701
-54.324371 -131.75287 -3.779561
-55.54538 -131.6864 -4.0367908
-58.963734 -131.62529 -4.32792
-56.193695 -131.67401 -4.2483988
-55.538383 -131.668 -4.2104812
-58.507244 -131.78992 -4.5903468
-57.383144 -131.66769 -5.328969
-54.519466 -131.7131 -5.3300338
-46.906223 -131.6729 -5.9744978
-55.877487 -131.63322 -6.087266
-55.440529 -131.62383 -6.1205239
-54.699875 -131.65877 -6.1953411
-53.200752 -131.61833 -6.079401
-51.533981 -131.75273 -6.1769848
-53.104324 -131.68437 -6.289041
-55.836269 -131.60623 -6.601233
-55.289627 -131.61337 -6.636775
-54.688606 -131.64075 -6.66186
-55.427883 -131.6192 -6.8323898
-59.752411 -131.75638 -7.580987
-54.172348 -131.67773 -7.851316
-53.439854 -131.72543 -7.914031
-53.15696 -131.74379 -7.9353681
-50.652992 -131.79283 -7.8784561
-54.628738 -131.64841 -8.2418022
-53.80072 -131.67332 -8.3535032
-53.407738 -131.70667 -8.3594046
-52.259022 -131.7892 -8.6661263
-55.413883 -131.61182 -8.9950972
-55.103687 -131.62221 -9.1926737
-49.743042 -131.67725 -9.8577194
-51.433098 -131.69516 -10.249002
-49.727325 -131.68993 -10.535974
-58.947151 -131.56822 -3.720454
-59.708126 -131.48987 -4.5524139
-55.966232 -131.58829 -4.6906228
-56.493523 -131.59314 -5.152812
-59.458477 -131.46638 -5.566988
-59.746574 -131.42863 -5.9078422
-59.024258 -131.47696 -6.0770259
-58.912163 -131.53447 -6.072763
-58.765549 -131.53323 -6.1114998
-55.020432 -131.57269 -6.1481948
-58.942123 -131.55402 -6.57476
-58.602928 -131.48328 -6.5893869
-55.070419 -131.59927 -6.7121758
-54.263042 -131.50252 -6.6596441
-59.371971 -131.44965 -7.030829
-49.824623 -131.48814 -7.0845642
-58.313591 -131.4798 -7.318522
-54.764091 -131.52179 -7.3993211
-58.983822 -131.49815 -7.4762039
-55.916698 -131.57785 -7.4707789
-55.44117 -131.59109 -7.418222
-58.141327 -131.48508 -8.1899834
-55.133095 -131.58182 -8.6350498
-56.896881 -131.50217 -8.9066849
-59.861149 -131.40564 -9.33428
-58.704838 -131.40662 -9.3767157
-57.372086 -131.46681 -9.2989397
-58.176102 -131.42218 -9.4064522
-58.949764 -131.45163 -9.7006264
-55.76091 -131.47821 -9.7423
-56.526825 -131.37061 -5.565496
-59.789551 -131.39349 -7.0138421
-56.929951 -131.29193 -7.4789748
-59.813286 -131.38507 -8.5410538
-54.051277 -131.25314 -9.6512661
-58.182793 -131.39719 -10.300321
-58.036942 -131.39125 -10.920069
-57.521576 -131.14575 -6.1228738
-57.365791 -131.07123 -6.6306372
-44.924034 -139.83348 -3.7662981
-46.043781 -139.66542 -3.757679
-54.400532 -139.70001 -3.833415
-53.855392 -139.74361 -3.8518469
-56.238098 -139.40862 -3.79895
-55.832397 -139.49106 -3.7864549
-43.490906 -139.4534 -3.763299
-55.484089 -139.48987 -3.8338261
-54.844589 -139.47314 -3.849591
-54.683716 -139.45959 -3.827909
-49.891911 -139.55676 -8.4916592
-43.759911 -139.2113 -3.7673621
-56.126221 -139.38696 -3.8097911
-49.784653 -139.33073 -8.9133902
-48.795673 -139.15192 -3.8706231
-44.578747 -138.94543 -3.688669
-53.879028 -138.93542 -3.8228741
-50.16819 -138.81874 -9.915288
-52.875931 -138.69566 -3.775013
-43.741673 -138.78362 -3.719991
-58.229637 -138.54645 -3.789495
-53.330181 -138.58881 -3.790431
-44.649616 -138.58971 -3.666589
-46.154652 -138.33098 -3.743439
-44.029594 -138.2081 -3.665071
-52.719936 -138.02649 -3.796705
-41.405846 -138.18277 -3.66278
-52.257561 -138.04854 -9.3349934
-58.180115 -137.81064 -3.7358429
-54.928955 -137.87463 -3.6984429
-53.818497 -137.83939 -3.78105
-48.507786 -137.86455 -10.493559
-59.858223 -137.61462 -3.799346
-59.616417 -137.63725 -3.786237
-58.862034 -137.61035 -3.735081
-57.074089 -137.67758 -3.668535
-54.123207 -137.66888 -3.7666349
-51.799576 -137.7879 -3.708957
-52.943569 -137.79831 -9.1068401
-59.460987 -137.47623 -3.7730491
-56.572014 -137.45695 -3.648385
-52.369331 -137.47917 -3.71332
-45.089027 -137.48122 -3.651669
-52.649918 -137.42578 -10.090932
-58.732414 -137.25064 -3.747942
-57.739483 -137.12051 -3.685452
-46.206398 -137.03877 -3.6418791
-55.435638 -137.03114 -3.8329229
-53.822014 -137.03751 -7.3502531
-53.704323 -137.01917 -7.2871642
-53.713936 -137.05586 -8.0666695
-53.519157 -137.04877 -8.2930946
-53.633408 -137.04959 -8.4759026
-53.326675 -137.08434 -9.3196754
-59.352058 -136.86191 -3.7489369
-58.970177 -136.94003 -3.751312
-49.900162 -136.95732 -3.71257
-54.465729 -136.80832 -4.2632341
-53.931301 -136.93172 -7.0340381
-54.018696 -136.88751 -7.2567821
-53.315155 -136.99506 -10.118955
-51.903866 -136.6553 -3.7508421
-55.515869 -136.70642 -3.8290989
-54.295654 -136.64882 -6.0602698
-55.045792 -136.75897 -10.150919
-49.351402 -136.48985 -3.6419411
-55.339474 -136.46179 -3.887006
-53.125252 -136.50026 -8.5064449
-45.789902 -136.37515 -3.5654981
-57.364346 -136.24545 -3.6666851
-48.419525 -136.35347 -3.62696
-46.005154 -136.34064 -3.6175311
-55.06649 -136.29343 -5.3848872
-47.38644 -136.08553 -3.5874939
-46.65855 -136.00246 -3.576575
-49.356693 -136.19519 -3.632508
-59.360287 -136.16302 -3.8243871
-55.111221 -136.11308 -3.873816
-55.627609 -136.03964 -7.6712852
-55.288063 -136.10199 -8.235918
-55.180603 -136.13965 -8.7237949
-55.474388 -136.07938 -9.3887177
-47.686073 -135.86958 -3.5840919
-46.939133 -135.89778 -3.6126771
-56.482113 -135.95023 -3.809119
-55.245071 -135.90002 -3.8123169
-55.509041 -135.81287 -9.0259151
-52.667763 -135.84599 -9.3210621
-45.542721 -135.61646 -3.5946119
-57.340721 -135.60147 -3.771179
-45.480007 -135.74406 -3.6105101
-59.042461 -135.6772 -3.8519349
-56.79747 -135.77718 -3.812088
-55.694546 -135.767 -9.151927
-48.262001 -135.42409 -3.574533
-47.499767 -135.49332 -3.573894
-46.129246 -135.44339 -3.628124
-56.063343 -135.44373 -9.4394588
-49.805378 -135.26732 -3.563719
-46.98732 -135.32314 -3.6617529
-56.930588 -135.05022 -3.768522
-48.46328 -135.15192 -3.6178181
-59.091648 -135.10254 -3.813853
-56.12553 -135.07761 -9.8059387
-59.785088 -134.97755 -9.9687786
-58.344955 -134.70847 -3.7939391
-46.931263 -134.79216 -3.626667
-45.721584 -134.52235 -3.605783
-48.301754 -134.28816 -3.5362921
-46.613514 -134.25237 -3.5593181
-59.055679 -134.27277 -9.8712835
-57.962601 -134.07053 -3.616523
-55.851238 -134.15341 -3.6253181
-58.552788 -133.87212 -3.6401479
-56.222248 -133.99889 -3.6112969
-56.087849 -133.60066 -3.5678949
-49.59156 -133.79901 -3.523958
-56.608383 -133.77989 -3.6400089
-52.106091 -133.67841 -3.7942641
-51.410969 -133.6118 -4.0053792
-58.112328 -133.46069 -10.182819
-56.526901 -133.32303 -3.579746
-45.336075 -133.34265 -3.402072
-51.866684 -133.38341 -3.915447
-52.548378 -133.30225 -4.3384128
-51.748341 -133.34167 -4.315104
-51.840919 -133.3369 -5.091157
-51.607315 -133.27119 -5.4547172
-50.197533 -133.2607 -5.5412889
-45.811478 -133.1665 -3.369463
-57.585693 -133.19681 -3.584275
-52.558479 -133.03236 -4.281971
-45.416946 -132.86665 -3.626858
-42.802101 -132.80997 -4.5233531
-43.999397 -132.82996 -7.2752481
-41.792564 -132.93681 -7.3601961
-40.356651 -132.99757 -7.2973118
-52.574757 -132.60065 -3.8129089
-52.545525 -132.64717 -4.048172
-43.655212 -132.62543 -4.3413138
-44.751938 -132.64613 -4.4112411
-43.00972 -132.67032 -4.5076041
-43.384518 -132.73547 -4.6109018
-44.28846 -132.79727 -7.4814339
-55.228722 -132.58994 -3.425185
-53.488075 -132.45111 -3.6962011
-45.819908 -132.48549 -5.570714
-45.191029 -132.59323 -6.0437732
-42.35598 -132.51785 -6.0868049
-54.125931 -132.43562 -7.5690322
-53.83366 -132.44353 -7.582767
-48.799988 -132.507 -7.4678278
-52.74622 -132.48241 -7.6129789
-52.186951 -132.48262 -7.646162
-40.791592 -132.52989 -9.5117769
-52.564945 -132.24773 -3.7885621
-45.517872 -132.27327 -3.6826761
-40.913139 -132.28934 -3.9114399
-42.542397 -132.28125 -4.0214038
-50.738228 -132.22177 -4.5911341
-49.557396 -132.3071 -4.614882
-40.656292 -132.31207 -4.6105952
-42.177681 -132.24535 -4.949244
-40.67334 -132.28551 -4.903944
-40.22612 -132.31134 -4.9172888
-49.786247 -132.2431 -6.236968
-54.91647 -132.32095 -7.518106
-54.271912 -132.35141 -7.5285578
-40.211857 -132.21225 -7.5170312
-59.408207 -132.21719 -7.63621
-40.455357 -132.27977 -8.2561913
-40.209774 -132.22186 -8.9050903
-40.573524 -132.20294 -9.0005646
-58.107063 -132.10036 -3.430279
-52.554047 -132.17105 -3.52472
-45.776134 -132.07968 -3.5212791
-44.246597 -132.18408 -3.814456
-53.385452 -132.06401 -4.326179
-52.538498 -132.12321 -4.5157428
-44.71368 -132.13361 -4.5720768
-53.568962 -132.14078 -4.7073622
-59.478928 -132.01242 -4.9143052
-58.090355 -132.00493 -4.9294629
-46.312489 -132.05244 -6.004364
-51.220764 -132.15826 -6.2632141
-50.176292 -132.17215 -6.2576308
-52.422737 -132.1613 -6.9113469
-42.922771 -132.08755 -6.9669948
-59.804245 -132.12328 -7.5919118
-42.199493 -132.16466 -7.5385289
-41.421974 -132.15637 -7.4627829
-43.840172 -132.08891 -7.7220778
-44.94973 -132.05971 -8.1619053
-43.347446 -132.09352 -8.2124376
-44.65575 -132.07626 -8.5960426
-42.596302 -132.14444 -8.5212183
-43.867393 -132.08795 -8.6569643
-41.510239 -132.18082 -8.8889389
-41.676945 -132.15634 -9.2193604
-41.558208 -132.11496 -9.4522133
-41.182842 -132.14053 -9.4864473
-52.560272 -131.81578 -4.2276592
-47.972797 -131.98059 -4.2004261
-59.561958 -131.99698 -4.7656178
-46.582912 -131.87915 -4.9955769
-58.605423 -131.86877 -5.0812602
-57.845383 -131.9716 -5.0188599
-53.455986 -131.83395 -5.0932398
-52.809055 -131.97479 -5.3816271
-46.040703 -131.96884 -5.4962311
-43.081532 -131.99658 -5.946032
-49.268402 -131.90009 -6.354609
-49.104748 -131.89175 -6.5275588
-46.466034 -131.8232 -6.505425
-48.244888 -131.87706 -7.1560202
-45.54723 -131.97443 -7.314373
-47.867767 -131.90726 -7.7268629
-46.537495 -131.97478 -8.1088657
-48.232269 -131.90541 -8.5020933
-49.399651 -131.83275 -8.8983002
-46.106682 -131.9994 -8.8639717
-45.854752 -131.94221 -9.0739298
-48.958527 -131.85452 -9.5226002
-48.155861 -131.87167 -9.5780802
-48.716751 -131.82306 -10.073824
-43.031433 -131.94058 -10.085124
-46.286606 -131.85452 -10.477531
-55.74485 -131.69244 -3.566541
-58.927456 -131.63489 -3.7092209
-54.620953 -131.73898 -3.7969639
-58.945908 -131.64922 -3.9058361
-58.145424 -131.62442 -3.8276401
-55.137299 -131.71976 -3.8782101
-54.21833 -131.76222 -3.841207
-56.62468 -131.65392 -4.0942502
-55.618248 -131.65262 -4.0738959
-55.041157 -131.70361 -4.503314
-54.649643 -131.7153 -4.4827719
-55.038902 -131.68068 -4.6168628
-54.399326 -131.72137 -5.0274358
-59.754753 -131.62138 -5.4336281
-59.069923 -131.64087 -5.4371839
-55.91127 -131.62057 -5.5883131
-55.689919 -131.63614 -5.5569339
-55.079079 -131.65787 -5.554882
-55.124146 -131.64192 -5.6319289
-53.318584 -131.73711 -5.6843591
-55.208397 -131.63254 -6.1793451
-54.948006 -131.63658 -6.186873
-55.085995 -131.63722 -6.207386
-51.449089 -131.7878 -6.5779629
-47.371613 -131.6973 -6.4062371
-55.976028 -131.60217 -6.8020229
-54.538525 -131.64346 -6.8007121
-52.612942 -131.73164 -6.991075
-55.385529 -131.61617 -7.3948412
-55.941498 -131.61829 -7.5829492
-52.792072 -131.72188 -7.7906842
-53.609642 -131.73611 -7.90166
-51.448254 -131.75496 -8.5450668
-54.242638 -131.60638 -9.1593113
-50.700829 -131.79495 -9.0017567
-56.895695 -131.60535 -9.4847021
-56.624825 -131.62642 -9.4969091
-59.278149 -131.56168 -3.9675601
-58.532982 -131.5509 -4.5343618
-57.72731 -131.57938 -4.4357419
-53.51659 -131.47232 -4.6575508
-58.612206 -131.5652 -4.9580569
-59.999557 -131.46625 -5.0340581
-59.081287 -131.49774 -5.5632029
-58.942513 -131.51221 -5.8333611
-55.8531 -131.58679 -5.8473678
-56.491901 -131.49472 -6.1627421
-55.898621 -131.5864 -6.16083
-53.160542 -131.40215 -6.1562519
-55.844261 -131.59677 -6.7318368
-55.450142 -131.57994 -6.8667841
-58.878147 -131.50278 -7.0372968
-59.342457 -131.43936 -7.3159542
-55.87944 -131.573 -7.3677669
-58.638908 -131.4892 -7.4170389
-58.562515 -131.47746 -8.1410065
-57.094288 -131.54172 -8.3048763
-56.198002 -131.55827 -8.4955339
-55.852497 -131.57739 -8.4985714
-55.318554 -131.58296 -8.5868053
-57.728638 -131.46291 -8.8520603
-55.04995 -131.57216 -9.0464478
-50.674324 -131.44482 -9.5708504
-54.705078 -131.54506 -9.7552042
-52.707489 -131.57639 -10.074355
-55.892372 -131.51105 -10.214347
-57.540928 -131.2142 -5.5887442
-56.528931 -131.39583 -5.674459
-53.500778 -131.37454 -6.1873999
-57.429691 -131.23314 -6.644999
-59.834129 -131.38089 -9.003624
-53.563957 -131.25835 -10.021652
-59.901695 -131.10783 -5.8993702
-57.079918 -131.13814 -6.651464
-59.98185 -129.09837 -7.1444678
-56.688629 -139.98956 -8.8630571
-55.699905 -139.6322 -3.819844
-52.091492 -139.7816 -10.12018
-51.175911 -139.63382 -10.474524
-41.901821 -139.51001 -4.075099
-56.265106 -139.39218 -3.776453
-53.843937 -139.38866 -3.8255939
-48.331139 -139.36234 -3.8624721
-43.564816 -139.03288 -3.752223
-59.471085 -139.1412 -3.839725
-52.115814 -139.03288 -3.8344121
-42.104939 -139.16621 -3.904948
-57.306412 -138.87717 -3.771826
-56.096291 -138.9184 -3.724354
-54.915302 -138.9825 -3.8135769
-51.026768 -138.82021 -9.7521954
-52.143051 -138.87286 -10.102676
-50.747837 -138.86626 -10.521333
-57.17292 -138.64172 -3.7445779
-43.305496 -138.61165 -3.74459
-57.832821 -138.66902 -3.833385
-50.7272 -138.77512 -10.578066
-57.896698 -138.50734 -3.793365
-57.684242 -138.58749 -3.788296
-54.696121 -138.43109 -3.7647729
-53.097 -138.3273 -3.7575109
-45.781174 -138.23007 -3.709245
-56.926659 -138.11673 -3.715003
-45.334137 -138.08932 -3.6560979
-50.313843 -138.16498 -9.5065956
-59.714832 -137.86531 -3.7730839
-52.907383 -137.8125 -3.8019249
-52.842834 -137.87119 -10.183743
-59.148178 -137.6169 -3.7493219
-56.687191 -137.7794 -3.6861131
-55.374393 -137.68604 -3.736238
-52.848206 -137.76543 -9.2892323
-59.148384 -137.55025 -3.7836111
-58.369217 -137.57709 -3.739665
-56.975609 -137.44397 -3.6770649
-54.103226 -137.55687 -3.829267
-52.950104 -137.44231 -9.2566051
-55.265949 -137.23759 -3.779839
-52.855228 -137.29483 -3.7238059
-54.659416 -137.20923 -4.0320439
-58.126053 -137.0751 -3.6998141
-57.456825 -137.0274 -3.6577351
-48.955711 -137.11739 -3.687686
-48.60984 -137.03159 -3.671849
-42.24992 -137.04205 -3.6153281
-53.558388 -137.0589 -8.5078964
-52.539955 -136.86154 -3.77386
-54.428955 -136.83646 -4.104075
-54.756248 -136.85736 -4.3286209
-54.647614 -136.85147 -4.6110482
-54.311386 -136.90109 -5.3781061
-54.205063 -136.89148 -6.0388432
-54.10651 -136.92694 -6.0315499
-54.076416 -136.90155 -6.6615438
-53.395683 -136.90768 -9.0886593
-59.419083 -136.64899 -3.7712269
-55.99754 -136.62225 -3.756562
-47.080921 -136.6171 -3.619767
-55.072624 -136.63022 -3.9578631
-54.671101 -136.75696 -4.8929338
-54.496983 -136.71657 -5.4580221
-48.290398 -136.58131 -3.6390131
-52.548244 -136.58275 -9.1569386
-52.701729 -136.49756 -9.3693514
-58.678658 -136.36618 -3.7433231
-57.731583 -136.24644 -3.66714
-57.055717 -136.34424 -3.6599891
-55.125885 -136.25024 -6.5422959
-52.550835 -136.23486 -9.3409271
-55.936081 -136.16356 -3.786895
-55.396229 -136.09692 -7.5299768
-55.564495 -136.16837 -9.7518196
-50.20129 -135.89548 -3.595686
-55.880661 -135.86031 -3.760922
-55.575756 -135.98137 -3.755342
-56.863365 -135.8744 -3.800472
-55.536758 -135.87947 -7.4696031
-55.884876 -135.90714 -8.1843243
-55.507984 -135.99187 -8.761301
-55.277489 -135.79184 -7.6098862
-56.661377 -135.48303 -3.7994399
-50.494339 -135.57707 -3.6201551
-47.50457 -135.55219 -3.6096561
-55.405251 -135.51031 -9.7968473
-59.558987 -135.4929 -9.9433451
-47.845104 -135.29126 -3.5713489
-59.256752 -135.34248 -3.788219
-58.873268 -135.25992 -10.00466
