# .PCD v0.7 - Point Cloud Data file format
VERSION 0.7
FIELDS x y z
SIZE 4 4 4
TYPE F F F
COUNT 1 1 1
WIDTH 1466
HEIGHT 1
VIEWPOINT 0 0 0 1 0 0 0
POINTS 1466
DATA ascii
-76.421005 -242.40114 -12.491774
-69.333755 -242.51889 -12.747625
-74.053864 -242.49329 -12.990714
-70.748749 -242.49524 -13.082994
-79.393196 -242.54912 -13.215322
-78.925735 -242.47832 -13.270199
-77.219772 -242.51544 -13.218164
-71.88105 -242.47418 -13.303341
-71.521301 -242.51442 -13.253988
-75.274315 -242.41531 -13.726787
-70.503845 -242.59404 -13.817038
-68.731995 -242.57735 -14.572406
-67.678955 -242.5392 -15.656112
-72.802193 -242.40616 -15.831271
-60.973019 -242.52046 -16.894974
-71.827225 -242.4303 -18.197424
-71.254189 -242.55672 -18.469719
-79.47226 -242.51344 -19.089085
-73.735092 -242.37831 -6.3782382
-65.181046 -242.32571 -6.301672
-61.088024 -242.34827 -6.3429508
-73.784035 -242.35428 -6.5897579
-73.356323 -242.26669 -6.543931
-65.807167 -242.24422 -6.5989432
-64.104279 -242.24792 -6.5863261
-73.07988 -242.35538 -6.7324119
-70.266617 -242.28175 -6.732048
-68.497284 -242.24406 -6.6685548
-68.278244 -242.30058 -6.692389
-67.1539 -242.24718 -6.6706338
-66.495293 -242.36533 -6.6474509
-66.191238 -242.30084 -6.652843
-65.543541 -242.31689 -6.6431432
-62.351006 -242.36252 -6.627634
-77.375031 -242.24521 -7.0685372
-76.863998 -242.30717 -7.1036668
-76.933716 -242.33493 -7.3166752
-79.619141 -242.24945 -7.4043331
-77.267853 -242.26305 -7.527657
-76.655983 -242.2756 -7.5278411
-73.16864 -242.35432 -7.5353398
-77.671341 -242.23439 -7.9105182
-77.337372 -242.33295 -8.080842
-77.082893 -242.28741 -8.0642223
-76.758232 -242.28714 -8.0533571
-77.782562 -242.29062 -8.2993698
-69.726875 -242.30896 -8.4929552
-77.354874 -242.34077 -8.9043293
-70.10733 -242.28436 -9.0854378
-70.852943 -242.22278 -9.2069712
-70.3367 -242.24811 -9.2977171
-68.909897 -242.38058 -9.2799397
-71.643654 -242.21146 -9.4199591
-71.440826 -242.36597 -9.5108967
-71.100327 -242.27249 -9.5381613
-68.212204 -242.24149 -9.4051714
-71.013382 -242.34024 -9.636879
-73.273216 -242.25665 -9.8628502
-78.615875 -242.35661 -10.207894
-77.258163 -242.27454 -10.421196
-70.689507 -242.29739 -10.433155
-69.90374 -242.20293 -10.480908
-76.794159 -242.2415 -10.725792
-73.389236 -242.29425 -10.817717
-70.299881 -242.28345 -10.927042
-68.538773 -242.31519 -11.212718
-79.520187 -242.3215 -11.477518
-76.642052 -242.34474 -11.479998
-71.32695 -242.25406 -11.784067
-76.860847 -242.36734 -11.832029
-72.222878 -242.25183 -11.867668
-71.399513 -242.21422 -11.977103
-76.374817 -242.21817 -12.093371
-72.183304 -242.20071 -12.279806
-70.782928 -242.38202 -12.334539
-79.310791 -242.22078 -12.715072
-73.391083 -242.23404 -12.701635
-70.660049 -242.30081 -12.617952
-79.632248 -242.26221 -12.898288
-76.466156 -242.28998 -13.031422
-75.641151 -242.34128 -13.49399
-69.651299 -242.26048 -13.447124
-75.952682 -242.28479 -14.03545
-68.966522 -242.23035 -14.28138
-68.499161 -242.36429 -14.519377
-69.015717 -242.2323 -14.709406
-68.398026 -242.30338 -14.949926
-65.875854 -242.25554 -15.78068
-72.303558 -242.29039 -16.980162
-60.714119 -242.26123 -17.180817
-78.768883 -242.27745 -17.330257
-72.535667 -242.3215 -17.24548
-79.146835 -242.3064 -17.742264
-65.393875 -242.20378 -17.864883
-79.486023 -242.25841 -18.58053
-64.155525 -242.14377 -6.3886838
-63.878258 -242.17302 -6.3849249
-63.318302 -242.17163 -6.3657041
-62.483749 -242.15434 -6.3676138
-73.080139 -242.04947 -6.55057
-67.158905 -242.06055 -6.5911841
-65.727478 -242.1395 -6.5636258
-64.336166 -242.18506 -6.5316749
-72.353653 -242.11418 -6.7784152
-71.486458 -242.11998 -6.7506762
-70.725296 -242.05486 -6.7127128
-70.504349 -242.05814 -6.7113519
-68.670914 -242.07135 -6.6766572
-66.678711 -242.15179 -6.6328082
-72.625771 -242.09512 -6.8314719
-71.909973 -242.16351 -6.8298521
-78.925293 -242.0563 -7.1642361
-78.496918 -242.05174 -7.1608639
-78.235901 -242.18762 -7.1955752
-78.126389 -242.12505 -7.0827599
-77.896599 -242.12238 -7.1014829
-77.277374 -242.04083 -7.080421
-77.112442 -242.14285 -7.0928731
-79.27626 -242.11108 -7.2832689
-78.948181 -242.13443 -7.2928791
-78.501892 -242.05736 -7.3152761
-77.85585 -242.15132 -7.579989
-78.692352 -242.10754 -7.6236849
-76.745743 -242.12868 -8.028574
-76.47052 -242.02179 -8.1973486
-77.092957 -242.03476 -8.3820047
-76.53273 -242.04048 -8.5105133
-69.855659 -242.1395 -8.4944038
-76.2715 -242.04697 -8.7626801
-70.617371 -242.17584 -8.7580271
-79.254532 -242.13582 -8.9034843
-76.275925 -242.11826 -8.8822765
-70.268387 -242.05347 -8.9827194
-71.721542 -242.09412 -9.1907368
-72.023193 -242.16772 -9.3039532
-71.693161 -242.12416 -9.302412
-77.516121 -242.08908 -9.5388308
-71.867355 -242.0993 -9.413662
-71.226944 -242.08636 -9.4238338
-71.037239 -242.0563 -9.5098114
-78.506287 -242.16377 -9.6964455
-77.723572 -242.12122 -9.6550446
-76.175171 -242.0262 -9.7538252
-71.0289 -242.16788 -9.6185598
-70.898987 -242.05148 -9.7009163
-70.149704 -242.07135 -9.6898823
-69.349777 -242.14247 -9.9013615
-78.107895 -242.18372 -10.064837
-70.815918 -242.13855 -10.097971
-70.323914 -242.05321 -10.090973
-72.520615 -242.15341 -10.307125
-70.815788 -242.18642 -10.214513
-69.453934 -242.15253 -10.500593
-70.491745 -242.0564 -10.685205
-76.269547 -242.11996 -10.996464
-72.355301 -242.10181 -10.941629
-69.749611 -242.03793 -10.87674
-71.721245 -242.13678 -11.151982
-76.777405 -242.00977 -11.229256
-72.686798 -242.06625 -11.313492
-71.519073 -242.0946 -11.233309
-70.90786 -242.08453 -11.302602
-70.594421 -242.11768 -11.781734
-75.488182 -242.03711 -11.827536
-72.529892 -242.15076 -11.840584
-71.936691 -242.13135 -11.856683
-69.14901 -242.1467 -11.875734
-76.450073 -242.18896 -12.022961
-70.856369 -242.1344 -12.182474
-70.732269 -242.15807 -12.011628
-70.205368 -242.0871 -12.116323
-76.468407 -242.1263 -12.434481
-77.09787 -242.08826 -12.60414
-74.583313 -242.11523 -12.663034
-73.049347 -242.16718 -12.678364
-70.421692 -242.04565 -13.007947
-69.704018 -242.17566 -13.089672
-69.366791 -242.11334 -13.055363
-67.907272 -242.03288 -13.101464
-74.248962 -242.14479 -13.299853
-68.647324 -242.09238 -13.425095
-71.783485 -242.04744 -15.975277
-78.394119 -242.02834 -16.192141
-60.737335 -242.15082 -16.454208
-71.101753 -242.17607 -18.536701
-70.397697 -242.08582 -18.471447
-71.60041 -242.1433 -20.109879
-70.539886 -241.84306 -6.5729589
-68.923569 -241.90991 -6.4626942
-68.119659 -241.98438 -6.4731889
-67.138641 -241.94785 -6.4722948
-71.296005 -241.95866 -6.7281141
-69.706703 -241.96213 -6.6794472
-79.376381 -241.9375 -7.148839
-78.497986 -241.89575 -7.1441331
-78.282104 -241.90649 -7.1224041
-77.916748 -241.93967 -7.065167
-79.724716 -241.86458 -7.238667
-78.343124 -241.93703 -7.2148318
-77.084419 -241.93498 -7.8939018
-77.120438 -241.9082 -8.0885344
-76.969429 -241.96443 -8.0440922
-76.548737 -241.93398 -8.1044025
-78.544617 -241.88683 -8.5473137
-76.353035 -241.87521 -8.590807
-78.070923 -241.93509 -8.6651297
-76.86412 -241.89691 -8.6267986
-76.703918 -241.90543 -8.6390524
-74.598061 -241.85919 -8.6275921
-69.345535 -241.90228 -8.747488
-70.336777 -241.87366 -8.9269648
-69.080757 -241.87384 -8.9255247
-69.146896 -241.91931 -9.0116539
-75.532242 -241.85648 -9.2819881
-70.628227 -241.94875 -9.3705559
-77.150009 -241.88211 -9.5036793
-70.913399 -241.91837 -9.5298767
-68.879776 -241.8846 -9.5147934
-68.500145 -241.83252 -9.5734911
-77.050079 -241.9045 -9.7831354
-77.786057 -241.99925 -9.9864683
-75.644638 -241.92953 -9.8085718
-69.459961 -241.89536 -9.9342775
-70.119415 -241.94391 -10.537668
-76.396538 -241.98093 -10.60885
-70.506966 -241.95889 -10.61137
-69.479691 -241.84198 -11.062449
-76.32901 -241.86713 -11.298496
-72.169373 -241.89351 -11.565639
-76.476578 -241.91068 -11.715393
-76.329475 -241.81285 -11.742943
-75.584816 -241.83018 -11.752274
-72.573448 -241.8549 -11.67799
-68.985336 -241.96204 -11.742673
-69.135361 -241.84526 -11.873684
-74.600906 -241.85045 -12.193
-73.923035 -241.86349 -12.073885
-71.945679 -241.93417 -12.017102
-70.904419 -241.87234 -12.079605
-77.657188 -241.84985 -12.30172
-77.535782 -241.99448 -12.378432
-74.188057 -241.81433 -12.274104
-72.130966 -241.95078 -12.3227
-79.326797 -241.88751 -12.527307
-78.897148 -241.91776 -12.522388
-74.832352 -241.8372 -12.455055
-74.264114 -241.95273 -12.690104
-73.428551 -241.86081 -12.643762
-79.345222 -241.91333 -12.850561
-68.740494 -241.86494 -13.164564
-68.017914 -241.89795 -13.068203
-74.458176 -241.87538 -13.466548
-68.802872 -241.978 -13.659381
-79.99427 -241.90712 -14.126346
-73.859848 -241.99715 -14.434584
-68.331863 -241.8073 -15.334311
-71.416519 -241.90598 -16.163624
-71.058563 -241.95467 -16.187405
-79.885796 -241.86133 -16.271063
-60.597824 -241.93402 -16.30232
-60.843567 -241.94205 -16.765072
-70.36232 -241.89629 -17.578655
-71.233658 -241.88582 -17.98321
-71.910851 -241.79118 -6.570601
-72.302467 -241.76938 -6.708014
-66.389862 -241.62996 -6.6078138
-77.737686 -241.7556 -6.9851222
-79.87484 -241.76318 -7.157661
-79.337143 -241.65979 -7.1797752
-78.250626 -241.63196 -7.0988498
-78.154312 -241.6821 -7.1246829
-79.684967 -241.69974 -7.2371511
-79.085205 -241.65219 -7.222497
-77.124008 -241.71501 -8.3236055
-77.274002 -241.78023 -8.4576759
-76.975403 -241.6765 -8.5985928
-74.327606 -241.65846 -8.5427589
-74.285355 -241.63104 -8.6215544
-70.547623 -241.68901 -8.7177095
-77.876816 -241.63089 -8.8981857
-76.524689 -241.71051 -8.9277039
-77.974922 -241.73698 -9.0557795
-77.037689 -241.7558 -9.0459957
-77.470215 -241.65237 -9.3066425
-77.340103 -241.73581 -9.3147488
-76.613716 -241.65355 -9.3636131
-76.167084 -241.6864 -9.2911615
-75.962585 -241.70793 -9.2544765
-74.566818 -241.75336 -9.2368107
-74.379211 -241.62463 -9.3213491
-70.056328 -241.65393 -9.3221302
-76.917419 -241.69823 -9.4586868
-76.154228 -241.77261 -9.4235554
-73.779022 -241.62787 -9.5745602
-73.557243 -241.6165 -9.5591612
-69.9179 -241.6998 -9.4572144
-77.237587 -241.68867 -9.6950254
-75.440903 -241.73592 -9.771452
-75.024269 -241.76489 -9.724535
-74.556534 -241.64439 -9.7117348
-76.444992 -241.60312 -9.8483667
-74.541695 -241.6561 -9.8241053
-72.860062 -241.66171 -9.8947563
-69.526276 -241.66098 -9.8586407
-75.76265 -241.73795 -10.177448
-74.88266 -241.67233 -10.047065
-72.732674 -241.66003 -10.105743
-72.573074 -241.70779 -10.064091
-74.568062 -241.61337 -10.315212
-70.228973 -241.79425 -10.210952
-76.220352 -241.60664 -10.42523
-75.759171 -241.76129 -10.437881
-75.466431 -241.65033 -10.698375
-70.055603 -241.63474 -10.765257
-69.412979 -241.78009 -10.618495
-76.147118 -241.69595 -10.836543
-75.472137 -241.63077 -10.872883
-72.90918 -241.7724 -11.084524
-75.767738 -241.64159 -11.301472
-76.661285 -241.76857 -11.599036
-75.86763 -241.7207 -11.703599
-75.628708 -241.69466 -11.648243
-76.107552 -241.71118 -11.908516
-70.33287 -241.65445 -11.917692
-76.132187 -241.67976 -12.076225
-79.407936 -241.77415 -12.320285
-77.53228 -241.71997 -12.307427
-70.697784 -241.778 -12.223104
-78.243439 -241.67441 -12.582949
-72.737137 -241.69745 -12.595343
-75.010513 -241.7231 -12.638748
-70.062271 -241.71326 -12.744762
-69.91674 -241.68217 -12.743444
-79.7845 -241.74991 -12.9978
-74.072632 -241.78131 -12.977605
-68.669655 -241.7271 -12.987297
-79.882912 -241.65167 -13.079148
-75.487946 -241.72968 -13.049578
-74.607895 -241.685 -13.371428
-79.939056 -241.72937 -13.453285
-79.868828 -241.72275 -13.763708
-79.849915 -241.65633 -13.828241
-69.80703 -241.6837 -13.889002
-70.547562 -241.66341 -14.018186
-79.983253 -241.64677 -14.431924
-68.443565 -241.78915 -14.835346
-78.679855 -241.65958 -15.183002
-69.686691 -241.70865 -15.2883
-79.333107 -241.70581 -15.734695
-79.805702 -241.72124 -15.980496
-78.960205 -241.77522 -15.843185
-60.783134 -241.71916 -17.333786
-60.972015 -241.7303 -17.458048
-65.345528 -241.44316 -6.7228522
-63.574398 -241.464 -6.6316638
-77.196922 -241.54619 -6.9597368
-79.861855 -241.40973 -7.1651611
-78.420631 -241.48334 -7.1172452
-77.907242 -241.45213 -7.047647
-79.454605 -241.53947 -7.2183199
-79.347366 -241.53128 -7.2196989
-77.038666 -241.534 -8.2651815
-77.152298 -241.50418 -8.5511284
-77.527496 -241.45088 -8.768012
-77.379311 -241.51648 -8.7247019
-74.83976 -241.55376 -8.7133579
-77.334473 -241.48183 -8.8681412
-76.734634 -241.55193 -8.933485
-76.171326 -241.58408 -8.9608812
-70.184868 -241.52637 -8.8823757
-76.970032 -241.53409 -9.0131454
-76.717178 -241.44604 -9.1644955
-76.130539 -241.57243 -9.1859961
-74.836487 -241.49731 -9.0477476
-74.475212 -241.47841 -9.0930767
-74.373871 -241.48656 -9.1668968
-70.012177 -241.4166 -9.1670589
-69.99585 -241.42177 -9.1856766
-74.748222 -241.53986 -9.3575916
-78.249275 -241.49747 -9.4988899
-73.685226 -241.45721 -9.4792442
-77.658676 -241.58255 -9.620841
-76.512573 -241.54346 -9.6991644
-74.859604 -241.50903 -9.7388554
-70.464355 -241.56737 -9.6997986
-69.332245 -241.50732 -9.6634064
-77.35186 -241.43195 -10.033334
-75.815178 -241.54361 -10.110545
-72.935074 -241.44215 -10.110429
-75.727036 -241.52242 -10.2759
-74.710007 -241.48843 -10.372164
-74.840309 -241.5957 -10.411843
-74.556824 -241.56857 -10.517371
-75.459335 -241.49774 -10.675289
-75.268906 -241.45789 -10.685015
-69.926987 -241.55031 -10.745117
-75.861649 -241.47595 -10.947927
-70.224419 -241.44495 -10.986583
-75.135269 -241.51855 -11.350684
-75.690117 -241.4884 -11.500889
-74.726929 -241.45081 -11.461006
-76.223495 -241.48103 -11.668983
-70.156746 -241.41248 -11.787595
-75.980896 -241.40689 -11.994749
-75.784889 -241.50114 -12.198218
-74.211441 -241.49622 -12.171654
-74.133789 -241.52545 -12.15385
-71.09124 -241.52821 -12.079845
-79.570793 -241.51796 -12.48155
-78.315712 -241.5177 -12.45308
-78.169273 -241.51627 -12.503879
-79.900665 -241.50894 -12.705355
-79.932083 -241.52951 -12.959715
-75.952309 -241.56801 -12.859484
-75.397125 -241.42767 -12.900436
-74.291168 -241.50232 -12.929899
-70.13102 -241.46249 -12.822633
-75.827499 -241.44424 -13.074127
-79.713547 -241.58777 -13.277584
-73.464539 -241.40385 -13.252785
-68.047073 -241.59508 -13.201022
-79.985016 -241.58453 -14.415331
-68.803284 -241.47694 -15.711748
-62.259346 -241.40701 -15.893218
-62.338852 -241.42853 -16.006458
-70.443558 -241.4062 -17.139462
-60.582634 -241.58923 -17.308382
-61.241669 -241.49593 -18.130966
-60.420265 -241.48035 -19.040745
-61.338081 -241.55576 -19.360973
-61.028072 -241.265 -6.5927
-72.137596 -241.23767 -6.7838759
-66.274948 -241.28183 -6.771759
-63.4617 -241.30087 -6.648561
-61.694077 -241.28104 -6.632143
-60.902634 -241.29846 -6.620142
-77.301682 -241.35501 -6.955956
-73.347824 -241.2195 -6.9229169
-71.712029 -241.23541 -6.8098998
-70.984802 -241.21748 -6.8335028
-65.42662 -241.3396 -6.812861
-79.28537 -241.26117 -7.1304488
-77.733154 -241.25269 -7.0233622
-77.284592 -241.21181 -7.0545721
-74.915298 -241.27049 -7.3946309
-77.122101 -241.24423 -7.4371271
-75.899994 -241.29686 -7.4215312
-75.495117 -241.2691 -7.4146829
-74.411217 -241.34915 -8.4756451
-77.064774 -241.3624 -8.9068928
-76.50885 -241.28299 -8.8901482
-73.505615 -241.36537 -8.9561605
-78.295616 -241.27567 -9.1382694
-75.967064 -241.28821 -9.0765181
-70.56031 -241.31932 -9.1307755
-76.865601 -241.30779 -9.3495693
-76.743423 -241.30948 -9.2780123
-76.450546 -241.31435 -9.2762146
-73.680397 -241.33337 -9.2771654
-70.124855 -241.31992 -9.2636147
-76.876221 -241.26295 -9.5471516
-74.648468 -241.32632 -9.5545464
-77.226624 -241.3073 -9.6141434
-73.85891 -241.21381 -9.7722034
-73.090813 -241.26901 -9.6780643
-70.266144 -241.33682 -9.6731882
-74.524002 -241.31093 -9.9155769
-70.427597 -241.34985 -9.8550892
-77.44944 -241.263 -10.098826
-73.007416 -241.384 -10.041556
-75.903984 -241.39034 -10.380244
-74.607956 -241.30505 -10.266949
-73.29715 -241.31805 -10.24613
-72.948044 -241.34067 -10.285723
-69.348373 -241.2818 -10.343209
-74.463959 -241.25493 -10.425701
-72.573967 -241.29166 -10.467672
-75.228073 -241.38634 -10.618527
-75.910263 -241.34842 -10.900948
-75.690208 -241.28488 -11.040771
-75.510971 -241.258 -11.742929
-75.094688 -241.25067 -11.603133
-76.008362 -241.38588 -12.016407
-74.35981 -241.22821 -12.384033
-73.477722 -241.33527 -12.25559
-78.252861 -241.38632 -12.433872
-76.937515 -241.29837 -12.501746
-76.493309 -241.22461 -12.615348
-76.48333 -241.22211 -12.962843
-73.808037 -241.34283 -12.815281
-68.207977 -241.24611 -13.077797
-69.894699 -241.29907 -13.490808
-79.461067 -241.3271 -13.868484
-79.170494 -241.35236 -13.973429
-78.74826 -241.36115 -14.784456
-79.004623 -241.3669 -15.025225
-79.344513 -241.29832 -15.304527
-79.729828 -241.327 -15.472248
-69.378021 -241.31032 -16.27636
-69.823555 -241.30879 -19.488163
-63.472542 -241.01984 -6.5984449
-60.304756 -241.11728 -6.596869
-71.373978 -241.09964 -6.7765851
-71.090164 -241.14397 -6.7735782
-70.795586 -241.18655 -6.7896328
-70.496727 -241.02222 -6.7933841
-68.318359 -241.13992 -6.7856698
-64.728363 -241.09258 -6.6661391
-64.141281 -241.13058 -6.632669
-62.93425 -241.07553 -6.617641
-61.806267 -241.03191 -6.605031
-61.278324 -241.06783 -6.616673
-60.110146 -241.06709 -6.604918
-79.869263 -241.04599 -6.9441299
-77.669548 -241.06882 -6.9205608
-77.326172 -241.15363 -6.9786892
-72.951088 -241.11549 -6.852406
-72.378967 -241.19308 -6.811245
-70.876556 -241.13626 -6.8167071
-66.356483 -241.19449 -6.8249459
-78.13559 -241.08694 -7.0340929
-77.27169 -241.16263 -7.0593758
-77.29055 -241.07806 -7.2399979
-76.447647 -241.10632 -8.5867538
-76.942673 -241.14951 -8.7050104
-76.544075 -241.07108 -8.9665413
-77.977394 -241.1658 -9.039031
-70.525375 -241.14214 -9.0944471
-70.625458 -241.12022 -9.2208815
-69.757553 -241.17145 -9.3827515
-75.908463 -241.03888 -9.4966822
-73.706337 -241.18915 -9.4473476
-73.062141 -241.1051 -9.57932
-76.49054 -241.11588 -9.6249781
-74.234207 -241.03418 -9.7117939
-73.094727 -241.1476 -9.6267052
-73.314011 -241.09073 -9.9028034
-70.510002 -241.05576 -9.8322182
-74.494797 -241.15915 -10.162212
-73.290344 -241.06989 -10.168655
-72.871086 -241.12703 -10.287967
-74.71888 -241.08128 -10.604033
-74.143387 -241.05798 -10.708723
-75.447098 -241.12717 -10.904171
-72.9487 -241.10817 -10.966181
-75.649078 -241.1134 -11.492267
-73.186653 -241.1891 -11.570827
-69.793266 -241.16432 -11.569208
-75.356247 -241.15637 -11.874079
-75.231041 -241.15611 -12.097695
-74.457817 -241.04709 -12.329117
-75.85025 -241.07883 -12.61013
-70.107666 -241.09094 -13.6958
-79.369095 -241.18159 -13.937822
-79.064819 -241.17542 -14.24896
-69.838684 -241.11896 -14.613014
-79.082069 -241.12003 -14.957285
-78.882378 -241.16656 -14.855884
-79.051552 -241.13943 -15.06649
-79.814507 -241.04686 -15.302109
-79.496597 -241.09846 -15.331762
-79.281975 -241.12897 -15.221071
-79.164825 -241.07193 -15.443918
-61.934792 -241.05769 -15.822387
-69.528625 -241.03641 -16.512295
-70.970184 -241.1756 -16.747936
-62.502144 -241.04324 -16.850517
-71.275192 -241.02756 -17.269455
-70.25074 -241.10693 -17.401852
-62.229237 -241.05894 -18.147696
-79.821426 -241.10735 -18.73089
-79.795654 -241.05017 -18.904263
-79.905586 -241.15082 -19.218777
-63.972908 -241.12869 -19.311735
-70.897949 -240.83514 -6.7809658
-70.091507 -240.86217 -6.770401
-69.476807 -240.89432 -6.750926
-68.518799 -240.88515 -6.7264462
-66.275047 -240.91516 -6.7090802
-65.453224 -240.84351 -6.6960258
-63.132889 -240.96397 -6.6229291
-62.648445 -240.91489 -6.6352029
-79.411194 -240.97148 -6.9498129
-78.628868 -240.92773 -6.8971968
-78.26387 -240.9234 -6.9070039
-77.466904 -240.91235 -6.934494
-76.892578 -240.88301 -6.9553542
-76.657524 -240.91837 -6.9311299
-75.018356 -240.8839 -6.9084911
-74.691826 -240.92606 -6.9319458
-74.131622 -240.92319 -6.8499842
-72.238655 -240.92776 -6.81495
-79.930779 -240.91919 -7.0848689
-77.705833 -240.8718 -7.010901
-75.488655 -240.91869 -7.059278
-74.533539 -240.96616 -7.108099
-70.330009 -240.92351 -7.103725
-77.082779 -240.85768 -7.2515159
-76.506073 -240.91937 -7.4160361
-75.756538 -240.94548 -7.406199
-75.446884 -240.95477 -7.403656
-76.687439 -240.96176 -8.9771919
-70.281342 -240.86066 -8.8794575
-78.990631 -240.90262 -9.0237007
-70.293053 -240.86528 -9.0536194
-73.948647 -240.85599 -9.6902323
-69.132828 -240.9369 -9.6018972
-74.233688 -240.97656 -9.8111963
-73.850731 -240.93369 -9.8925886
-74.29248 -240.823 -10.113802
-73.912491 -240.86716 -10.153536
-73.534363 -240.9306 -10.023451
-74.425751 -240.94516 -10.548818
-75.118408 -240.96744 -10.748089
-73.741791 -240.83762 -10.615704
-73.090652 -240.93594 -10.735834
-74.573029 -240.94887 -10.994812
-73.478745 -240.90346 -10.950422
-75.109306 -240.91035 -11.035746
-75.136566 -240.86229 -11.269611
-74.89637 -240.83704 -11.36462
-74.654739 -240.81065 -11.239109
-73.76992 -240.86794 -11.55807
-75.666061 -240.96802 -11.747313
-73.835632 -240.97174 -12.137514
-69.81456 -240.87677 -12.034285
-68.166275 -240.93784 -13.274715
-73.827469 -240.97171 -13.532602
-73.318344 -240.98062 -13.72423
-79.598633 -240.83583 -14.793371
-69.941795 -240.83809 -14.658414
-79.435257 -240.82843 -14.979309
-79.059189 -240.90013 -14.848318
-70.814125 -240.87628 -15.425552
-79.148666 -240.853 -15.648422
-69.75087 -240.93681 -16.056126
-79.743454 -240.90836 -16.92437
-79.198891 -240.93521 -18.152189
-70.250092 -240.95926 -19.235001
-71.411842 -240.66711 -6.753612
-71.221886 -240.69312 -6.769001
-68.900604 -240.6937 -6.7385378
-68.153999 -240.76584 -6.7382731
-67.901611 -240.67722 -6.7558379
-66.507812 -240.76248 -6.6857662
-63.301952 -240.71355 -6.6315632
-62.709183 -240.78 -6.6477451
-62.13139 -240.75792 -6.6277981
-61.727081 -240.72992 -6.6485329
-61.273758 -240.77618 -6.6460509
-60.723412 -240.769 -6.6482801
-78.880745 -240.63297 -6.9625559
-78.485748 -240.62131 -6.9627171
-78.230042 -240.70387 -6.9728632
-77.903572 -240.64554 -6.9353018
-74.326538 -240.73595 -6.8183069
-71.300858 -240.62506 -6.814302
-79.301025 -240.73901 -7.042161
-78.912842 -240.67549 -7.0276361
-76.528046 -240.78685 -7.364305
-79.234711 -240.71448 -8.3870087
-70.249519 -240.78693 -8.7413187
-70.323746 -240.79469 -8.8634825
-79.54586 -240.74097 -9.1645508
-78.031395 -240.72614 -9.0784798
-77.093109 -240.74991 -9.2373571
-78.255264 -240.66684 -9.5075455
-70.320038 -240.78665 -9.538187
-73.847252 -240.70367 -9.8745289
-73.778702 -240.78482 -9.8863573
-74.178253 -240.73088 -10.111425
-73.892212 -240.7103 -10.072392
-73.575256 -240.71414 -10.11467
-73.64241 -240.73805 -10.272625
-74.913818 -240.79871 -10.855129
-75.200165 -240.77197 -11.159403
-74.757149 -240.69656 -11.104815
-74.103806 -240.70953 -11.090778
-73.680283 -240.78882 -11.169092
-74.091812 -240.65012 -11.270907
-73.865768 -240.68999 -11.311756
-73.492462 -240.72394 -11.316793
-75.280563 -240.76361 -11.539618
-74.025055 -240.75179 -11.523796
-73.342339 -240.70222 -11.512947
-73.34906 -240.71437 -11.64819
-73.743996 -240.65419 -11.845485
-73.500816 -240.70853 -11.934261
-74.273491 -240.67264 -12.163895
-74.487411 -240.79214 -12.262162
-75.840927 -240.61853 -12.63165
-74.524246 -240.6814 -14.184618
-79.510635 -240.7019 -14.936298
-70.820633 -240.73917 -15.3829
-79.144997 -240.77924 -15.738998
-79.674538 -240.77608 -15.871989
-79.472488 -240.7083 -15.88286
-78.972626 -240.66777 -17.796669
-79.206963 -240.7793 -18.544159
-74.486374 -240.52939 -6.7891369
-69.482697 -240.44382 -6.7901578
-68.508453 -240.51848 -6.7307978
-67.923378 -240.55487 -6.738759
-66.284332 -240.56166 -6.6788778
-66.083061 -240.58093 -6.707026
-64.30088 -240.51895 -6.6635742
-64.063644 -240.47337 -6.6497951
-60.297112 -240.59325 -6.6392279
-79.7397 -240.54474 -6.9849739
-79.446487 -240.48929 -6.9943361
-78.258911 -240.54527 -6.974359
-78.113785 -240.56244 -6.9447832
-77.735878 -240.55246 -6.9513922
-77.536606 -240.44492 -6.9288902
-77.30275 -240.51407 -6.9321818
-74.548424 -240.43575 -6.833221
-73.126221 -240.56046 -6.8830481
-71.276596 -240.58853 -6.8059449
-79.293716 -240.46408 -7.0195751
-79.153473 -240.58656 -8.4554377
-78.095779 -240.45831 -8.7254086
-79.052231 -240.54443 -9.0047159
-78.260437 -240.50346 -9.0672646
-76.946838 -240.57181 -9.2711411
-78.667053 -240.55821 -9.5834227
-77.946823 -240.4774 -9.7057304
-79.046318 -240.51286 -9.9358101
-78.098755 -240.4955 -9.8985825
-77.849197 -240.49628 -9.884429
-74.081161 -240.49368 -9.9600573
-78.436401 -240.5006 -10.082397
-77.889931 -240.43536 -10.109962
-74.210083 -240.59203 -10.008432
-73.627319 -240.45416 -10.079493
-73.532181 -240.50006 -10.108717
-74.430367 -240.47272 -10.321498
-74.360291 -240.50371 -10.412663
-78.381607 -240.47227 -10.864265
-73.599632 -240.45663 -11.015646
-74.484055 -240.57077 -11.49566
-74.00071 -240.40073 -11.580585
-73.563576 -240.58408 -11.974435
-74.580704 -240.50774 -12.038526
-73.409798 -240.50746 -12.276751
-79.030716 -240.59689 -18.070702
-71.886887 -240.37093 -6.7813578
-71.679443 -240.26093 -6.7605019
-71.494583 -240.28998 -6.7697592
-70.95929 -240.3024 -6.7936878
-70.28299 -240.33771 -6.7351379
-69.227226 -240.3309 -6.7415471
-68.668373 -240.25742 -6.719862
-66.627556 -240.25198 -6.7018232
-65.17997 -240.35823 -6.6983662
-64.211815 -240.31966 -6.6439242
-77.9142 -240.33235 -6.930656
-76.153244 -240.3143 -6.8809938
-74.130791 -240.3331 -6.8393178
-72.763229 -240.23328 -6.8517971
-79.120422 -240.31549 -7.287971
-79.17244 -240.26166 -7.7194929
-77.888626 -240.2934 -8.6866646
-77.864944 -240.36932 -9.1069431
-78.313919 -240.23611 -9.3263617
-79.897743 -240.21283 -9.4401445
-79.036682 -240.26488 -10.133381
-78.439919 -240.39 -10.26408
-74.441902 -240.30585 -10.321601
-73.963318 -240.33463 -10.344309
-73.795044 -240.3358 -13.411507
-69.581772 -240.3963 -16.292236
-78.826492 -240.26355 -17.927135
-71.130043 -240.13843 -6.7754388
-67.736382 -240.15451 -6.7287698
-63.106491 -240.13409 -6.6677761
-62.068077 -240.15916 -6.6441698
-76.706848 -240.08904 -6.9449649
-76.553604 -240.11015 -6.9163318
-75.887573 -240.05081 -6.9099979
-75.751381 -240.06485 -6.9125071
-74.716537 -240.09592 -6.883028
-73.151215 -240.16861 -6.9074082
-72.843414 -240.07715 -6.8771038
-72.53212 -240.10564 -6.8294792
-79.157013 -240.18227 -7.7570248
-78.454651 -240.09727 -8.371439
-78.055862 -240.04697 -8.6335163
-77.866554 -240.11261 -8.6604271
-77.793961 -240.02921 -8.6220951
-77.909348 -240.15306 -8.8575659
-79.954002 -240.13181 -9.3289089
-78.298027 -240.15359 -9.6599712
-78.118652 -240.08862 -9.7089853
-78.078064 -240.04222 -9.8454819
-78.09008 -240.08119 -10.138353
-77.900108 -240.06915 -10.024332
-77.76622 -240.05478 -10.042737
-79.884209 -240.02979 -10.247986
-78.266357 -240.16017 -10.38333
-79.90126 -240.14828 -10.700294
-78.122986 -240.08315 -10.722115
-78.511734 -240.04408 -10.930618
-78.303017 -240.00447 -10.978027
-78.08139 -240.11635 -10.841685
-79.116043 -240.04402 -11.315416
-79.729866 -240.16074 -11.418505
-78.724663 -240.12529 -18.101204
-79.845352 -240.07068 -19.839684
-64.894699 -259.88354 -7.4782472
-73.997894 -259.84439 -7.691618
-66.488892 -259.85138 -7.8244281
-78.341545 -259.96902 -8.3212976
-76.216423 -259.88614 -8.4600906
-73.919983 -259.92322 -9.2973843
-69.942856 -259.89078 -11.01104
-73.033531 -259.83414 -11.619644
-72.250687 -259.80933 -11.647974
-61.775475 -259.98187 -11.98237
-69.222725 -259.87903 -13.110887
-73.383156 -259.89481 -13.269943
-67.473213 -259.89612 -13.204206
-67.883179 -259.8161 -14.195064
-77.8778 -259.7637 -7.809288
-76.740707 -259.63568 -7.8561268
-72.171959 -259.73892 -9.7809219
-69.0737 -259.79163 -11.095924
-61.95351 -259.75888 -11.020823
-74.140755 -259.62744 -11.788525
-68.08078 -259.72314 -14.156088
-65.83049 -259.59659 -7.2616
-78.302299 -259.47766 -8.3265343
-70.058777 -259.58917 -11.033738
-71.666702 -259.44711 -11.777224
-62.697903 -259.44562 -11.791567
-68.961479 -259.48361 -12.95291
-67.19957 -259.48062 -12.852751
-67.779587 -259.41217 -13.048264
-65.237106 -259.27957 -7.467834
-64.471268 -259.36389 -7.4154611
-78.983406 -259.37753 -7.8476362
-62.082687 -259.28833 -8.1594286
-60.87434 -259.20877 -8.8509607
-60.327015 -259.31555 -8.8993721
-73.99823 -259.24039 -9.7705879
-70.550331 -259.20285 -9.7740479
-62.289154 -259.29669 -10.569265
-60.138573 -259.2619 -10.961103
-62.940613 -259.22681 -11.726181
-61.311165 -259.26129 -11.836263
-69.88681 -259.21793 -12.12669
-61.247528 -259.22192 -12.032272
-62.598854 -259.29395 -12.454163
-70.911621 -259.35178 -13.138363
-67.415413 -259.39697 -13.164834
-74.828827 -259.22623 -13.259932
-73.079559 -259.35599 -13.779015
-60.878536 -259.26648 -13.92351
-60.561283 -259.29584 -13.88336
-78.164246 -259.08841 -7.668076
-73.124512 -259.16904 -10.3725
-61.377243 -259.07651 -11.084602
-60.853127 -259.02234 -11.421919
-60.929363 -259.13641 -11.767865
-70.446617 -259.12161 -12.630042
-71.64502 -259.08408 -12.944006
-60.025063 -259.12027 -13.053137
-74.521065 -259.04935 -13.590987
-73.819771 -259.00089 -13.86917
-60.876717 -259.18008 -14.323423
-66.451035 -258.95483 -7.5492272
-62.409729 -258.95078 -7.9840202
-62.588928 -258.95221 -8.0422668
-62.14785 -258.98309 -8.0959759
-60.631351 -258.87994 -8.3489304
-60.147087 -258.88135 -8.6317234
-71.399269 -258.82166 -10.397207
-62.089886 -258.88947 -10.266928
-70.836433 -258.84998 -10.539863
-68.159775 -258.82135 -10.796048
-68.272362 -258.94208 -10.893204
-71.440315 -258.87534 -11.405628
-62.452984 -258.98059 -12.539402
-74.816261 -258.82431 -12.888845
-73.215477 -258.91425 -14.128819
-65.02932 -258.74976 -7.337472
-77.894714 -258.72415 -7.7091112
-66.415451 -258.71643 -7.7294431
-62.506691 -258.73563 -8.0784731
-61.699501 -258.65613 -8.5703487
-60.729019 -258.66034 -9.0744896
-74.41452 -258.73767 -9.5036135
-70.043709 -258.75354 -9.5757189
-74.227295 -258.7063 -10.207955
-70.95739 -258.64676 -10.243874
-73.454025 -258.74072 -11.003202
-73.024971 -258.74332 -11.675277
-63.303833 -258.63898 -11.746634
-61.065777 -258.76489 -11.846734
-71.278885 -258.69586 -12.739399
-67.643936 -258.64783 -12.876253
-68.051086 -258.67047 -13.494453
-61.003601 -258.77338 -13.482635
-75.892052 -258.66901 -13.628263
-74.330231 -258.7355 -14.430128
-63.720879 -258.78217 -15.509708
-74.560608 -258.57239 -7.5559492
-62.606106 -258.55609 -8.0439272
-61.527317 -258.47223 -8.1751766
-61.530853 -258.48935 -8.2054214
-60.842434 -258.55661 -9.0678301
-71.640305 -258.50095 -9.583169
-74.2229 -258.51862 -9.7088203
-74.174713 -258.54581 -9.7135344
-74.455719 -258.45316 -10.199603
-71.558319 -258.44281 -10.179064
-71.615723 -258.44849 -10.719378
-69.315857 -258.41516 -10.771207
-68.845963 -258.57556 -10.780302
-70.676666 -258.49619 -11.254148
-60.495533 -258.55798 -11.727926
-73.871712 -258.58759 -11.905346
-67.701859 -258.43085 -11.874894
-63.088608 -258.5152 -12.226837
-60.647305 -258.58173 -12.557632
-74.201256 -258.3541 -7.5412459
-75.446381 -258.20111 -7.649416
-69.12011 -258.22122 -7.919775
-62.442368 -258.27167 -8.0629139
-61.462242 -258.26666 -8.032836
-61.630539 -258.37225 -9.1081972
-61.488819 -258.32642 -9.0479641
-61.076263 -258.25043 -9.1034756
-71.450005 -258.20227 -9.306675
-70.62999 -258.20441 -10.184292
-73.34507 -258.22058 -10.711983
-68.233253 -258.2869 -10.90185
-74.285652 -258.33496 -11.571222
-72.660812 -258.20227 -11.825506
-70.619125 -258.23102 -12.253119
-68.916031 -258.24637 -12.22129
-63.02346 -258.23352 -12.624428
-62.461037 -258.25696 -13.863891
-73.871124 -258.06238 -7.5289898
-62.644791 -258.14441 -7.92804
-72.530273 -258.09418 -8.0385437
-61.269299 -258.10736 -8.1817417
-61.068367 -258.15637 -8.0703201
-61.515415 -258.17337 -9.4936142
-61.474255 -258.00821 -9.9726324
-71.814079 -258.14148 -10.29537
-67.98008 -258.19507 -10.498357
-68.216736 -258.10242 -11.409585
-63.889957 -258.00928 -11.485191
-61.583305 -258.11047 -11.513865
-73.299019 -258.17661 -11.695364
-70.705193 -258.04163 -11.798477
-62.231464 -258.18488 -11.776983
-61.541157 -258.09583 -11.707859
-74.20118 -258.10156 -12.119787
-68.504333 -258.07544 -12.240839
-62.21756 -258.17453 -12.260407
-63.415432 -258.17987 -12.576863
-61.068649 -258.15094 -12.564564
-62.290905 -258.13754 -13.848317
-71.108864 -258.08752 -14.013414
-61.918285 -258.08597 -14.271898
-61.935684 -258.15909 -14.5582
-69.348755 -258.07867 -15.416071
-61.740299 -258.03571 -17.698671
-64.96875 -257.85339 -7.401145
-77.40686 -257.91162 -7.6913862
-74.281578 -257.83051 -7.6040449
-61.168747 -257.90417 -8.1200094
-75.23555 -257.9538 -9.7131348
-70.887192 -257.97992 -10.256864
-61.707233 -257.86002 -10.243238
-63.755737 -257.90741 -10.454066
-69.692596 -257.81592 -10.780689
-69.356323 -257.82709 -10.919507
-60.532555 -257.91193 -10.99852
-68.332191 -257.90103 -11.331062
-64.884369 -257.83914 -11.811424
-64.620636 -257.91513 -12.061186
-67.82785 -257.84442 -12.213109
-62.138279 -257.88855 -12.6863
-61.473465 -257.95966 -12.613609
-61.109936 -257.88629 -12.862128
-74.739136 -257.87964 -19.286852
-66.356598 -257.6962 -7.5399408
-62.113701 -257.7832 -7.9017038
-61.263298 -257.77213 -8.1047668
-60.886761 -257.7565 -8.0060787
-71.07309 -257.72195 -8.3552141
-69.463951 -257.70844 -8.652977
-69.411072 -257.72009 -9.3433857
-63.543488 -257.67639 -10.248281
-62.729702 -257.69391 -10.621987
-75.02713 -257.68732 -10.855911
-63.341457 -257.71213 -11.783718
-72.730309 -257.71738 -12.871058
-71.200462 -257.68253 -12.820631
-68.341171 -257.63306 -13.143869
-72.019882 -257.77374 -13.291559
-68.571426 -257.73447 -13.292744
-71.962234 -257.77402 -14.017977
-61.737724 -257.62408 -14.101593
-74.988747 -257.44604 -7.6354909
-72.543938 -257.43314 -8.0322151
-71.910583 -257.42743 -8.635499
-72.095619 -257.495 -10.132525
-71.395424 -257.44565 -10.107572
-63.576332 -257.40503 -10.412309
-73.266068 -257.46991 -10.620268
-70.727577 -257.59042 -11.136845
-61.581581 -257.48184 -11.183159
-62.916931 -257.49844 -11.702042
-61.7491 -257.50519 -11.720246
-72.748154 -257.54132 -11.807518
-68.775162 -257.54266 -12.209927
-68.544502 -257.49286 -13.097075
-71.179352 -257.41299 -13.874674
-61.56163 -257.4129 -13.818598
-61.897182 -257.43848 -14.242832
-61.709095 -257.48605 -14.416364
-74.289825 -257.48059 -18.605124
-62.204128 -257.39395 -7.8314352
-71.723778 -257.32007 -8.5672417
-71.763939 -257.20795 -8.9404392
-60.228451 -257.22437 -9.7592049
-75.217667 -257.23981 -9.9446115
-73.913872 -257.37695 -10.893496
-60.097454 -257.37982 -10.926568
-68.449371 -257.31769 -11.341482
-71.244942 -257.38434 -11.499027
-61.45311 -257.2933 -12.014916
-61.451313 -257.30725 -12.288857
-70.433258 -257.26086 -12.595737
-69.002243 -257.37018 -12.587957
-61.005924 -257.22937 -13.010038
-60.282196 -257.3472 -13.201422
-75.08419 -257.3324 -19.351185
-74.552063 -257.36472 -19.355183
-70.907127 -257.27142 -23.243317
-77.496147 -257.0744 -7.5970912
-67.555817 -257.16916 -7.518353
-63.023674 -257.05972 -7.4868808
-77.140656 -257.09564 -7.657496
-67.776321 -257.08743 -7.7911339
-62.905655 -257.15097 -7.682724
-60.221039 -257.13324 -7.682375
-71.324997 -257.0816 -8.0565214
-61.598118 -257.1124 -8.1460543
-71.975021 -257.06598 -9.8539047
-63.593616 -257.04724 -9.9675293
-74.220886 -257.00513 -10.024349
-74.147659 -257.05072 -10.016521
-72.076721 -257.0054 -10.086762
-63.6418 -257.08447 -10.170217
-63.368076 -257.07324 -10.183887
-60.523949 -257.09314 -10.016529
-72.064262 -257.02847 -10.214676
-68.798851 -257.17902 -10.777905
-74.465126 -257.00525 -11.381742
-74.161583 -257.03262 -11.292294
-69.723976 -257.064 -11.307757
-74.292496 -257.11597 -11.852846
-75.365631 -257.1604 -12.147657
-71.394089 -257.13965 -12.091417
-61.584805 -257.15057 -12.139002
-61.426853 -257.11807 -12.73353
-61.637836 -257.02954 -12.947117
-60.689648 -257.10614 -13.466168
-70.130936 -257.09073 -14.682564
-70.481651 -257.15732 -15.13157
-61.502132 -256.89035 -7.2878609
-62.649094 -256.89679 -7.4802451
-66.55632 -256.9679 -7.7413721
-67.408409 -256.90375 -8.8740578
-73.896973 -256.92194 -10.143243
-72.23172 -256.87866 -10.943135
-73.559052 -256.95868 -11.743366
-69.236099 -256.95831 -12.342894
-69.751694 -256.98126 -13.34166
-61.635357 -256.83066 -13.240923
-61.10096 -256.95093 -13.312071
-61.394917 -256.88666 -14.108954
-75.710564 -256.86029 -17.023468
-75.791809 -256.98834 -17.443031
-63.574703 -256.62473 -7.258728
-63.144657 -256.72412 -7.3654938
-62.191574 -256.64029 -7.2957468
-72.501053 -256.61322 -7.9411979
-72.283112 -256.7038 -7.9698992
-66.598206 -256.66248 -7.8408151
-69.847542 -256.65891 -8.1029701
-60.055805 -256.64062 -9.5098152
-72.656128 -256.7182 -10.834822
-72.679001 -256.70163 -11.713023
-73.492966 -256.66586 -11.885428
-72.9757 -256.61328 -12.616952
-69.466698 -256.79926 -13.362872
-61.491264 -256.60437 -13.610618
-74.369354 -256.69977 -15.049218
-74.459427 -256.70966 -17.327888
-62.179859 -256.40903 -7.2787099
-60.964729 -256.50104 -7.2507381
-67.050812 -256.40906 -7.6067648
-74.318321 -256.51477 -10.07362
-73.525284 -256.56836 -10.610068
-60.975563 -256.56674 -11.129774
-73.049042 -256.52032 -11.285955
-61.115139 -256.55432 -11.464933
-60.634865 -256.4353 -12.87009
-75.352959 -256.51495 -15.886338
-75.335358 -256.49835 -16.181618
-61.768608 -256.42468 -16.117378
-64.079247 -256.27625 -7.3349051
-75.443459 -256.2222 -7.5699539
-69.544579 -256.38925 -8.0696249
-73.545456 -256.34741 -10.618504
-74.145935 -256.20963 -11.032504
-74.286346 -256.25366 -12.411816
-60.148804 -256.23831 -12.53524
-62.791203 -256.05658 -7.2820282
-71.915268 -256.14862 -7.9285331
-67.052536 -256.13531 -7.8481932
-60.401787 -256.12119 -9.5550194
-61.149403 -256.07446 -10.333975
-60.169109 -256.17542 -11.685184
-73.173965 -256.08975 -13.222885
-74.941208 -256.16553 -17.668198
-66.508636 -255.81033 -7.372046
-63.96283 -255.98125 -7.3259931
-70.675133 -255.94711 -7.6771588
-71.001129 -255.81006 -7.8124871
-66.502251 -255.84427 -8.138526
-67.769142 -255.83517 -8.4508638
-60.242142 -255.87439 -9.9218149
-60.916176 -255.92934 -10.043877
-60.061989 -255.93362 -11.64027
-72.790421 -255.91591 -12.630484
-60.844944 -255.78758 -7.2977509
-75.241684 -255.68893 -7.5470772
-67.236481 -255.66235 -7.7314382
-64.695168 -255.71309 -7.6217699
-66.509445 -255.69501 -8.4096699
-66.511688 -255.7879 -8.9087162
-67.38752 -255.70427 -9.0855846
-74.479973 -255.76776 -10.621552
-60.707794 -255.6619 -11.537795
-61.851414 -255.74973 -13.567266
-74.964081 -255.66899 -13.64355
-73.414749 -255.45291 -7.5210781
-71.010056 -255.46744 -7.5257831
-69.254883 -255.54729 -7.9419198
-66.586029 -255.45772 -8.503334
-74.609207 -255.4747 -12.031857
-76.218651 -255.57187 -13.256012
-62.287846 -255.40131 -13.968329
-63.078728 -255.46475 -14.507078
-66.683411 -255.39323 -7.3019791
-65.929031 -255.29861 -7.4993439
-66.105949 -255.31642 -8.0363474
-69.089966 -255.33566 -8.2183256
-78.474991 -255.35927 -8.691184
-74.377808 -255.32587 -11.820458
-61.730099 -255.39627 -13.394306
-75.078278 -255.32465 -13.423162
-60.040382 -255.38455 -14.579823
-71.71862 -255.37622 -21.541601
-70.318352 -255.0271 -7.3890939
-64.189568 -255.04041 -7.246068
-61.385815 -255.16675 -7.3263988
-68.232254 -255.02022 -7.418283
-78.027069 -255.01958 -7.8329749
-66.33329 -255.18112 -7.8456039
-67.173401 -255.0786 -8.1474762
-66.645599 -255.05377 -8.2602768
-69.386429 -255.18266 -8.6349812
-66.998886 -255.03668 -8.6114483
-68.258148 -255.02919 -8.9409189
-74.605179 -255.12074 -10.324517
-74.511368 -255.06039 -10.410499
-74.329086 -255.1022 -10.677988
-60.16708 -255.01779 -11.46125
-62.447803 -255.18988 -12.793145
-72.967957 -255.18933 -12.89777
-74.376266 -255.05766 -13.814999
-74.202385 -255.18651 -14.01506
-67.343475 -254.92978 -7.3651772
-66.033485 -254.8582 -7.24194
-62.659416 -254.96022 -7.3040051
-75.407646 -254.85008 -7.507195
-67.783928 -254.84612 -7.4249992
-66.743622 -254.92783 -7.8274088
-79.352966 -254.94144 -8.5455151
-68.237053 -254.92355 -8.5788212
-66.484222 -254.90909 -8.7967892
-66.308945 -254.94922 -8.7187347
-68.845749 -254.89609 -8.8640041
-75.026161 -254.89569 -10.626383
-74.230843 -254.99738 -10.615394
-74.896286 -254.96484 -10.994174
-74.815994 -254.99255 -11.773328
-60.455544 -254.8696 -11.718235
-74.159714 -254.95207 -12.536883
-60.460503 -254.86386 -12.548312
-60.366138 -254.83746 -12.597708
-71.982071 -254.98444 -13.468857
-71.850983 -254.99753 -22.686829
-65.337318 -254.71246 -7.2530608
-69.294785 -254.72031 -7.7763362
-78.100464 -254.75433 -8.8604565
-68.054092 -254.73288 -8.9973125
-66.858093 -254.61926 -9.0452166
-78.550522 -254.65286 -9.2933245
-74.848564 -254.73859 -10.764503
-74.961777 -254.62192 -13.049143
-61.569489 -254.76445 -13.122102
-69.00647 -254.49815 -7.3632612
-61.783295 -254.53281 -7.2329192
-68.905014 -254.52936 -7.4755831
-67.298065 -254.44963 -7.9052958
-78.904449 -254.44763 -8.2041206
-79.507568 -254.51015 -9.3343067
-67.244904 -254.53143 -9.3416519
-76.015991 -254.578 -12.704332
-74.212746 -254.48581 -13.569864
-67.836014 -254.29105 -7.4619641
-68.082726 -254.25024 -7.7589288
-68.156815 -254.31497 -8.310915
-79.861404 -254.33157 -8.7012072
-67.486984 -254.28197 -8.6759195
-78.971832 -254.3316 -9.1008911
-78.667358 -254.33743 -9.3398943
-66.994186 -254.29376 -9.3762932
-74.923035 -254.22083 -12.35676
-61.688435 -254.38774 -12.901897
-75.089699 -254.24841 -13.274311
-72.258194 -254.20052 -22.485201
-63.954712 -254.12465 -7.2034822
-61.723999 -254.15565 -7.2336121
-67.501244 -254.09927 -8.5848103
-67.676582 -254.13983 -9.0072746
-67.561363 -254.14494 -9.3056316
-74.568932 -254.17435 -11.716575
-75.054749 -254.08371 -12.201306
-74.631012 -254.10794 -12.324211
-74.477043 -254.17726 -12.346735
-60.82148 -254.06285 -12.667372
-75.35112 -254.15984 -13.315068
-64.013863 -253.94054 -7.2185869
-79.367165 -253.84589 -8.7213612
-79.350655 -253.86423 -8.8298054
-75.349686 -253.83261 -11.679064
-74.090996 -253.98587 -12.06037
-74.60701 -253.93436 -12.576225
-74.469139 -253.90071 -12.612755
-74.719345 -253.8761 -13.513273
-74.483803 -253.90465 -14.183638
-62.625336 -253.91359 -14.483399
-60.961765 -253.77887 -7.212142
-60.133385 -253.79726 -7.2274818
-79.905281 -253.64873 -7.9089251
-79.544624 -253.72783 -7.9877019
-67.66983 -253.75407 -8.7228832
-67.106178 -253.75539 -9.0500546
-61.430199 -253.65997 -11.37884
-74.997711 -253.79945 -11.783792
-76.304214 -253.63992 -14.035906
-61.302242 -253.41826 -7.1700568
-65.680656 -253.47543 -7.2265339
-78.556198 -253.46979 -8.9815893
-60.633633 -253.44934 -11.839975
-64.204529 -253.3539 -7.153892
-78.553421 -253.2791 -7.778367
-75.049461 -253.36626 -12.051729
-76.500946 -253.3304 -14.308151
-66.754669 -253.04306 -7.19488
-63.11216 -253.04303 -7.0720129
-60.808544 -253.11714 -7.160387
-61.446793 -253.09488 -12.558901
-60.295914 -252.98801 -7.1486049
-74.988731 -252.9164 -7.310133
-62.567005 -252.90193 -7.2050848
-63.424 -252.63927 -7.1355538
-61.262707 -252.70132 -7.1853409
-61.519573 -252.6098 -12.11514
-60.506393 -252.54489 -7.14993
-78.922379 -252.45662 -7.5979271
-79.886307 -252.57674 -7.6677122
-61.730274 -252.47803 -11.94179
-61.556099 -252.56691 -11.952028
-60.990776 -252.47937 -12.89673
-72.393166 -252.56041 -20.837772
-67.899765 -252.3837 -7.1917758
-67.136917 -252.26559 -7.1641388
-60.247074 -252.21985 -7.1344652
-60.444389 -252.35493 -12.287685
-61.206108 -252.36589 -16.00289
-79.407516 -252.15929 -7.5622392
-61.082497 -252.1218 -15.102844
-60.455959 -252.08197 -15.319666
-61.900352 -251.94354 -7.1272511
-60.63401 -251.83154 -7.1287022
-60.559891 -251.88367 -12.909395
-61.294956 -251.92996 -15.89607
-62.331322 -251.65753 -7.150135
-73.646683 -251.62083 -11.909488
-75.452286 -251.69441 -13.405401
-61.0802 -251.75136 -15.119656
-61.449444 -251.41068 -10.568388
-61.056099 -251.51025 -11.183885
-60.708122 -251.51241 -11.388334
-64.535011 -251.21788 -7.4337859
-61.383045 -251.32764 -10.997742
-61.607979 -251.2106 -11.476795
-61.83226 -251.39342 -11.726801
-61.318832 -251.39886 -12.167297
-76.431992 -251.34189 -15.195694
-76.31913 -251.34042 -15.112524
-76.293335 -251.2377 -15.269409
-72.074074 -251.36319 -21.173721
-72.372993 -251.38141 -22.85281
-63.135605 -251.09151 -7.0726538
-61.741554 -251.14288 -7.109479
-66.834312 -251.18475 -7.2628078
-60.56794 -251.04916 -9.9174299
-61.536976 -251.11082 -10.260106
-60.349785 -251.18869 -11.984048
-60.112164 -251.09267 -12.119552
-76.427994 -251.10837 -15.320831
-66.125557 -250.937 -7.1649041
-64.925011 -250.89441 -7.0682092
-62.425766 -250.81151 -7.0797658
-65.883209 -250.90764 -7.4364939
-61.74395 -250.92691 -10.148072
-73.169044 -250.94443 -10.881362
-61.885429 -250.90829 -11.914318
-60.516899 -250.98773 -14.653065
-76.835686 -250.87369 -16.231646
-76.691498 -250.81258 -17.138905
-64.873627 -250.72806 -6.958765
-61.408749 -250.62537 -7.0896811
-69.438866 -250.74713 -8.4023523
-61.840378 -250.62784 -10.533048
-61.835972 -250.62898 -11.076195
-62.067581 -250.69281 -11.427296
-60.374809 -250.62798 -11.567686
-61.800316 -250.68614 -12.080178
-76.181961 -250.69455 -14.211068
-66.193985 -250.49969 -7.1784048
-62.218491 -250.42184 -7.0923419
-66.6903 -250.48953 -7.3670931
-70.426987 -250.50586 -8.3150616
-69.439743 -250.49216 -8.2746191
-70.358398 -250.5529 -8.8142624
-61.057426 -250.51288 -10.498555
-60.757545 -250.55948 -10.462828
-61.449043 -250.53056 -10.983236
-60.278748 -250.58078 -11.66265
-73.920372 -250.52019 -20.699051
-71.71653 -250.50394 -21.434355
-65.507355 -250.29425 -7.0392799
-61.467579 -250.2282 -7.101191
-69.549065 -250.3063 -8.383317
-62.062424 -250.37244 -11.17753
-61.52256 -250.29053 -11.316956
-61.357101 -250.21504 -11.728596
-60.621445 -250.2971 -12.801725
-78.111008 -250.23749 -14.927255
-60.561562 -250.24213 -14.828465
-76.364426 -250.27379 -16.663506
-76.563309 -250.36118 -17.515476
-63.43438 -250.19699 -7.0706148
-63.075451 -250.10632 -7.0790739
-62.521847 -250.06471 -7.077569
-61.48547 -250.10367 -7.1065412
-70.416687 -250.12042 -8.1300659
-61.587135 -250.19821 -11.280685
-61.035835 -250.19746 -11.402495
-60.054955 -250.10434 -11.850849
-60.231197 -250.13206 -12.338235
-77.289047 -250.17322 -12.910713
-76.689972 -250.08652 -12.958331
-60.951252 -250.01424 -13.129307
-61.477272 -250.16068 -13.209869
-61.689911 -250.10507 -14.57672
-75.523849 -250.05629 -15.058187
-78.065811 -250.11278 -15.279737
-61.660305 -250.01067 -15.449506
-63.116379 -250.07507 -16.040497
-61.232483 -250.02516 -16.659466
-64.112175 -249.81378 -6.9404202
-61.788528 -249.84407 -7.0331922
-60.282227 -249.90274 -7.0951829
-69.588829 -249.99384 -8.4616394
-61.463898 -249.99539 -10.527887
-60.379761 -249.89026 -10.764859
-63.025627 -249.91029 -12.205389
-76.866608 -249.97887 -13.023628
-76.538208 -249.93085 -13.13886
-61.465782 -249.86771 -13.003837
-77.884659 -249.88248 -14.702759
-75.884453 -249.90686 -14.902324
-60.475334 -249.80185 -15.013869
-60.857796 -249.95274 -15.529963
-76.926971 -249.82227 -17.080679
-76.906265 -249.83165 -17.294388
-71.178795 -249.87621 -19.491203
-64.980865 -249.76146 -6.8885841
-64.441513 -249.79578 -6.9910851
-65.770256 -249.71022 -7.0456529
-64.830597 -249.69998 -7.030519
-66.706001 -249.69339 -7.5176072
-66.534035 -249.76495 -7.5372119
-66.552223 -249.73206 -7.951436
-67.969757 -249.67032 -8.1206017
-66.628143 -249.7207 -8.4595108
-66.649078 -249.728 -8.92484
-66.53746 -249.70596 -9.3176756
-73.017418 -249.65421 -9.420702
-66.611771 -249.72415 -9.83218
-66.489571 -249.74164 -11.05046
-66.527176 -249.74158 -11.643559
-61.65979 -249.77747 -12.514914
-63.941292 -249.70297 -13.409621
-62.793633 -249.7498 -13.895585
-76.909599 -249.75273 -16.273718
-78.304626 -249.78958 -16.583639
-74.298019 -249.71982 -19.926826
-61.50853 -249.43791 -7.0788879
-68.963654 -249.40715 -7.9189682
-60.741142 -249.45593 -11.418088
-63.258846 -249.56696 -12.073821
-60.664314 -249.5217 -12.101294
-60.543728 -249.45956 -12.980451
-62.331497 -249.32848 -7.0572119
-61.807976 -249.24556 -7.074172
-62.757301 -249.36394 -11.975864
-64.111595 -249.20764 -12.553103
-62.890343 -249.36121 -12.558418
-63.584644 -249.20853 -12.991844
-62.489349 -249.35223 -13.778104
-64.053711 -249.23932 -15.182319
-66.034241 -249.1174 -7.2146401
-67.660568 -249.07977 -7.5366492
-67.398911 -249.05171 -7.5011802
-60.175003 -249.08611 -7.7169948
-68.277252 -249.05823 -7.846117
-63.535835 -249.02802 -8.3989067
-60.185516 -249.07083 -8.3375978
-72.573044 -249.05637 -9.3595982
-60.213825 -249.01657 -9.3147507
-74.911018 -249.02467 -9.4788084
-71.982468 -249.00696 -9.9250011
-60.539001 -249.09003 -10.482742
-63.052238 -249.11653 -12.348684
-61.576645 -249.00049 -14.279403
-74.119545 -249.07538 -19.029661
-65.406372 -248.83917 -6.799211
-64.428375 -248.86917 -6.9394522
-62.217751 -248.98413 -7.0336342
-60.620457 -248.98459 -7.0321121
-66.465721 -248.91025 -7.3182001
-60.056122 -248.89999 -7.5314288
