# .PCD v0.7 - Point Cloud Data file format
VERSION 0.7
FIELDS x y z
SIZE 4 4 4
TYPE F F F
COUNT 1 1 1
WIDTH 1465
HEIGHT 1
VIEWPOINT 0 0 0 1 0 0 0
POINTS 1465
DATA ascii
-60.97612 -263.36005 -8.5763454
-60.611309 -263.34525 -8.5570717
-75.553635 -263.36255 -8.6171198
-61.390095 -263.3103 -8.6336746
-60.162899 -263.36578 -8.9352674
-61.305542 -263.30579 -9.0127306
-60.967136 -263.33209 -9.007534
-60.567532 -263.35632 -9.027935
-61.523609 -263.16415 -8.9131765
-61.491074 -262.95776 -8.1679344
-75.564529 -262.99289 -8.7444582
-68.773773 -262.98416 -14.170473
-68.65451 -262.90707 -14.606448
-67.9133 -262.97034 -14.6337
-61.457733 -262.64136 -8.5722828
-61.386318 -262.62225 -9.8783264
-60.957603 -262.69919 -9.8569574
-60.5186 -262.7211 -9.8700714
-61.383873 -262.61749 -10.012108
-60.978821 -262.68481 -10.021078
-60.568417 -262.69843 -10.021359
-60.122066 -262.715 -10.041977
-61.432796 -262.66669 -10.600285
-61.262501 -262.61218 -11.150188
-60.534344 -262.67279 -11.060431
-60.00753 -262.73367 -11.048108
-61.252365 -262.66537 -11.30247
-60.920547 -262.6698 -11.341568
-60.257847 -262.71814 -11.282761
-61.101761 -262.66602 -11.86619
-60.574867 -262.68787 -11.853497
-60.195068 -262.62924 -12.726558
-61.028107 -262.6062 -13.042632
-60.567932 -262.64282 -13.01639
-60.164471 -262.65173 -13.07823
-60.605629 -262.68344 -13.511204
-60.27343 -262.6748 -13.408409
-61.40263 -262.59399 -7.6975379
-75.481659 -262.42459 -8.2129183
-79.659607 -262.45764 -8.4123602
-75.532692 -262.55341 -8.6768446
-75.520355 -262.57175 -8.9197941
-61.332409 -262.50122 -12.175917
-60.16124 -262.58401 -12.201843
-61.418568 -262.4541 -12.505196
-61.325928 -262.55881 -13.052843
-61.315472 -262.582 -13.450541
-61.046112 -262.58081 -13.98735
-60.677048 -262.59235 -13.983541
-61.377575 -262.50464 -14.192229
-61.144615 -262.58014 -14.330717
-61.348351 -262.40668 -14.906002
-60.275883 -262.599 -14.977123
-60.489704 -262.51947 -15.316442
-75.521065 -262.25052 -8.1582747
-61.39801 -262.32278 -9.9894352
-61.43478 -262.21414 -12.679089
-61.370178 -262.25156 -12.899696
-61.409901 -262.20401 -13.390937
-68.148918 -262.29904 -15.566088
-79.398628 -262.12054 -8.3832779
-79.389282 -262.16547 -8.5900383
-75.51445 -262.16553 -8.686801
-61.731106 -262.08627 -10.071122
-61.474426 -262.13345 -10.15576
-61.781784 -262.09286 -11.219256
-61.561924 -262.1488 -11.912731
-61.651665 -262.04727 -12.117983
-61.511208 -262.09097 -12.12278
-61.618649 -262.06354 -12.476507
-61.706158 -262.04913 -13.496108
-61.334396 -262.17401 -13.613028
-61.432663 -262.09885 -14.862558
-67.451538 -262.09454 -15.528789
-61.361465 -262.05063 -15.779701
-70.814522 -262.02277 -15.924381
-70.733482 -262.19046 -15.896679
-75.501381 -261.80576 -8.647192
-66.616089 -261.86679 -14.405839
-70.003624 -261.82187 -14.603931
-61.711826 -261.95383 -14.977423
-67.024216 -261.97589 -15.464766
-70.214142 -261.72934 -12.443186
-69.448013 -261.68878 -12.446077
-79.267342 -261.40234 -8.5379438
-78.976204 -261.47696 -8.492733
-76.111954 -261.51587 -8.5996552
-69.399651 -261.41174 -14.539379
-72.753525 -261.2261 -14.726213
-72.250092 -261.07214 -9.9177132
-72.459267 -260.98566 -9.8727579
-72.33461 -260.97845 -10.017345
-67.633141 -260.85016 -13.336873
-72.212799 -260.78265 -9.9090729
-67.802383 -260.60968 -13.389992
-69.028656 -260.66534 -14.551033
-72.911674 -260.48074 -9.8865366
-72.712234 -260.58618 -9.9402885
-71.884575 -260.50159 -9.904335
-60.747871 -260.45465 -11.049578
-69.501656 -260.57251 -11.303267
-73.771576 -260.2056 -9.7245808
-72.719864 -260.27026 -9.9177551
-72.130127 -260.31519 -9.8846064
-71.875519 -260.38092 -9.8815088
-69.907333 -260.34494 -10.027788
-69.36499 -260.38809 -14.530476
-71.096634 -260.26691 -15.836185
-72.189331 -260.1478 -11.136306
-69.814041 -260.05826 -11.122754
-69.489822 -260.18408 -11.10091
-67.503479 -260.11322 -13.239693
-75.870193 -270.18774 -9.4463177
-75.839211 -270.07217 -10.429026
-75.697586 -270.15262 -11.328426
-75.855225 -269.84702 -9.4274502
-75.819031 -269.80811 -10.45044
-75.892052 -269.79309 -8.4888268
-75.840408 -269.46381 -9.4025154
-75.803169 -269.54956 -10.471172
-75.669609 -269.40192 -11.252684
-75.854027 -269.35117 -8.4642076
-75.815002 -269.31738 -10.317977
-75.821884 -269.08752 -9.3700857
-75.786705 -269.16208 -10.436972
-75.833717 -268.96851 -8.4462013
-75.798882 -268.9071 -8.9735317
-75.79686 -268.96085 -10.278397
-75.81897 -268.65887 -8.4316616
-75.800385 -268.6875 -9.3497982
-75.769264 -268.63379 -9.945363
-75.780487 -268.64615 -10.285299
-75.621201 -268.59106 -11.2246
-75.776299 -268.29395 -9.3474751
-75.792526 -268.14648 -8.6009674
-75.770279 -268.13306 -9.0171566
-75.734703 -268.13037 -9.8922653
-75.751633 -268.18024 -10.27737
-75.600082 -268.13513 -11.225657
-75.589218 -268.1279 -11.201421
-75.786293 -267.86047 -8.7216272
-75.75135 -267.75214 -8.9930019
-75.748215 -267.76508 -9.3238564
-75.728287 -267.77362 -9.8986511
-75.730164 -267.74438 -10.240377
-75.707542 -267.66003 -10.872652
-75.582062 -267.64227 -11.148703
-75.74157 -267.4003 -8.5283718
-75.751114 -267.35425 -8.9948282
-75.732628 -267.36163 -9.2855396
-75.705338 -267.32181 -10.182501
-75.714218 -266.93103 -8.6947002
-75.798882 -266.91586 -9.2649965
-75.546677 -266.84314 -9.754241
-75.244827 -266.92163 -10.14692
-75.703445 -266.8067 -10.957106
-75.544556 -266.89807 -11.0884
-75.234962 -266.6369 -10.122541
-75.695419 -266.57922 -8.6615906
-75.54776 -266.52698 -9.7701254
-75.725853 -266.55215 -10.068783
-75.684853 -266.22675 -9.0917168
-75.68898 -266.20758 -9.4252491
-75.324379 -266.28076 -10.089805
-75.682167 -266.22644 -10.948259
-75.674332 -266.17227 -10.064611
-75.5215 -266.04816 -11.018148
-75.694931 -265.91992 -9.105732
-75.717476 -265.79849 -9.3147707
-75.632889 -265.72998 -10.687729
-75.663155 -265.52728 -8.1742887
-63.756397 -265.58728 -9.6779413
-75.681404 -265.4884 -10.113373
-75.642723 -265.36591 -8.6775703
-75.62944 -265.35995 -10.666088
-75.635628 -265.0791 -8.6544123
-75.623741 -265.00146 -9.507473
-75.597504 -265.05157 -10.928442
-63.725723 -264.91968 -8.7110939
-65.601616 -264.80298 -9.4994278
-66.157883 -264.89722 -9.8335695
-65.203697 -264.81567 -9.9471703
-65.006523 -264.8114 -9.8173704
-64.612076 -264.81995 -9.8076744
-68.935608 -264.83188 -10.142413
-66.1026 -264.80762 -10.187098
-65.653275 -264.85446 -10.178366
-66.165443 -264.80606 -10.578665
-64.830574 -264.81097 -10.678928
-64.628571 -264.80988 -10.689434
-64.496521 -264.8103 -11.493963
-64.349457 -264.81485 -11.493289
-65.53598 -264.87766 -13.604844
-68.937965 -264.6326 -7.803184
-68.265228 -264.65402 -7.8473811
-67.902771 -264.65848 -7.89815
-67.059708 -264.6673 -7.9457231
-66.681206 -264.69507 -7.963069
-69.322723 -264.63025 -8.0540895
-65.033722 -264.77185 -8.0152245
-64.660416 -264.77502 -8.1023359
-68.992241 -264.61298 -8.2797451
-68.468079 -264.65253 -8.2402973
-68.156769 -264.6506 -8.2581549
-69.489655 -264.60034 -8.5412426
-69.023567 -264.60217 -8.5653429
-68.681274 -264.62079 -8.5835838
-66.837646 -264.69125 -8.5478582
-68.280357 -264.63263 -8.6021204
-67.864563 -264.63 -8.6256285
-67.098526 -264.65283 -8.6544399
-66.66185 -264.68225 -8.6741009
-66.472595 -264.69089 -8.6552706
-66.290649 -264.69025 -8.6941051
-65.872467 -264.66504 -8.7112808
-65.522858 -264.71942 -8.708292
-64.420341 -264.76157 -8.6581182
-68.630699 -264.6058 -8.9763575
-67.850754 -264.68335 -8.9196472
-67.029602 -264.67053 -8.9160891
-66.45179 -264.70157 -8.925272
-65.043953 -264.66504 -8.9064064
-70.21579 -264.64185 -9.0968151
-70.426064 -264.66577 -9.3584032
-70.19812 -264.64111 -9.3066092
-69.90361 -264.6152 -9.2973061
-69.452667 -264.6138 -9.3107719
-68.174042 -264.72073 -9.3727179
-67.875504 -264.67545 -9.3737917
-75.71154 -264.61151 -9.4850416
-67.101448 -264.70361 -9.4014835
-66.886345 -264.76248 -9.4291821
-66.65387 -264.76617 -9.4254704
-66.231796 -264.7619 -9.4412079
-65.91349 -264.78821 -9.4865847
-65.290527 -264.67694 -9.4652243
-70.428291 -264.64343 -9.7718096
-69.513901 -264.69772 -9.7966633
-66.250328 -264.79437 -9.7843695
-65.055031 -264.78748 -9.7564802
-63.720898 -264.78815 -9.622138
-75.530487 -264.65536 -9.8369522
-70.169571 -264.67181 -9.8679466
-69.741898 -264.67969 -9.8879986
-68.339531 -264.73535 -9.8107147
-67.012848 -264.7601 -9.8443832
-66.614548 -264.77338 -9.8100433
-65.279968 -264.78055 -9.8483133
-70.610062 -264.617 -10.094985
-70.33477 -264.65021 -10.05557
-69.888855 -264.66058 -10.083418
-69.461418 -264.72287 -10.084329
-69.136749 -264.75519 -10.12093
-68.668503 -264.74564 -10.118992
-68.49781 -264.69168 -10.091481
-68.285843 -264.70804 -10.119467
-67.945892 -264.70557 -10.129463
-67.089737 -264.67468 -10.139225
-66.632698 -264.73917 -10.154198
-66.335953 -264.74997 -10.151565
-70.271545 -264.66498 -10.614268
-69.884491 -264.64569 -10.645918
-69.523811 -264.75476 -10.6
-68.524925 -264.70612 -10.660823
-67.203735 -264.63556 -10.623082
-66.967255 -264.73633 -10.664759
-66.570625 -264.76007 -10.655981
-65.089859 -264.75211 -10.664001
-64.640198 -264.78741 -10.609437
-64.385338 -264.78857 -10.607531
-69.826492 -264.64951 -10.826089
-69.352165 -264.61804 -10.827594
-68.897095 -264.72797 -10.84456
-67.901962 -264.70303 -10.854084
-70.338722 -264.60962 -11.504437
-69.69899 -264.63647 -11.500989
-68.81636 -264.64459 -11.591311
-68.429688 -264.65408 -11.592094
-68.012367 -264.66162 -11.592891
-67.05481 -264.66324 -11.541286
-66.52858 -264.65784 -11.529003
-65.431229 -264.71356 -11.502289
-65.062454 -264.65723 -11.578979
-64.701508 -264.7124 -11.52215
-65.317139 -264.65524 -11.738595
-65.042992 -264.65643 -11.721695
-65.770584 -264.634 -11.80152
-64.994583 -264.65305 -12.323126
-64.662491 -264.64548 -12.388877
-64.393578 -264.67758 -12.312231
-65.055367 -264.66272 -12.764055
-65.262634 -264.6254 -12.854406
-69.092636 -264.6301 -13.18339
-64.658005 -264.73169 -13.175583
-66.516891 -264.70398 -13.950331
-68.095734 -264.60458 -14.209404
-66.340652 -264.66415 -14.862892
-66.773201 -264.60992 -15.082708
-69.333801 -264.58594 -7.9984021
-67.375816 -264.42899 -7.9174099
-67.744034 -264.55499 -8.1899977
-70.155037 -264.59497 -8.3415632
-69.747833 -264.59811 -8.3620453
-67.236916 -264.52136 -8.2926979
-70.649818 -264.48694 -8.4640837
-70.531227 -264.57532 -8.5308714
-70.254486 -264.58014 -8.5305786
-69.856972 -264.59219 -8.5609818
-67.232857 -264.48267 -8.5869722
-63.730228 -264.54498 -8.5961323
-65.196251 -264.58112 -8.7720861
-69.367104 -264.55356 -8.9445848
-69.010361 -264.59436 -8.9609623
-63.722225 -264.53143 -8.8958082
-70.633858 -264.52963 -9.1577044
-70.347549 -264.57306 -9.1580038
-69.73024 -264.5827 -9.0375528
-69.417633 -264.59296 -9.0389795
-70.505745 -264.56061 -9.2928085
-67.221252 -264.55676 -9.3681412
-63.720348 -264.51071 -9.5015421
-70.632187 -264.58405 -9.946456
-67.217163 -264.49146 -10.132229
-75.57579 -264.5314 -10.585253
-63.951069 -264.43915 -10.576625
-70.607124 -264.57788 -10.604134
-70.079773 -264.58505 -10.819565
-67.257088 -264.41269 -10.832247
-66.845299 -264.58627 -10.855868
-66.410217 -264.48526 -10.851368
-65.722366 -264.49387 -10.841404
-65.399689 -264.41605 -10.879768
-64.923492 -264.59305 -10.839784
-64.650887 -264.44489 -10.913731
-64.275879 -264.4342 -10.878761
-70.597527 -264.58072 -11.50118
-70.482452 -264.49963 -11.669839
-70.252098 -264.50021 -11.681318
-69.807991 -264.50635 -11.683064
-69.41964 -264.52612 -11.650271
-69.00502 -264.5285 -11.674845
-68.582146 -264.53299 -11.667694
-68.1726 -264.55487 -11.650324
-67.863831 -264.5264 -11.674173
-67.06321 -264.51648 -11.653906
-66.672592 -264.59882 -11.649178
-68.784027 -264.49908 -12.317944
-67.911209 -264.53494 -12.321495
-67.172363 -264.45718 -12.301571
-66.715752 -264.58276 -12.314962
-70.226715 -264.49869 -12.482295
-69.867142 -264.50146 -12.510311
-68.907417 -264.51709 -12.420946
-68.036407 -264.54575 -12.53855
-66.377525 -264.5983 -12.457926
-69.224487 -264.50983 -12.643223
-68.535522 -264.59113 -13.173975
-68.238785 -264.59091 -13.093386
-67.154373 -264.50571 -13.052715
-66.72187 -264.58865 -13.05668
-66.398598 -264.57312 -13.047159
-68.829094 -264.59113 -13.210991
-67.855164 -264.58945 -13.837822
-67.187843 -264.49243 -13.846716
-68.285454 -264.58212 -15.12566
-66.251205 -264.4892 -15.77305
-67.380791 -264.39023 -7.9298248
-71.4319 -264.24808 -8.3694897
-67.429031 -264.39856 -8.3521776
-70.911507 -264.20233 -8.4908009
-70.700806 -264.26288 -8.5365391
-67.482147 -264.39148 -8.455761
-67.335358 -264.38559 -8.5084257
-75.584808 -264.20782 -8.6215305
-67.403694 -264.35492 -8.6397972
-67.377136 -264.37427 -8.6528063
-70.909813 -264.28094 -8.8380384
-67.32254 -264.3638 -8.9657497
-65.632874 -264.31372 -8.895175
-65.433563 -264.3082 -8.896059
-65.103577 -264.32593 -8.9158783
-70.729736 -264.28943 -9.064455
-68.067665 -264.23474 -9.1237364
-70.707748 -264.30402 -9.3137512
-67.419083 -264.35559 -9.3763933
-70.836075 -264.28943 -9.5592728
-67.304634 -264.36063 -9.4048386
-65.499451 -264.263 -9.4307585
-70.924026 -264.2272 -9.7275009
-70.856773 -264.23254 -9.8917542
-70.688591 -264.30164 -9.828125
-70.906105 -264.22784 -10.06038
-70.688087 -264.33746 -10.063808
-67.379341 -264.32379 -10.107864
-65.546211 -264.33832 -10.13753
-70.820511 -264.21921 -10.778677
-70.715736 -264.25262 -10.726821
-70.861923 -264.21524 -10.853877
-70.630798 -264.26123 -10.85785
-70.260864 -264.33441 -10.860308
-69.826324 -264.30005 -10.861244
-69.447296 -264.29944 -10.895981
-69.017952 -264.31174 -10.86895
-68.497604 -264.33008 -10.823891
-68.111031 -264.31824 -10.894392
-67.842392 -264.3208 -10.914965
-67.519043 -264.32904 -10.853127
-67.121399 -264.36264 -10.86014
-66.690742 -264.34717 -10.892899
-66.059189 -264.37265 -10.90411
-65.825951 -264.37671 -10.895972
-65.457687 -264.3877 -10.89389
-65.175217 -264.39032 -10.891766
-70.883377 -264.23798 -11.445246
-67.379662 -264.32367 -11.496712
-70.67627 -264.31598 -11.663687
-67.36837 -264.30606 -11.683185
-70.699768 -264.36642 -13.059287
-67.441025 -264.21851 -14.105038
-67.327576 -264.2287 -14.440228
-67.117157 -264.22598 -14.507779
-63.822342 -264.28833 -15.302492
-67.155609 -264.25031 -15.520242
-70.950058 -264.11005 -8.2906322
-70.525642 -264.11853 -8.2867546
-70.035965 -264.12329 -8.2688332
-69.834641 -264.14532 -8.2806911
-71.074753 -264.16577 -8.4810486
-68.663483 -264.02228 -9.3082123
-68.233459 -264.06412 -9.326189
-68.058266 -264.05591 -9.3381824
-67.971573 -264.13467 -9.3291168
-70.822678 -264.18073 -10.198643
-70.732101 -264.18036 -11.460014
-70.873581 -264.1214 -11.649221
-70.716797 -264.18671 -12.517717
-68.338699 -263.83124 -7.6293221
-75.570114 -263.85361 -8.6099634
-68.757507 -263.99738 -9.2513885
-75.542435 -263.80054 -9.549078
-75.576828 -263.78064 -9.0089283
-75.556778 -263.41681 -8.57967
-75.651741 -263.48438 -8.9633627
-68.257965 -263.48157 -12.31534
-68.195908 -263.58209 -12.448481
-68.147537 -263.58728 -13.558878
-67.969788 -263.54974 -14.076977
-60.997227 -263.33643 -8.2506084
-60.565643 -263.36139 -8.2724266
-60.338177 -263.35571 -8.2380352
-61.054691 -263.35272 -8.6330528
-61.397522 -263.28223 -8.9305801
-61.040199 -263.31894 -8.9532309
-60.524895 -263.35477 -8.9552689
-60.206535 -263.35437 -9.0070553
-67.567474 -263.35181 -14.018805
-75.566147 -263.13635 -8.380662
-75.538437 -263.05585 -8.5218096
-79.683784 -263.04297 -8.8412981
-61.480259 -263.134 -8.8843422
-68.203659 -263.05331 -12.301844
-61.44133 -263.0564 -17.330013
-60.201836 -262.82605 -8.1745815
-61.465092 -262.99097 -8.2249842
-61.471859 -262.95197 -8.6068439
-79.670441 -262.81345 -9.3658361
-60.727348 -262.95117 -9.5266552
-79.692665 -262.99362 -9.7173882
-60.146645 -262.85773 -10.161902
-69.205032 -262.91577 -11.456657
-69.18309 -262.85663 -11.406105
-69.213127 -262.89651 -13.068022
-67.898773 -262.98328 -14.698164
-61.412384 -262.60892 -8.1836929
-75.541718 -262.7045 -8.4562111
-79.678154 -262.71732 -8.8450727
-61.416634 -262.61279 -8.8831959
-60.27401 -262.61783 -9.0947437
-61.357891 -262.64291 -9.4830904
-60.969376 -262.6701 -9.4994926
-60.114006 -262.70227 -9.4134407
-79.650436 -262.61768 -9.6983681
-61.284721 -262.61017 -9.7309456
-60.090416 -262.71646 -9.751379
-60.930119 -262.69168 -9.8190002
-60.486504 -262.70996 -9.8466282
-60.666039 -262.67975 -10.074146
-60.225353 -262.69397 -10.128392
-60.530533 -262.6889 -10.682963
-60.827049 -262.66663 -11.102289
-60.555275 -262.65607 -11.137887
-60.156853 -262.68646 -11.135306
-61.010178 -262.67456 -11.312628
-60.525833 -262.6778 -11.231806
-60.257286 -262.67578 -11.305356
-60.058399 -262.71667 -11.810117
-69.697357 -262.63531 -12.987591
-60.897755 -262.60431 -13.774364
-60.256935 -262.63513 -13.704559
-60.92598 -262.60562 -14.080083
-68.544662 -262.69916 -14.751814
-60.248524 -262.60233 -14.683208
-75.514404 -262.54016 -8.3474922
-75.515251 -262.4332 -9.3935223
-69.342506 -262.52557 -11.435786
-61.041794 -262.57764 -11.951193
-60.714516 -262.57693 -12.069157
-60.288193 -262.57031 -12.070697
-68.890236 -262.45862 -12.250349
-61.36668 -262.4433 -12.595064
-60.149258 -262.51489 -12.601858
-61.078068 -262.55011 -12.938447
-60.713409 -262.53943 -12.873417
-69.59697 -262.47305 -13.013329
-61.060318 -262.57257 -13.373672
-60.643028 -262.59235 -13.330971
-60.631977 -262.5994 -13.705607
-60.2742 -262.57187 -14.89098
-60.696239 -262.50885 -15.903207
-75.525864 -262.32309 -8.325531
-61.415173 -262.29657 -8.5906467
-61.422733 -262.2616 -8.8666801
-79.617645 -262.35748 -9.7010803
-78.485329 -262.23227 -9.6658497
-61.401474 -262.25659 -10.455795
-69.009903 -262.21902 -12.133503
-69.50753 -262.28375 -12.92458
-61.369053 -262.2782 -13.359726
-66.601639 -262.35019 -14.613904
-61.779709 -262.1416 -8.2594395
-61.41494 -262.19421 -8.2081528
-75.515129 -262.18591 -8.5145464
-61.660538 -262.13345 -8.7737122
-77.495979 -262.1777 -8.8426275
-75.506927 -262.17468 -8.8905764
-61.721691 -262.1239 -8.8522902
-75.458084 -262.10956 -9.4287548
-61.685188 -262.10052 -9.4715986
-61.405045 -262.19672 -9.4887924
-61.725349 -262.09442 -9.6741791
-61.540909 -262.13348 -9.6818638
-61.708817 -262.06152 -10.32497
-61.671192 -262.08368 -10.464396
-61.545578 -262.10022 -10.425133
-61.702408 -262.05597 -11.135849
-61.447292 -262.10345 -11.138977
-61.555275 -262.10608 -11.333348
-69.395981 -262.16806 -11.42247
-68.988922 -262.02222 -11.973071
-68.644867 -262.12973 -11.991329
-61.695778 -262.03497 -11.889703
-61.420605 -262.0863 -11.856458
-69.662811 -262.16623 -12.100403
-69.588768 -262.14038 -12.198927
-61.371712 -262.11298 -12.065328
-61.652462 -262.04236 -12.263849
-69.643524 -262.01419 -12.887325
-61.355946 -262.13464 -13.104893
-61.407063 -262.09656 -14.113777
-67.678268 -262.12036 -15.682503
-67.817146 -261.94373 -7.7471299
-75.497429 -261.91995 -8.3326454
-77.650085 -261.83948 -8.5606174
-77.666412 -261.82227 -8.8389578
-75.487 -261.86829 -8.9181442
-68.716454 -261.92151 -11.161075
-69.363007 -261.85864 -11.317484
-69.036591 -261.87253 -11.394562
-67.262772 -261.82306 -11.334332
-69.393669 -261.8833 -12.163134
-61.556602 -261.95084 -12.963929
-66.649857 -261.89487 -14.330596
-68.517204 -261.93176 -14.757309
-61.47747 -261.99869 -14.719234
-61.767876 -261.94141 -15.734796
-67.462112 -261.70529 -7.6186872
-77.560936 -261.75745 -8.8131142
-75.46917 -261.78717 -9.4097233
-78.898727 -261.61401 -9.6264954
-77.684608 -261.73984 -9.6429491
-69.949905 -261.79361 -11.97358
-70.402405 -261.7868 -12.146336
-67.195686 -261.616 -12.072577
-75.598877 -261.58331 -8.1794891
-76.279396 -261.57898 -8.2999573
-75.746552 -261.52521 -8.5800838
-78.932365 -261.50607 -8.7367315
-78.346199 -261.50375 -8.7287312
-77.70137 -261.48782 -8.7904272
-75.473488 -261.56232 -8.7334423
-78.922859 -261.48743 -8.8076639
-77.658875 -261.54355 -8.8203793
-75.626717 -261.50073 -9.3757668
-78.9664 -261.43326 -9.5872431
-78.9599 -261.4523 -9.6431818
-70.426239 -261.52936 -12.334271
-70.140732 -261.47647 -12.93515
-68.832047 -261.44632 -12.818403
-78.687668 -261.27243 -7.8993258
-79.367409 -261.37952 -8.7346792
-79.680008 -261.33957 -9.560463
-79.75412 -261.31339 -9.640049
-79.387665 -261.32318 -9.6471672
-60.41555 -261.37509 -11.098656
-60.165333 -261.32831 -11.213087
-69.822876 -261.20789 -14.174049
-69.419518 -261.35648 -14.530308
-72.81192 -261.13638 -9.3718557
-72.775078 -261.12543 -9.3729286
-72.203682 -261.0885 -9.7767115
-69.497459 -261.0892 -14.529068
-73.06839 -260.98166 -11.160103
-67.162064 -260.80389 -12.652782
-68.470085 -260.9845 -15.46476
-72.515228 -260.65765 -9.4840946
-72.162422 -260.75711 -9.7573328
-72.622101 -260.67514 -9.8067608
-72.229477 -260.6026 -10.316326
-61.57159 -260.63644 -10.222112
-71.987305 -260.60233 -10.41396
-69.355324 -260.63919 -10.474091
-69.439522 -260.67426 -11.148762
-69.484482 -260.60138 -11.94383
-67.320511 -260.64178 -13.299498
-72.240074 -260.54977 -9.3431759
-72.863472 -260.48322 -9.8108006
-61.706917 -260.51105 -10.022881
-69.844307 -260.47821 -10.430761
-69.704422 -260.56226 -11.041582
-69.500519 -260.53259 -11.264299
-67.206757 -260.41507 -12.278199
-67.284554 -260.41611 -12.593805
-73.865692 -260.57303 -12.671288
-68.251877 -260.45676 -13.93991
-72.69355 -260.21191 -9.7878132
-72.25679 -260.28522 -9.7785435
-69.869263 -260.23413 -10.341047
-70.186615 -260.26559 -10.498568
-69.861351 -260.22369 -10.449025
-70.076584 -260.21765 -11.009396
-69.420105 -260.22409 -11.1292
-60.80246 -260.31979 -11.051532
-69.705826 -260.24854 -11.207236
-62.158257 -260.25183 -12.320151
-67.492218 -260.354 -13.918468
-66.535492 -260.0889 -7.5368471
-66.528336 -260.03595 -7.680079
-72.407043 -260.18823 -9.3064594
-70.180634 -260.186 -10.378496
-69.835335 -260.10226 -11.110595
-69.805679 -260.11194 -11.789875
-60.085716 -260.1272 -12.909876
-67.578468 -260.07761 -13.148056
-72.692688 -260.15753 -13.298454
-67.434441 -260.18658 -13.245457
-71.347275 -260.13074 -13.696131
-74.81868 -277.32657 -10.884732
-74.15332 -276.96548 -10.188757
-73.442413 -275.7843 -10.247953
-73.618797 -275.48172 -10.227079
-62.553722 -274.92691 -17.612206
-76.273666 -274.22061 -10.962668
-75.315559 -274.31372 -16.090206
-76.255394 -274.19012 -10.619413
-75.973114 -274.14117 -11.013269
-76.648041 -273.5625 -10.711638
-76.62619 -273.57065 -11.793652
-77.146019 -272.93213 -12.62734
-63.007309 -272.41022 -8.6031418
-62.34333 -272.41913 -8.7852497
-62.902176 -272.41269 -9.4524775
-63.429867 -272.48764 -10.236825
-62.652645 -272.43378 -10.976791
-63.319534 -272.3884 -11.008451
-62.55751 -272.3555 -12.061512
-63.062477 -272.31204 -12.609936
-62.606522 -272.33643 -14.275611
-62.26326 -272.16901 -9.5485239
-62.269714 -272.15192 -14.281866
-62.217201 -271.79514 -10.398676
-62.124504 -271.57892 -15.992533
-62.206001 -271.30264 -9.5287209
-62.19833 -271.02618 -11.111763
-62.107841 -271.07123 -15.79822
-62.17997 -270.4491 -11.001585
-62.155266 -270.5014 -12.61157
-62.141468 -270.44586 -13.405499
-75.863152 -270.13803 -10.36619
-62.083961 -270.14609 -16.571213
-75.877502 -269.88593 -8.5767651
-62.106724 -269.82623 -14.943808
-62.052986 -269.84595 -16.484531
-62.141403 -269.45886 -9.4546108
-63.783428 -269.51099 -12.415527
-63.656395 -269.42194 -16.038374
-75.792145 -269.30356 -10.377698
-62.059135 -269.31171 -13.969128
-63.719727 -269.00095 -8.5944433
-75.776024 -269.00998 -10.353468
-62.101784 -269.08429 -10.943981
-62.615009 -268.901 -7.9426408
-62.129654 -268.99124 -9.4635925
-63.070015 -268.70914 -7.9456158
-62.248024 -268.75339 -7.9659848
-62.576202 -268.74298 -8.0320578
-62.318546 -268.75555 -8.0374022
-62.534149 -268.74524 -8.6418695
-62.179287 -268.62305 -8.7119017
-62.048664 -268.73868 -13.218661
-62.109707 -268.52148 -9.4526634
-75.781189 -268.55099 -9.7965231
-62.114891 -268.21375 -7.979558
-62.079651 -268.33716 -8.0501757
-75.762177 -268.23132 -9.7788029
-66.216202 -268.28467 -10.036106
-62.018463 -268.20361 -14.385723
-62.0308 -268.2955 -14.604057
-62.086739 -268.02686 -8.6959419
-62.095257 -268.14731 -9.4340944
-65.798317 -268.18396 -10.009336
-75.668488 -268.04034 -11.026749
-62.044685 -268.03561 -11.570219
-75.595779 -267.96649 -11.200218
-62.010834 -267.82965 -12.186992
-62.016861 -267.83728 -14.518534
-62.074886 -267.78156 -8.693222
-62.078835 -267.77859 -9.435358
-63.628651 -267.61252 -9.9395666
-75.579697 -267.7673 -11.137021
-62.040932 -267.79291 -11.62068
-63.468781 -267.5834 -10.095032
-62.03426 -267.43024 -10.08703
-61.990337 -267.44553 -12.233859
-62.06163 -267.38361 -8.0098343
-66.465408 -267.24173 -9.9274044
-62.008064 -267.29379 -11.575459
-62.000793 -267.32596 -12.323755
-62.047771 -267.03784 -8.0183773
-62.035225 -267.1265 -10.127291
-61.984818 -267.0087 -14.426275
-62.041275 -266.88745 -8.70891
-63.836975 -266.98285 -9.0953255
-62.038433 -266.92984 -9.3961506
-62.020142 -266.91092 -10.841199
-61.93364 -266.95676 -15.599312
-61.646355 -266.87491 -18.772575
-75.696175 -266.60214 -8.6570272
-75.852898 -266.72314 -9.423317
-72.826355 -266.38086 -8.308898
-62.014053 -266.26727 -8.7217083
-63.784714 -266.20438 -9.2012787
-61.997547 -266.39941 -10.102695
-61.937714 -266.26877 -14.228786
-75.692673 -266.10745 -9.7111883
-75.660095 -266.13464 -9.8614082
-61.988213 -265.86243 -10.053669
-62.003117 -265.69904 -8.7208176
-62.021252 -265.67795 -9.3948927
-62.03933 -265.50546 -10.739244
-61.953228 -265.51559 -11.43573
-61.976101 -265.26791 -8.7230549
-75.54744 -265.32806 -9.67873
-61.945885 -265.24146 -9.9878912
-61.955544 -265.29626 -10.73701
-62.116756 -265.2818 -12.054502
-75.617706 -265.0322 -8.9996099
-61.969795 -265.01819 -9.3896656
-63.719353 -264.90924 -8.651741
-61.956463 -264.88324 -8.694294
-64.603912 -264.84686 -9.3137512
-64.201569 -264.85583 -9.3262358
-64.991142 -264.81815 -9.4132576
-64.66629 -264.81995 -9.9487057
-64.229729 -264.83521 -9.9399586
-61.948975 -264.81702 -10.043708
-66.163635 -264.85358 -10.31312
-65.760498 -264.85895 -10.326351
-65.330734 -264.82526 -10.346947
-65.099373 -264.8002 -10.258974
-64.444389 -264.82657 -10.298427
-64.189857 -264.82346 -10.364108
-64.231461 -264.81332 -10.492118
-61.87326 -264.8689 -13.241431
-64.846565 -264.90247 -13.63905
-66.142822 -264.82867 -14.290833
-65.753937 -264.84955 -14.315519
-65.07048 -264.87552 -14.259585
-64.756691 -264.88965 -14.251936
-65.163689 -264.82776 -14.40279
-65.56723 -264.82794 -14.878776
-68.128326 -264.64691 -7.7551031
-66.205078 -264.69785 -7.8775201
-65.335854 -264.72107 -7.9057808
-68.636337 -264.63879 -8.18153
-65.385498 -264.72427 -8.0772896
-64.712952 -264.75565 -8.0412159
-64.162575 -264.76184 -8.0587921
-69.730453 -264.60156 -8.2945919
-69.374634 -264.61157 -8.2700424
-68.952652 -264.61951 -8.2934093
-67.796616 -264.64124 -8.2737408
-66.191086 -264.70294 -8.3112507
-65.764977 -264.72205 -8.2870522
-69.451675 -264.60074 -8.5251446
-68.545502 -264.62704 -8.4827499
-68.083878 -264.63763 -8.5174112
-67.833374 -264.64569 -8.575449
-67.716064 -264.65302 -8.4451895
-66.183273 -264.68591 -8.5104141
-69.726883 -264.60034 -8.705267
-67.107376 -264.66092 -8.7921171
-65.467422 -264.71228 -8.6064758
-64.986069 -264.72842 -8.6300106
-64.224518 -264.75369 -8.6867962
-64.126755 -264.75443 -8.6394053
-66.054367 -264.68338 -8.842905
-65.039032 -264.70978 -8.891387
-68.504822 -264.60217 -9.0594645
-67.750214 -264.62216 -9.055316
-66.580658 -264.65771 -9.1318769
-66.222221 -264.66394 -9.1456442
-65.8909 -264.63364 -9.0112514
-64.549164 -264.72168 -9.1111708
-75.630066 -264.7132 -9.3850317
-66.11467 -264.67776 -9.3729019
-64.611923 -264.71429 -9.2257109
-69.735733 -264.69055 -9.4379148
-67.79055 -264.72705 -9.5072651
-67.038719 -264.71381 -9.5470848
-66.926376 -264.76544 -9.5354834
-65.907623 -264.68692 -9.5397816
-68.507729 -264.71988 -9.7465744
-67.755135 -264.71149 -9.6867676
-68.5961 -264.72791 -9.8043489
-68.19487 -264.72217 -9.8191662
-66.966782 -264.75372 -9.8757162
-66.623917 -264.75635 -9.873333
-66.459038 -264.76373 -9.819602
-65.075829 -264.79684 -9.8643475
-64.783989 -264.798 -9.9239864
-70.391068 -264.64673 -10.037394
-66.895454 -264.72324 -10.134786
-66.923546 -264.72534 -10.30678
-66.643021 -264.74146 -10.319969
-66.303375 -264.7612 -10.289467
-64.94178 -264.7854 -10.352291
-68.89151 -264.76794 -10.451382
-68.508545 -264.70416 -10.461044
-68.067001 -264.70187 -10.469019
-66.939194 -264.72583 -10.497399
-66.490753 -264.74551 -10.499203
-66.323639 -264.74979 -10.462838
-61.939884 -264.71603 -10.697145
-64.927933 -264.77484 -11.136163
-65.446304 -264.77637 -11.256885
-61.920261 -264.78107 -11.321666
-70.507492 -264.61676 -11.490252
-69.776909 -264.63641 -11.494717
-68.291618 -264.66266 -11.545252
-66.605736 -264.60114 -11.572945
-66.200806 -264.60516 -11.568395
-65.795303 -264.69507 -11.400684
-64.967346 -264.6412 -11.579837
-64.591187 -264.67657 -11.55864
-65.008591 -264.61969 -11.833714
-64.279526 -264.64224 -11.814018
-64.507706 -264.65295 -12.466191
-64.154396 -264.66705 -12.502134
-65.13298 -264.70023 -13.210825
-64.498856 -264.74252 -13.386609
-64.212921 -264.74603 -13.386686
-67.752579 -264.62585 -13.492352
-66.610832 -264.68417 -13.517859
-63.987595 -264.74817 -13.776215
-64.22155 -264.74783 -13.873482
-70.060898 -264.65991 -14.17663
-66.888298 -264.66138 -14.318205
-65.830582 -264.78369 -14.303476
-64.622826 -264.77875 -14.249044
-64.123573 -264.73157 -14.28531
-64.903168 -264.78516 -14.463617
-66.249695 -264.64655 -14.849404
-65.830986 -264.68274 -15.118737
-65.27916 -264.70053 -15.08756
-64.537903 -264.69574 -15.144654
-65.794479 -264.66528 -15.207755
-69.128235 -264.54422 -8.1141939
-63.880341 -264.5368 -8.05305
-63.784531 -264.50098 -8.0839796
-69.011383 -264.50693 -8.2640886
-67.242081 -264.46661 -8.262743
-70.265923 -264.54907 -8.5774288
-67.412964 -264.50616 -8.5894146
-63.852898 -264.50818 -8.6730938
-63.723953 -264.52133 -8.6532764
-61.939167 -264.42957 -8.6939583
-69.786469 -264.57281 -9.0340757
-68.984909 -264.59158 -9.1360312
-63.818653 -264.47931 -9.3279867
-61.947342 -264.46555 -9.3765345
-70.59317 -264.57245 -9.5105629
-63.850914 -264.46313 -9.9414167
-61.915085 -264.42215 -9.950717
-61.931168 -264.41171 -10.025113
-63.816044 -264.44989 -10.349696
-63.903538 -264.45526 -10.600098
-63.824844 -264.44159 -11.048769
-63.866879 -264.44165 -11.247099
-66.949837 -264.56927 -11.581099
-68.145264 -264.5394 -11.726252
-65.773369 -264.59161 -11.728287
-63.68576 -264.44067 -11.669342
-63.749161 -264.43753 -11.886457
-69.775429 -264.48367 -12.108644
-68.647789 -264.48828 -12.149984
-67.036606 -264.53323 -12.166151
-67.580467 -264.54965 -12.317774
-67.103851 -264.54614 -12.321836
-63.722507 -264.41187 -12.270503
-67.550461 -264.48306 -12.497532
-70.064728 -264.57721 -13.247314
-66.626389 -264.55408 -14.781576
-64.0951 -264.58322 -15.240683
-75.607422 -264.32089 -8.558423
-75.591461 -264.20578 -8.5907164
-67.366295 -264.38141 -8.6379404
-70.88427 -264.27136 -8.9042673
-65.73819 -264.28723 -8.9002895
-68.095596 -264.25302 -9.1004448
-67.339203 -264.36127 -9.0549955
-65.37619 -264.28729 -9.0984821
-67.317436 -264.35632 -9.5208111
-67.337158 -264.3447 -9.7138462
-79.777306 -264.28656 -9.8257456
-67.29744 -264.34576 -9.8038387
-70.906357 -264.23294 -10.127909
-67.348587 -264.32309 -10.285101
-75.616455 -264.2583 -10.572046
-67.356247 -264.32523 -10.465723
-67.002876 -264.32806 -10.904747
-66.598526 -264.3367 -10.91565
-66.189529 -264.34924 -10.930403
-67.301483 -264.32483 -11.065039
-70.708649 -264.20782 -11.515507
-67.323769 -264.29523 -12.1242
-67.432785 -264.28705 -12.369476
-70.673264 -264.20282 -12.460717
-70.70929 -264.24219 -13.05625
-63.76973 -264.38434 -13.390495
-61.877823 -264.24033 -13.233887
-67.281311 -264.23071 -13.513384
-63.663517 -264.37073 -14.185848
-63.818909 -264.3573 -14.272877
-63.720688 -264.36456 -14.465717
-67.652481 -264.26355 -16.025555
-63.534813 -264.07669 -7.4288678
-70.573395 -264.05975 -8.1439285
-71.054901 -264.18045 -8.501298
-68.070892 -264.04462 -9.5043707
-67.345612 -264.19897 -14.67865
-62.682732 -263.67404 -7.4675059
-62.575233 -263.67456 -8.0810442
-62.145782 -263.78656 -8.0792532
-61.98214 -263.79056 -8.6645098
-66.727257 -263.51794 -7.5838671
-64.241791 -263.45142 -7.4525118
-79.770554 -263.43921 -9.0723124
-75.574532 -263.42731 -10.280035
-67.610748 -263.56696 -13.902185
-65.118095 -263.32367 -7.4399529
-61.971115 -263.37476 -8.0952005
-60.955822 -263.35382 -8.15804
-60.654999 -263.36011 -8.157589
-60.193558 -263.28806 -8.1450367
-61.929585 -263.31824 -8.6691742
-60.950573 -263.33899 -8.6935673
-60.601074 -263.3501 -8.7144127
-60.159195 -263.36169 -8.6787138
-60.232941 -263.35593 -8.9050636
-61.921024 -263.32242 -9.1732082
-60.596535 -263.33917 -9.06145
-61.969536 -263.30148 -9.3151026
-61.947735 -263.28314 -9.8989925
-61.93721 -263.34668 -10.359847
-61.945469 -263.29752 -10.555897
-60.043465 -263.29761 -11.051399
-60.15263 -263.30118 -11.801781
-61.919575 -263.23157 -14.675491
-61.858589 -263.25009 -14.86949
-65.006432 -263.05508 -7.4530282
-63.130531 -263.07816 -7.4782581
-62.783443 -263.00357 -7.4410982
-75.552055 -263.04153 -8.9998169
-61.475914 -263.12122 -8.9241009
-60.129585 -263.18118 -9.1173573
-61.895771 -263.17841 -9.3458433
-61.843513 -263.07773 -14.247321
-61.847698 -263.01202 -14.675892
-64.788971 -262.97522 -7.4950609
-63.391922 -262.98264 -7.476305
-61.886208 -262.84808 -8.0836773
-60.220917 -262.93777 -8.0973988
-61.898037 -262.91571 -8.6923418
-79.65818 -262.90753 -9.2776527
-79.654144 -262.9982 -10.024179
-75.534843 -262.99911 -10.247625
-69.0979 -262.83682 -13.33371
-61.846855 -262.8815 -13.399073
-63.681179 -262.67957 -7.4915309
-63.590054 -262.72543 -7.4425731
-60.331104 -262.77011 -8.0296392
-61.418198 -262.61139 -8.2807064
-61.890297 -262.78024 -9.3361015
-61.00972 -262.69666 -9.3934116
-60.260792 -262.6449 -9.2684832
-61.395325 -262.63647 -9.5559177
-79.625168 -262.70712 -9.7894783
-60.823181 -262.67123 -9.6005974
-60.534058 -262.69196 -9.6597767
-60.179092 -262.70581 -9.7502832
-61.868107 -262.62448 -9.9426899
-60.938564 -262.75687 -9.9324274
-60.703438 -262.71307 -9.8771343
-79.624321 -262.70319 -10.001443
-60.151848 -262.67645 -10.281056
-61.873722 -262.79547 -11.187967
-60.492748 -262.67435 -11.056154
-61.319775 -262.61206 -11.345186
-60.951775 -262.612 -13.050052
-61.839386 -262.64752 -13.510271
-61.021236 -262.61969 -13.717178
-60.700626 -262.60773 -13.724832
-60.145042 -262.62573 -13.796473
-60.152191 -262.61575 -14.211398
-61.013195 -262.60229 -14.545959
-61.886368 -262.48444 -8.0912018
-61.879986 -262.52615 -8.7185907
-60.484352 -262.59314 -9.269577
-79.613144 -262.51682 -9.4629021
-75.519394 -262.45258 -9.9084072
-60.24408 -262.54669 -12.213861
-60.754269 -262.5899 -14.118448
-61.275719 -262.40451 -15.752369
-62.782162 -262.57916 -17.423237
-66.090607 -262.27094 -7.438755
-63.963978 -262.37372 -7.519094
-78.523529 -262.31851 -8.36127
-78.182182 -262.34637 -8.3056679
-75.506645 -262.26154 -8.2598286
-78.485825 -262.29755 -8.4577656
-78.234192 -262.319 -8.6681347
-61.857353 -262.3316 -8.7184563
-61.498558 -262.22275 -8.6562767
-78.457619 -262.26709 -9.1638927
-78.32785 -262.28238 -9.1845837
-76.993774 -262.35178 -9.3094187
-61.805878 -262.22617 -9.8847189
-61.403683 -262.29825 -10.26649
-68.557915 -262.20831 -14.610721
-64.032387 -262.18393 -7.4392972
-61.801037 -262.1889 -8.1291161
-61.526337 -262.16626 -8.1728058
-61.751873 -262.16235 -8.7026138
-61.446522 -262.14822 -8.7237768
-77.381851 -262.12637 -9.1476164
-61.442352 -262.17557 -9.034708
-61.770325 -262.18884 -9.3566198
-61.494335 -262.13959 -9.434309
-61.710732 -262.09277 -9.9220333
-61.517082 -262.13837 -9.8135643
-61.725597 -262.05655 -10.321253
-61.522659 -262.07776 -10.363542
-61.690891 -262.09583 -10.470826
-61.478455 -262.13397 -10.438466
-61.517067 -262.0636 -10.631302
-61.521629 -262.09045 -11.136225
-61.748405 -262.06531 -11.334488
-61.695984 -262.06625 -11.705702
-68.593849 -262.11853 -11.951164
-69.011475 -262.0694 -12.231018
-61.686417 -262.03937 -12.300228
-61.469879 -262.04556 -12.94524
-61.349251 -262.08911 -13.614519
-69.253159 -262.11551 -15.141504
-75.478699 -261.81482 -8.6876831
-67.120483 -261.814 -10.843307
-68.913155 -261.86761 -11.276529
-69.052452 -261.97501 -12.199352
-70.123276 -261.91003 -12.659657
-61.70253 -261.99429 -12.869837
-61.661613 -261.99182 -14.085643
-69.178261 -261.93048 -14.5912
-61.696426 -261.93854 -14.943018
-66.999725 -261.97827 -15.485983
-68.079956 -261.78055 -14.891752
-67.270668 -261.4762 -7.5331788
-64.690971 -261.43964 -7.4950342
-78.278427 -261.51746 -8.172348
-78.991325 -261.45389 -8.3424187
-78.532501 -261.535 -8.3573132
-76.257721 -261.55078 -8.267416
-75.982498 -261.51871 -8.2099342
-78.954178 -261.44391 -8.4929447
-76.477692 -261.51312 -8.5201836
-76.201973 -261.49744 -8.57269
-75.767578 -261.51581 -8.6474876
-75.514977 -261.53326 -8.7016125
-75.75322 -261.50262 -8.9751492
-78.97052 -261.43228 -9.0479259
-78.222122 -261.49622 -9.0628643
-77.773682 -261.51691 -9.1127272
-76.307915 -261.47897 -9.1189232
-76.188591 -261.47534 -9.1252079
-75.493248 -261.53015 -9.1548023
-78.887512 -261.4563 -9.3957672
-76.269638 -261.47214 -9.2956886
-75.514008 -261.49789 -9.3105297
-67.416061 -261.40308 -12.045977
-78.92775 -261.26169 -7.9047408
-76.271324 -261.28448 -7.9159622
-75.652222 -261.38522 -7.8830638
-79.749962 -261.36356 -8.3039885
-79.414062 -261.37119 -8.3257027
-79.867233 -261.33337 -8.6592426
-79.741959 -261.36588 -8.6692085
-79.474388 -261.37299 -8.7400923
-79.71994 -261.3287 -8.9814377
-78.88916 -261.39209 -9.0100193
-79.875641 -261.32812 -9.5692148
-79.381401 -261.35486 -9.5806112
-79.03566 -261.36047 -9.7232552
-79.018654 -261.35611 -10.353699
-79.158142 -261.31909 -10.634677
-79.452667 -261.30643 -10.95508
-67.567627 -261.36432 -11.981224
-79.352715 -261.17014 -10.997423
-79.03405 -261.18719 -10.998249
-67.217606 -261.0256 -12.862286
-70.323044 -261.07056 -13.164915
-72.184296 -261.06833 -13.75765
-71.786575 -261.02631 -14.009577
-72.148384 -261.12042 -14.240681
-69.461761 -261.14374 -14.558602
-64.666824 -260.9444 -7.554183
-78.553337 -260.79233 -7.8340821
-73.029694 -260.67261 -9.3038559
-72.093613 -260.60101 -10.369312
-69.684525 -260.61038 -11.02269
-61.778442 -260.63022 -11.002795
-60.274208 -260.73914 -12.351149
-67.756119 -260.65228 -13.361458
-64.99472 -260.51578 -7.5195718
-71.820442 -260.48322 -9.8539734
-72.117867 -260.53455 -10.458284
-70.166672 -260.505 -11.106112
-69.352798 -260.55954 -11.02143
-60.659191 -260.52457 -11.115166
-67.317657 -260.52802 -12.297951
-72.695145 -260.57904 -13.088467
-70.631546 -260.57376 -13.059029
-67.451355 -260.41995 -13.801083
-60.146133 -260.42291 -14.460573
-76.198112 -260.35413 -8.4592342
-73.536079 -260.27643 -9.6853113
-60.046867 -260.24823 -12.457933
-71.001923 -260.33423 -12.827779
-61.894085 -260.30725 -12.915857
-78.026688 -260.15161 -8.2251825
-73.830688 -260.08069 -9.3326035
-73.838257 -260.16446 -9.9055033
-69.794472 -260.15448 -10.379194
-77.19426 -260.19614 -10.425468
-61.708366 -260.14969 -10.668409
-71.442917 -260.1142 -11.084117
-69.834114 -260.16193 -11.090811
-61.945221 -260.19202 -11.149444
-62.479115 -260.14026 -11.339355
-71.566605 -260.04916 -11.569422
-61.880463 -260.08746 -11.932337
-61.868832 -260.06918 -12.520195
-72.350357 -260.19446 -13.267147
-67.387817 -260.16522 -13.283594
-74.520287 -260.09402 -14.045352
-76.922417 -279.84067 -9.9412022
-77.436218 -276.02969 -12.929356
-76.461075 -275.65048 -9.7785721
-77.371391 -274.38901 -8.9653034
-77.417648 -273.81815 -12.379708
-76.266029 -272.94412 -9.6702299
-63.530064 -272.42429 -9.634963
-62.712406 -272.5217 -9.6005545
-75.656067 -272.26285 -8.7894163
-62.987427 -272.38928 -11.097232
-64.019264 -272.21689 -11.228893
-62.225105 -272.27856 -14.547012
-62.232414 -272.07544 -16.765192
-62.176445 -271.81223 -12.811085
-63.095058 -271.71863 -8.5839243
-62.265343 -271.74124 -8.723073
-64.013184 -271.74066 -9.535223
-62.163918 -271.36316 -13.582136
-62.191326 -271.14874 -11.928045
-62.134838 -271.18488 -16.020216
-79.242661 -270.80838 -9.5915251
-73.958824 -270.88394 -11.58099
-73.474823 -270.94244 -11.547413
-75.877251 -270.51465 -9.6761599
-62.177971 -270.40939 -11.859502
-62.139069 -270.28574 -14.270943
-75.870178 -270.19104 -9.5291119
-62.157005 -269.91016 -9.4650726
-65.359825 -269.81772 -10.132121
-62.083874 -269.89899 -15.662113
-63.782032 -269.78824 -8.6266403
-75.820488 -269.78217 -10.464684
-62.089569 -269.6279 -12.577202
-62.091286 -269.74384 -13.356213
-62.738705 -269.56216 -8.0131531
-75.831566 -269.42361 -9.5119419
-62.059402 -269.39505 -16.260958
-62.060493 -269.147 -13.187088
-62.068748 -268.95398 -16.236443
-62.159393 -268.68317 -8.7112989
-62.098671 -268.63733 -10.196495
-62.044643 -268.74274 -13.699745
-62.101944 -268.5502 -9.4592609
-63.85479 -268.56815 -10.873129
-62.087524 -268.45502 -11.351191
-66.470871 -268.27853 -9.9595127
-66.324669 -268.29352 -10.695028
-63.829441 -268.09515 -10.116128
-75.739174 -267.86224 -9.8385658
-62.041203 -267.74243 -9.760931
-62.057709 -267.69843 -10.1535
-75.734497 -267.4483 -8.6470776
-66.430283 -267.22668 -10.521798
-61.995422 -267.22977 -10.53857
-63.769566 -267.20972 -12.012114
-62.020565 -267.3429 -13.788851
-63.838371 -266.87076 -7.965672
-75.767868 -266.93005 -9.3192568
-75.527786 -266.83569 -9.7417049
-61.993866 -266.91177 -10.522491
-62.011276 -266.99194 -10.691422
-75.657555 -266.96039 -11.002944
-73.830879 -266.79605 -7.9907379
-73.514191 -266.72412 -8.1110821
-75.722633 -266.66742 -8.3247223
-63.812046 -266.6864 -8.533
-75.574188 -266.71799 -9.8252258
-63.79409 -266.73706 -9.8970165
-75.529823 -266.53433 -9.7423401
-75.649963 -266.44223 -10.757961
-61.968803 -266.59961 -13.628889
-72.991661 -266.21902 -8.1942644
-61.97945 -266.39673 -9.7217884
-62.003067 -266.30511 -10.173244
-61.909313 -266.30432 -15.519429
-75.68129 -266.16669 -8.653985
-62.017544 -266.05222 -10.099982
-72.848953 -265.8154 -8.1590328
-72.459938 -265.91214 -8.2464447
-71.86953 -265.97818 -8.2221394
-75.663345 -265.81219 -8.714118
-63.73822 -265.94135 -10.676726
-61.929295 -265.8045 -13.469503
-75.682701 -265.79407 -9.3768072
-75.516876 -265.70172 -9.7098866
-66.449646 -265.67737 -9.8343105
-63.739708 -265.64951 -9.9678421
-61.622753 -265.64685 -18.579401
-72.667953 -265.46747 -8.0594292
-75.669098 -265.41135 -8.5835962
-61.97171 -265.42654 -8.7169542
-62.155197 -265.43915 -9.3675137
-75.6492 -265.23499 -8.9665842
-75.650116 -265.35889 -9.9351835
-61.972988 -265.38123 -9.8289003
-62.141247 -265.39764 -10.051125
-61.962265 -265.30835 -10.622747
-62.10495 -265.37039 -11.386641
-79.754501 -264.90555 -9.5207386
-66.096939 -264.85022 -9.5522156
-65.428444 -264.80637 -9.5710955
-66.089218 -264.82983 -9.6753492
-75.611877 -264.94196 -9.8849592
-65.066055 -264.80566 -9.9048157
-64.695572 -264.81931 -9.9575129
-64.20018 -264.83377 -9.9609613
-65.042786 -264.82141 -10.210891
-64.561783 -264.80859 -10.596543
-75.615089 -264.93259 -10.617599
-61.936565 -264.9176 -10.634562
-65.854675 -264.83328 -13.553259
-65.020065 -264.88556 -13.585428
-64.871689 -264.93729 -13.917622
-65.477219 -264.86487 -14.243654
-61.878555 -264.92706 -15.40107
-64.258591 -264.78192 -8.0519028
-64.160515 -264.74951 -8.0431662
-65.718124 -264.70514 -8.2851582
-67.713806 -264.64313 -8.4575024
-65.740639 -264.66681 -8.567915
-64.945297 -264.72705 -8.5200558
-64.369652 -264.74188 -8.5991058
-75.597435 -264.79456 -9.1708794
-66.934418 -264.65289 -9.1068077
-66.598709 -264.66901 -9.0081711
-66.153038 -264.65634 -9.0411386
-66.160591 -264.6795 -9.3049278
-64.860245 -264.73697 -9.2368698
-64.293053 -264.75934 -9.2704716
-68.619751 -264.74292 -9.4517298
-70.182098 -264.67081 -9.7257633
-64.023361 -264.67831 -9.7751713
-64.987106 -264.7919 -9.9163647
-68.522133 -264.70404 -10.241678
-68.213951 -264.71411 -10.244676
-66.951385 -264.72449 -10.284327
-68.541885 -264.6969 -10.44867
-66.149849 -264.77191 -10.484253
-64.119049 -264.75 -10.609437
-66.535194 -264.74368 -11.090511
-64.568031 -264.61975 -11.046215
-66.150078 -264.67627 -11.377567
-64.655258 -264.72498 -11.399021
-70.499634 -264.60281 -11.425907
-67.014511 -264.60287 -11.558252
-65.434219 -264.62201 -12.32276
-64.971039 -264.63367 -12.278473
-64.615623 -264.64188 -12.331922
-69.037987 -264.72235 -13.468924
-66.653816 -264.65808 -13.530564
-65.863892 -264.77914 -13.557905
-68.256943 -264.78424 -13.609602
-64.558922 -264.75168 -13.754499
-65.247589 -264.78616 -14.190186
-64.543823 -264.73132 -14.439398
-64.949112 -264.69748 -14.732285
-63.856857 -264.53827 -8.0657225
-70.698563 -264.46875 -8.4205008
-65.699837 -264.57678 -8.4262972
-67.413696 -264.4953 -8.6321554
-69.346146 -264.58063 -8.9227028
-69.007065 -264.58112 -9.0821714
-68.640388 -264.58862 -9.0175381
-68.069427 -264.57721 -9.0693693
-63.725876 -264.50116 -9.2716866
-63.843712 -264.46078 -9.9484386
-61.920677 -264.56073 -10.036955
-67.367943 -264.47284 -10.270784
-63.81591 -264.44873 -10.344613
-63.854401 -264.42239 -11.312663
-67.757828 -264.51794 -11.735313
-69.296967 -264.47821 -12.130972
-66.954849 -264.56189 -12.471405
-69.477699 -264.47589 -12.918102
-67.062904 -264.51321 -12.808876
-67.971153 -264.58765 -14.481374
-63.95002 -264.48865 -15.075847
-65.367447 -264.53848 -15.769953
-69.095734 -264.40866 -16.514587
-68.123528 -264.2713 -9.0771523
-67.325867 -264.35507 -9.0780506
-61.879524 -264.228 -9.2493324
-70.828522 -264.2265 -9.959465
-70.870682 -264.22437 -10.900694
-67.181732 -264.32892 -11.710463
-67.382538 -264.28955 -12.956377
-65.87709 -264.24841 -14.531972
-63.718987 -264.35901 -14.464596
-67.15818 -264.23944 -14.705498
-75.10273 -264.09842 -7.849618
-70.967346 -264.13849 -8.2947845
-79.72168 -264.10223 -9.10219
-68.682419 -264.04068 -9.4783669
-61.922836 -264.14841 -10.012942
-70.863129 -264.09314 -11.6567
-61.865654 -264.03223 -13.767811
-68.308441 -264.18781 -14.686361
-70.797958 -264.01324 -14.935488
-67.364098 -264.14859 -15.974516
-61.904648 -263.87369 -10.008677
-62.632584 -263.6528 -7.4724832
-61.910061 -263.74524 -8.0343323
-61.936996 -263.78598 -8.7011471
-79.696777 -263.78705 -9.0889301
-79.70475 -263.66852 -9.2211695
-61.915638 -263.69131 -9.8306322
-62.478554 -263.435 -7.4643259
-66.843117 -263.21109 -7.579411
-75.50634 -263.27258 -7.8875308
-61.913628 -263.25742 -8.079669
-60.860054 -263.34665 -8.1241589
-75.542206 -263.34784 -8.2239599
-60.463402 -263.3501 -8.2566385
-60.09024 -263.34451 -8.2284365
-60.506592 -263.33789 -8.4899826
-60.231327 -263.35248 -8.5648251
-62.036293 -263.34412 -8.6820211
-61.886719 -263.27954 -8.7358856
-60.859367 -263.3392 -8.7395515
-60.296501 -263.35486 -8.8871613
-61.349449 -263.29065 -9.0013742
-61.949013 -263.33179 -9.32335
-60.277767 -263.3078 -9.7146044
-61.919666 -263.27042 -9.858181
-61.935822 -263.30722 -10.151624
-60.454922 -263.28021 -11.653379
-61.854233 -263.26086 -12.289795
-67.485893 -263.35229 -14.539633
-68.010391 -263.20685 -14.683842
-65.41288 -263.04608 -7.4434471
-61.872059 -263.01273 -8.0705433
-61.83812 -263.08304 -11.952423
-61.865551 -263.1539 -12.996529
-61.827084 -263.19946 -13.638189
-68.61673 -263.07275 -14.12006
-75.520203 -262.85245 -8.9912138
-79.659637 -262.96802 -9.00735
-60.704613 -262.99066 -9.4470854
-75.509064 -262.84402 -9.8847637
-60.195774 -262.85126 -10.199583
-65.761337 -262.66003 -7.4833112
-61.885303 -262.76746 -8.719079
-79.664986 -262.71674 -9.0546083
-60.178879 -262.61182 -9.1622038
-60.539833 -262.64771 -9.3120975
-60.258484 -262.68561 -9.3416061
-60.198669 -262.69821 -9.7122803
-60.536663 -262.71289 -10.207737
-61.040447 -262.65665 -11.102631
-60.272911 -262.63104 -13.36153
-61.833828 -262.71283 -13.778401
-61.816322 -262.60788 -14.153585
-67.842392 -262.79349 -16.202671
-61.849968 -262.52084 -8.7138224
-61.368973 -262.54724 -9.0896578
-61.844154 -262.57013 -9.9414387
-61.848137 -262.50677 -10.462166
-68.984818 -262.49985 -12.124689
-61.364513 -262.48508 -13.372943
-61.032578 -262.56567 -13.35438
-69.638016 -262.466 -13.402586
-61.101471 -262.58807 -13.482994
-69.299149 -262.52774 -14.255945
-69.067169 -262.59537 -14.843493
-61.262737 -262.53201 -15.303635
-67.391342 -262.52734 -15.716269
-61.429596 -262.26355 -7.6624498
-78.123199 -262.30664 -8.3155785
-77.305412 -262.32745 -8.2108631
-78.488098 -262.323 -8.4883232
-78.466995 -262.27045 -9.2601233
-78.207443 -262.30176 -9.2647066
-61.75753 -262.21725 -11.135381
-69.286522 -262.22818 -13.008596
-69.013145 -262.29111 -13.067577
-61.802231 -262.3533 -14.101576
-61.787258 -262.30219 -14.719957
-68.354141 -262.28296 -14.803171
-61.474571 -262.15521 -8.1734238
-61.668976 -262.15955 -8.5265245
-61.406555 -262.12238 -8.4989233
-61.457764 -262.15497 -8.9498272
