# .PCD v0.7 - Point Cloud Data file format
VERSION 0.7
FIELDS x y z
SIZE 4 4 4
TYPE F F F
COUNT 1 1 1
WIDTH 1477
HEIGHT 1
VIEWPOINT 0 0 0 1 0 0 0
POINTS 1477
DATA ascii
-74.930321 -70.360893 -2.219331
-68.144661 -70.340805 -2.338357
-68.069527 -70.212692 -5.2717218
-67.866249 -70.22686 -5.307857
-60.31292 -70.246796 -8.3631744
-74.864014 -70.269455 -9.7754841
-75.060135 -70.279564 -9.9163342
-74.859528 -70.392906 -9.8354654
-74.751526 -70.2258 -9.8433113
-75.18924 -70.273102 -10.096575
-74.876129 -70.373611 -10.175116
-74.730469 -70.304382 -10.222303
-77.094093 -70.365158 -14.914904
-72.135551 -70.019348 -1.786343
-73.667076 -70.126511 -2.0732031
-71.820351 -70.087303 -2.022624
-71.625023 -70.072113 -2.058332
-65.431046 -70.102127 -2.1513691
-62.627117 -70.133049 -2.0466011
-79.122894 -70.07164 -2.317657
-78.105957 -70.162903 -2.3291659
-70.492577 -70.194923 -2.2900469
-69.955856 -70.129684 -2.3827839
-67.019653 -70.152725 -2.255863
-68.246368 -70.080177 -2.69909
-68.236664 -70.065651 -3.3400741
-68.17112 -70.039734 -4.0915518
-68.172821 -70.060661 -4.2550931
-76.117836 -70.059402 -5.4892869
-70.781136 -70.169716 -6.6472239
-68.704857 -70.177444 -7.3593059
-74.21505 -70.021034 -9.3202028
-74.180519 -70.034241 -9.3093271
-74.617874 -70.16777 -9.8925896
-72.426918 -70.060066 -9.912756
-74.34787 -70.147873 -13.328408
-72.602676 -69.823875 -1.113112
-72.108078 -69.863266 -1.7963639
-73.270157 -69.831367 -1.881389
-73.134834 -69.882851 -1.806801
-71.920273 -69.83123 -1.97111
-74.873253 -69.882874 -2.168448
-74.490799 -69.807373 -2.146884
-73.351395 -69.926514 -2.0560319
-71.227028 -69.854279 -2.1777041
-78.660362 -69.903809 -2.32478
-76.503998 -69.873962 -2.2961421
-70.875221 -69.929619 -2.2243371
-70.445099 -69.860504 -2.299407
-69.066788 -69.893875 -2.4395249
-68.257729 -69.992058 -2.715872
-68.180344 -69.951027 -3.278137
-68.169128 -69.931747 -3.723268
-67.083031 -69.855515 -4.475647
-68.182999 -69.944061 -5.9426699
-71.075516 -69.827301 -6.9958749
-68.238434 -69.938805 -7.170958
-69.665634 -69.943665 -7.7723498
-74.277122 -69.95929 -9.3680792
-74.160095 -69.957962 -9.319828
-79.429955 -69.958321 -10.393049
-79.817314 -69.816139 -10.616448
-77.229889 -69.951805 -10.880474
-76.722168 -69.876747 -10.959728
-77.338631 -69.802979 -12.267851
-77.372269 -69.877136 -12.54192
-74.638206 -69.912621 -13.490515
-74.645317 -69.899826 -13.683294
-74.215446 -69.882355 -14.179514
-77.264656 -69.868507 -15.984354
-74.120956 -69.730461 -2.1348591
-71.095184 -69.74765 -2.1808851
-62.674583 -69.772598 -2.0478511
-61.293365 -69.772736 -2.036756
-77.724686 -69.683464 -2.331743
-69.892609 -69.741486 -2.3522191
-65.755234 -69.788544 -2.224381
-68.321411 -69.714111 -4.8423829
-69.901566 -69.688118 -5.4447222
-68.884651 -69.604347 -5.9932728
-72.873627 -69.709915 -7.1133261
-71.746506 -69.790451 -7.2557788
-73.267242 -69.619667 -8.0933189
-72.935898 -69.681641 -8.2737751
-72.728088 -69.662819 -8.2211609
-72.958031 -69.6408 -8.5323124
-72.634789 -69.660141 -8.4795971
-69.439957 -69.696953 -8.5524445
-73.275208 -69.741425 -8.6185122
-71.837448 -69.627701 -9.5160198
-73.800583 -69.768707 -9.6550159
-79.939774 -69.710709 -10.21287
-76.92321 -69.671036 -10.339855
-76.76461 -69.742294 -10.233128
-77.547707 -69.788544 -16.658913
-72.323845 -69.475372 -1.452091
-72.218979 -69.463341 -1.6731679
-71.920929 -69.410553 -1.980884
-74.119278 -69.46608 -2.126554
-64.159058 -69.445236 -2.0194199
-79.626183 -69.436752 -2.2546539
-79.19799 -69.412315 -2.2955451
-77.786324 -69.456474 -2.2910891
-69.829147 -69.469109 -2.414556
-68.084366 -69.546402 -2.5199239
-68.903442 -69.417343 -2.6128709
-67.978088 -69.431274 -2.600837
-69.701294 -69.517609 -4.3675599
-67.402817 -69.450562 -5.122057
-68.505615 -69.595657 -6.8336592
-71.234222 -69.439224 -7.179987
-66.911476 -69.408234 -7.0043268
-72.902817 -69.528625 -7.325923
-71.310173 -69.446907 -7.3452778
-72.042747 -69.527237 -7.8850269
-69.090164 -69.410667 -7.8205628
-73.067757 -69.5037 -8.1028223
-69.103188 -69.400093 -8.164834
-73.101791 -69.4272 -8.5848866
-72.494125 -69.479256 -8.5823679
-79.881638 -69.579498 -10.094538
-75.187256 -69.521935 -10.278083
-75.359871 -69.439079 -10.596876
-72.801292 -69.21627 -1.069016
-73.048676 -69.276268 -1.846689
-72.061623 -69.331299 -1.963807
-74.368912 -69.247505 -2.1482761
-74.071785 -69.224113 -2.078371
-66.175987 -69.337524 -2.187921
-63.648232 -69.264748 -2.052865
-70.328171 -69.346573 -2.323864
-70.158081 -69.277641 -2.3469169
-66.646233 -69.396828 -2.2032981
-69.823318 -69.24472 -2.4346559
-69.324814 -69.322746 -2.472569
-67.411469 -69.336128 -2.4587569
-60.5606 -69.334305 -2.529624
-67.965088 -69.333473 -2.712399
-68.086243 -69.251236 -2.9104919
-67.968918 -69.28997 -2.884047
-67.972153 -69.250076 -3.833282
-67.093597 -69.234589 -3.9879301
-69.966919 -69.394073 -5.0598259
-68.931282 -69.249802 -5.3117652
-68.705078 -69.259735 -5.2846389
-67.433838 -69.330711 -5.351028
-68.915024 -69.264503 -5.443738
-66.303116 -69.382011 -6.488472
-72.972404 -69.27446 -7.616076
-73.557991 -69.228409 -7.9197459
-70.815506 -69.223633 -7.8313379
-73.621002 -69.24556 -8.1303377
-73.483612 -69.364227 -8.1058369
-71.075531 -69.23233 -8.1338015
-77.101608 -69.300613 -10.989408
-73.554611 -69.201508 -11.131781
-75.625618 -69.360588 -12.374228
-76.626251 -69.301056 -12.539261
-76.28624 -69.279282 -14.696306
-73.028114 -69.10067 -1.849882
-62.11692 -69.036194 -1.9820859
-65.667328 -69.001312 -2.1683691
-63.318638 -69.111847 -2.0248549
-79.274826 -69.052399 -2.256026
-78.489029 -69.019737 -2.304493
-78.122673 -69.020409 -2.298841
-77.297653 -69.098389 -2.286968
-74.866409 -69.111618 -2.214565
-69.677773 -69.151756 -2.3942721
-60.624443 -69.09832 -2.3905051
-68.900826 -69.170738 -2.7580509
-68.238785 -69.176201 -3.1093061
-68.73912 -69.063255 -3.3473511
-76.107597 -69.000076 -3.795079
-68.881775 -69.042557 -3.6892691
-68.633362 -69.055382 -3.718215
-68.532951 -69.158348 -3.761035
-68.797668 -69.121773 -3.881134
-68.491646 -69.02774 -4.0885911
-70.117798 -69.100349 -4.571135
-70.163574 -69.024323 -4.724771
-68.719299 -69.065582 -5.2110419
-69.084183 -69.139435 -5.9663968
-66.05706 -69.137886 -6.0320082
-73.12616 -69.085052 -7.3091941
-73.544312 -69.100784 -7.9371929
-69.82328 -69.17218 -7.861836
-70.193253 -69.155533 -8.5006599
-77.722504 -69.007217 -10.934858
-73.629593 -69.173111 -11.063511
-76.682388 -69.101181 -11.349373
-76.951843 -69.009911 -12.123249
-76.933746 -69.076141 -13.492261
-74.439392 -69.187576 -13.414392
-77.377518 -69.051895 -15.842567
-72.423813 -68.971878 -1.307583
-73.096626 -68.900665 -1.855862
-64.234238 -68.901863 -1.9803849
-61.535564 -68.915466 -1.986222
-64.546463 -68.91481 -2.0078239
-76.686058 -68.870956 -2.25844
-71.100929 -68.905434 -2.2419391
-70.145584 -68.946472 -2.3553081
-60.36084 -68.825562 -2.3628631
-69.8311 -68.932564 -2.437125
-69.437752 -68.914139 -2.617342
-69.226242 -68.848167 -2.812547
-67.89743 -68.877205 -3.096297
-68.89946 -68.82402 -3.709455
-68.547997 -68.867371 -4.0909381
-68.537247 -68.850105 -4.289794
-70.46804 -68.985245 -4.5907421
-68.681389 -68.926003 -4.5581088
-76.095123 -68.860069 -4.6065698
-70.084404 -68.881729 -5.0636988
-69.622078 -68.820023 -5.176209
-67.898712 -68.921654 -5.39326
-70.137405 -68.902725 -6.193305
-67.803528 -68.908249 -6.1131248
-69.442596 -68.914299 -6.465971
-71.578659 -68.836052 -6.7906618
-71.471748 -68.941055 -6.9373388
-73.26091 -68.871964 -7.0471878
-73.151718 -68.927628 -7.802248
-73.416855 -68.958908 -8.2719326
-73.41539 -68.95343 -8.5087223
-68.691429 -68.940025 -8.5514355
-78.190659 -68.964951 -10.019606
-76.903 -68.936966 -11.369932
-63.318897 -68.641136 -1.979529
-75.383606 -68.631439 -2.1911449
-74.741882 -68.759827 -2.114208
-73.902359 -68.66449 -2.1013219
-60.334095 -68.736656 -2.1999919
-79.353104 -68.610291 -2.251302
-76.166115 -68.679359 -2.2379129
-70.875214 -68.668518 -2.287863
-66.95401 -68.627571 -2.321826
-60.187481 -68.643158 -2.4684479
-68.722885 -68.758858 -3.5472119
-69.982468 -68.743668 -4.4812961
-70.537773 -68.771561 -4.7573228
-70.691895 -68.644791 -4.9005961
-67.694405 -68.668709 -5.3828182
-68.585495 -68.739883 -5.7566619
-73.495613 -68.712029 -6.5305848
-73.249466 -68.632797 -6.9390531
-73.326782 -68.668808 -7.0391412
-72.972511 -68.769928 -9.086792
-78.363586 -68.790947 -10.58549
-73.046677 -68.698265 -12.31361
-73.894295 -68.772713 -13.90129
-73.03598 -68.665184 -13.805822
-76.46315 -68.648491 -14.156722
-62.173813 -68.589256 -1.954578
-60.14674 -68.532364 -1.977815
-73.550079 -68.570602 -2.0771511
-60.963242 -68.529739 -2.0473051
-79.828674 -68.597092 -2.2810731
-79.028145 -68.590393 -2.244128
-71.092285 -68.533852 -2.243428
-70.646805 -68.546234 -2.300977
-70.500359 -68.44352 -2.321209
-70.315979 -68.56189 -2.541054
-69.890579 -68.500229 -2.4112861
-68.914597 -68.536324 -3.0943899
-68.051804 -68.40197 -3.14854
-68.846138 -68.5 -3.4862709
-67.943542 -68.542908 -3.573977
-68.128571 -68.480865 -3.8342359
-67.929565 -68.56575 -3.899781
-68.315903 -68.486237 -4.1257048
-67.127502 -68.527191 -4.5962291
-68.258133 -68.467148 -4.6872501
-73.494255 -68.467957 -12.077753
-76.416779 -68.474365 -12.351584
-74.210419 -68.410736 -12.941315
-74.160614 -68.571564 -14.139227
-73.771118 -68.49128 -14.023749
-73.830032 -68.202415 -1.930933
-64.53952 -68.259789 -1.99352
-60.671913 -68.234726 -1.946611
-60.233471 -68.246544 -1.940102
-74.48513 -68.250763 -2.0983291
-74.086044 -68.281601 -2.106709
-73.732376 -68.278336 -2.0762839
-79.704254 -68.285477 -2.2758999
-70.092506 -68.311974 -2.3616359
-69.957047 -68.330551 -2.388165
-69.556351 -68.314011 -2.381068
-69.742149 -68.374588 -2.4159701
-69.251114 -68.314606 -2.5367379
-68.957237 -68.291954 -2.948235
-69.005707 -68.362228 -3.0032599
-68.15506 -68.326103 -3.335717
-68.820847 -68.385666 -3.5045071
-68.416374 -68.394058 -3.4068551
-68.315018 -68.356285 -4.0188069
-66.66333 -68.235016 -4.9003248
-67.56041 -68.257774 -5.7808299
-66.839027 -68.210243 -5.8609018
-66.275414 -68.268402 -6.6975889
-71.523026 -68.267868 -7.4520559
-72.302574 -68.375839 -8.259491
-72.695274 -68.299416 -8.5053368
-72.523911 -68.316162 -9.5296326
-77.79377 -68.388672 -10.505489
-76.132027 -68.227142 -11.903618
-73.744568 -68.262741 -12.241346
-73.558441 -68.274933 -12.253325
-76.959877 -68.207329 -13.695673
-74.554131 -68.306656 -13.794594
-76.719521 -68.351898 -13.820938
-77.022972 -68.373856 -14.275121
-76.633644 -68.277016 -14.228734
-77.357071 -68.263565 -15.116571
-76.994186 -68.325226 -15.11898
-77.528008 -68.201172 -15.267189
-72.119431 -68.078651 -1.94663
-73.812515 -68.156906 -2.0826449
-73.704834 -68.172394 -2.071888
-73.552597 -68.137772 -2.067847
-72.019768 -68.097862 -2.011281
-71.507889 -68.133461 -2.131145
-71.36438 -68.125877 -2.128443
-65.504204 -68.089523 -2.1431091
-79.39267 -68.077591 -2.2579401
-78.197449 -68.167572 -2.2482121
-74.819458 -68.063873 -2.206847
-70.295013 -68.044464 -2.3290689
-69.515778 -68.099487 -2.384079
-67.32972 -68.126938 -2.4483831
-68.322456 -68.08152 -3.0357189
-66.504646 -68.101105 -4.6499739
-71.620277 -68.133087 -7.4346762
-72.467102 -68.195702 -7.861207
-78.015945 -68.111259 -9.8700438
-77.426964 -68.120789 -10.802442
-76.216187 -68.172447 -11.82911
-74.020691 -68.088036 -12.417149
-73.372101 -68.095757 -12.546048
-77.074379 -68.172127 -15.237997
-76.081619 -68.19516 -16.061182
-73.62674 -68.18988 -16.212547
-73.456314 -67.800751 -1.8827111
-64.665894 -67.887497 -1.9871171
-73.550392 -67.844589 -2.054209
-65.432434 -67.880905 -2.129494
-77.82151 -67.840446 -2.2476001
-70.18969 -67.93441 -2.359297
-66.064255 -67.955582 -2.247997
-68.342529 -67.871208 -2.7032161
-67.496262 -67.946457 -4.658998
-67.938568 -67.884811 -5.1536689
-67.749893 -67.918961 -5.7160869
-69.090332 -67.876373 -6.0902839
-77.861519 -67.982086 -9.7182007
-72.682472 -67.993652 -10.255807
-76.475372 -67.870956 -11.892649
-74.304367 -67.857246 -12.567318
-74.025162 -67.861053 -13.025743
-72.882683 -67.853241 -13.130232
-73.800499 -67.878174 -14.911246
-76.588013 -67.829285 -16.201235
-73.279404 -67.71566 -1.497715
-74.756927 -67.790253 -1.970086
-74.28363 -67.778641 -1.954487
-73.166389 -67.630478 -1.827252
-64.874634 -67.706573 -1.99947
-62.317699 -67.697441 -1.937194
-74.878197 -67.734085 -2.16518
-71.960037 -67.763115 -2.035392
-71.530899 -67.650856 -2.1030591
-77.3843 -67.729279 -2.243109
-69.302147 -67.689178 -2.3616021
-69.260544 -67.730812 -2.4263921
-68.153046 -67.755615 -2.6387551
-68.57103 -67.722717 -6.0540018
-73.38311 -67.72258 -13.452597
-73.429428 -67.65184 -13.655784
-76.104706 -67.752022 -13.941886
-73.822876 -67.718163 -14.552523
-72.965591 -67.501884 -1.024377
-73.196495 -67.547653 -1.799253
-64.420197 -67.406204 -1.9766721
-62.489883 -67.407799 -1.916317
-61.023071 -67.429115 -1.95549
-74.707397 -67.509705 -2.0930929
-65.511497 -67.450539 -2.07284
-78.890472 -67.425087 -2.2139549
-69.157562 -67.44165 -2.372741
-76.210846 -67.439972 -12.188968
-72.983307 -67.535172 -12.517468
-76.098366 -67.516045 -15.345899
-75.190216 -67.452972 -15.818579
-76.773438 -67.554626 -16.132263
-73.26918 -67.372711 -1.199985
-73.518074 -67.213608 -1.7828979
-73.730461 -67.346718 -1.9696209
-61.942562 -67.379066 -1.91409
-61.184887 -67.301262 -1.9183151
-74.861191 -67.247375 -2.1368461
-74.749916 -67.288383 -2.111012
-74.358292 -67.277649 -2.082866
-73.827553 -67.279175 -2.034035
-73.584648 -67.326889 -2.02281
-64.887817 -67.399918 -2.010937
-78.661545 -67.250977 -2.226856
-77.781021 -67.381058 -2.2314711
-71.088921 -67.34893 -2.2313659
-68.929695 -67.206367 -2.431345
-67.795143 -67.352829 -2.4543691
-67.734917 -67.341522 -5.2829642
-68.512123 -67.387253 -5.5691462
-73.247894 -67.232864 -9.5252571
-73.072769 -67.288177 -9.4033995
-73.736671 -67.290016 -9.7376442
-75.779335 -67.385094 -12.166835
-72.896896 -67.282822 -13.523218
-77.001312 -67.251472 -15.823771
-73.416611 -67.008636 -1.391765
-72.901291 -67.118813 -1.583071
-63.599331 -67.062019 -1.955431
-61.729515 -67.00235 -1.931818
-74.903687 -67.105072 -2.1507299
-74.763107 -67.158401 -2.136107
-73.742462 -67.15155 -2.0156291
-71.942581 -67.055054 -2.0226631
-70.490105 -67.173859 -2.2736969
-70.107513 -67.043854 -2.2984159
-69.239388 -67.014282 -2.3479869
-68.545395 -67.104248 -2.377888
-68.12265 -67.013969 -2.3605299
-67.69677 -67.046013 -2.318166
-67.86644 -67.073029 -5.690639
-60.473328 -67.181732 -5.9723992
-68.673294 -67.111847 -6.0596762
-62.092857 -67.049759 -6.974719
-61.14241 -67.064316 -7.3630862
-62.851471 -67.017456 -8.7151728
-74.872795 -67.050217 -13.002815
-72.673218 -67.120712 -14.46496
-73.265358 -66.915749 -1.102773
-73.349823 -66.878342 -1.598011
-73.674255 -66.9104 -1.869794
-72.172974 -66.89267 -1.96522
-61.824287 -66.999641 -1.948296
-60.13443 -66.85434 -1.865573
-73.783714 -66.972809 -2.0532479
-65.867867 -66.96788 -2.110703
-71.0923 -66.887604 -2.210773
-69.42128 -66.950584 -2.3226769
-68.945869 -66.818184 -2.337605
-60.518898 -66.986847 -6.1432958
-61.839672 -66.943932 -6.931004
-60.344166 -66.977516 -7.405911
-73.128204 -66.983925 -9.6700878
-72.971161 -66.957855 -10.270375
-79.455597 -66.989769 -10.490194
-73.581253 -66.812767 -13.14125
-73.855888 -66.90538 -13.32597
-73.737846 -66.884781 -13.668755
-73.009689 -66.621178 -1.084457
-72.676575 -66.631584 -1.4326921
-73.633736 -66.710129 -1.700772
-73.293495 -66.747086 -1.617344
-73.857468 -66.640137 -1.992252
-73.786499 -66.681686 -1.9116451
-79.284744 -66.699898 -2.184855
-77.768929 -66.655319 -2.1967809
-75.470497 -66.627556 -2.15646
-73.89653 -66.651611 -2.0117431
-65.535812 -66.692245 -2.073478
-69.931892 -66.767029 -2.313807
-69.715927 -66.70607 -2.331141
-69.11853 -66.644043 -2.3404651
-73.365417 -66.648483 -9.5078115
-73.315094 -66.666824 -9.7765226
-73.191574 -66.699089 -9.7769384
-75.001648 -66.754074 -12.936077
-75.076927 -66.796043 -16.490025
-74.970444 -66.723625 -17.003016
-73.628693 -66.507782 -1.5253741
-63.986462 -66.410851 -1.997903
-63.770302 -66.527832 -1.9643101
-76.170563 -66.55925 -2.152303
-75.583275 -66.43927 -2.1587729
-75.362518 -66.485519 -2.106391
-75.010468 -66.43515 -2.0913701
-70.646072 -66.505203 -2.2158339
-70.27047 -66.511032 -2.2591441
-69.734695 -66.502686 -2.2829931
-69.293312 -66.557907 -2.307091
-67.364151 -66.550621 -2.2288761
-67.132568 -66.565254 -2.210943
-75.057175 -66.459305 -2.838984
-76.624535 -66.445259 -3.8067169
-61.461155 -66.414627 -6.3233328
-61.315685 -66.501068 -6.4327002
-63.655357 -66.515976 -8.0744762
-79.834129 -66.50193 -10.216046
-79.840538 -66.477081 -10.485602
-75.795479 -66.446129 -13.398768
-72.958954 -66.551926 -14.36764
-72.822723 -66.500648 -14.631667
-72.552002 -66.361992 -1.7165689
-74.138504 -66.234528 -1.962414
-73.266205 -66.313507 -1.817273
-62.630959 -66.240822 -1.892169
-74.526001 -66.251808 -2.0154631
-73.961914 -66.384964 -2.0033889
-64.043671 -66.215958 -8.4152927
-72.994278 -66.251602 -10.013943
-73.628204 -66.33931 -11.140373
-75.504425 -66.313278 -12.268935
-74.878708 -66.237228 -13.323158
-75.742836 -66.378929 -13.415356
-74.200409 -66.222366 -13.692028
-75.134323 -66.310776 -13.918847
-73.53801 -66.244232 -14.585053
-73.042786 -66.322044 -14.503863
-75.896629 -66.34864 -15.591877
-75.806465 -66.305008 -15.723675
-75.532516 -66.353561 -15.734063
-72.739944 -66.057137 -1.72368
-64.91922 -66.126167 -1.973569
-64.531754 -66.114174 -1.96403
-79.048691 -66.182045 -2.162818
-78.660706 -66.141785 -2.1718431
-77.831749 -66.153503 -2.1606591
-74.729324 -66.043533 -2.102932
-71.14621 -66.147324 -2.1887491
-67.763596 -66.013054 -2.1655419
-65.471672 -66.154892 -2.0323629
-63.983624 -66.150078 -2.048878
-68.350204 -66.145004 -2.219265
-76.62532 -66.041473 -3.7750671
-63.035076 -66.08345 -8.2065125
-73.413834 -66.127769 -10.476871
-74.366501 -66.13295 -13.484098
-75.700882 -66.184143 -13.631507
-73.452408 -66.058273 -13.730255
-75.442093 -66.064407 -13.830614
-75.03923 -66.066963 -14.321924
-72.8517 -66.163055 -14.232216
-73.797714 -66.187897 -14.578468
-72.730576 -65.921661 -1.908882
-64.944412 -65.911804 -1.965677
-63.850548 -65.962448 -1.889551
-61.681648 -65.829964 -1.863991
-61.011238 -65.828537 -1.836849
-78.893944 -65.904358 -2.1127701
-76.16497 -65.900574 -2.1436679
-75.812424 -65.873779 -2.1237409
-71.518784 -65.945786 -2.147274
-68.455177 -65.868866 -2.195514
-68.253357 -65.867729 -2.16979
-66.327759 -65.909187 -2.1108639
-79.912323 -65.908478 -11.354576
-74.611359 -65.932518 -13.359064
-75.293411 -65.83107 -13.774448
-74.825905 -65.867523 -13.726974
-73.994598 -65.858322 -13.779594
-73.368027 -65.971069 -13.688068
-76.379234 -65.93412 -14.171741
-72.715172 -65.828339 -14.373236
-75.286346 -65.8647 -16.104975
-74.721024 -65.823364 -16.075445
-72.900497 -65.617783 -1.388151
-73.655083 -65.682709 -1.572149
-72.796539 -65.766678 -1.5641659
-74.485916 -65.707031 -1.968794
-60.68256 -65.792572 -1.84831
-60.277592 -65.632431 -1.866102
-60.089752 -65.715515 -1.839318
-78.095711 -65.725204 -2.1558039
-77.405418 -65.775055 -2.1419649
-76.322388 -65.740784 -2.1641159
-74.742889 -65.641136 -2.099103
-71.479645 -65.716324 -2.1523249
-68.437424 -65.771095 -2.1600289
-68.381554 -65.742462 -2.172497
-68.70504 -65.777832 -2.2708659
-75.816048 -65.698357 -3.7143359
-75.889259 -65.612144 -5.2800088
-73.417381 -65.735626 -9.6789122
-79.396263 -65.739304 -10.347696
-73.513237 -65.610878 -10.939652
-73.706337 -65.692795 -11.057743
-73.483727 -65.678268 -11.225741
-76.163872 -65.708473 -12.260617
-75.838203 -65.729065 -12.234728
-75.655067 -65.647812 -12.96613
-75.444016 -65.656326 -13.31045
-73.851654 -65.638443 -14.104137
-73.440781 -65.682236 -14.049714
-74.163757 -65.702484 -14.461432
-74.618813 -65.612862 -15.295732
-73.302612 -65.519058 -1.3721941
-73.312988 -65.494492 -1.409408
-74.540115 -65.446655 -1.967278
-74.273773 -65.529694 -1.920734
-77.712578 -65.433701 -2.1643469
-71.521637 -65.480438 -2.152648
-70.985443 -65.596542 -2.174819
-70.622292 -65.553421 -2.1891019
-69.389618 -65.484268 -2.1497481
-68.682266 -65.453064 -2.150727
-66.594116 -65.460182 -2.0173149
-66.054169 -65.525169 -2.0449331
-65.568985 -65.595215 -2.013732
-69.832253 -65.416588 -2.2181599
-75.863213 -65.570381 -5.6096821
-73.682274 -65.539978 -9.1975441
-73.374176 -65.487343 -9.1552296
-73.340103 -65.533371 -9.3254623
-73.243301 -65.465492 -9.769413
-79.638931 -65.574921 -11.002405
-73.494255 -65.554855 -11.065346
-73.679871 -65.478424 -11.284436
-74.969589 -65.429047 -12.975074
-75.462318 -65.465286 -13.046555
-75.452698 -65.485168 -13.266702
-73.887009 -65.554222 -14.182073
-74.50782 -65.505531 -14.21997
-74.246048 -65.474747 -14.204857
-75.983948 -65.523598 -14.483782
-75.273109 -65.522552 -16.142641
-72.925293 -65.336258 -1.468066
-61.875717 -65.233986 -1.797377
-74.54184 -65.359848 -1.959627
-61.729351 -65.315773 -1.8368
-61.237583 -65.392776 -1.849126
-74.726196 -65.311752 -2.0897031
-71.453865 -65.35218 -2.145314
-70.927277 -65.258827 -2.1884961
-70.30188 -65.363983 -2.1677041
-69.187813 -65.259148 -2.094795
-79.906891 -65.325455 -2.233403
-73.025093 -65.325012 -10.439205
-75.316345 -65.278183 -11.760935
-75.288635 -65.251945 -12.044001
-75.693718 -65.242096 -12.561541
-74.567123 -65.371796 -13.583894
-75.240402 -65.338905 -13.989722
-75.300079 -65.39418 -14.128696
-73.354958 -65.361221 -14.307317
-76.433182 -65.247643 -14.783047
-76.259064 -65.397339 -14.63986
-74.098991 -65.239624 -14.821816
-74.152924 -65.357361 -15.928822
-73.735298 -65.205574 -15.874952
-62.338398 -65.065094 -1.7791179
-74.374657 -65.053802 -1.941439
-74.160164 -65.074219 -1.930217
-66.234665 -65.015884 -1.98716
-60.431564 -65.144363 -1.842919
-77.028946 -65.099915 -2.1338689
-74.874069 -65.154205 -2.0670011
-74.696236 -65.05954 -2.0510311
-71.938995 -65.18335 -2.0956609
-71.328659 -65.099327 -2.1731379
-68.716309 -65.097839 -2.0853369
-67.379715 -65.119926 -2.0447409
-65.648621 -65.119873 -2.079345
-79.925621 -65.198723 -2.2682991
-76.590889 -65.089371 -3.1117489
-72.942581 -65.018143 -9.4955864
-75.355888 -65.17009 -11.979326
-75.129555 -65.17128 -13.279492
-73.963234 -65.03653 -14.766319
-75.549263 -65.183975 -15.924212
-74.206612 -65.090179 -15.987086
-73.410965 -65.144485 -15.914032
-75.472832 -65.105782 -16.033819
-68.455109 -64.860069 -1.97983
-67.394745 -64.925713 -1.946838
-64.043396 -64.971909 -1.812917
-62.498821 -64.928757 -1.8049051
-61.902328 -64.879364 -1.813388
-61.590736 -64.951431 -1.824865
-75.383804 -64.908714 -2.1007791
-72.541367 -64.966942 -2.001487
-72.373611 -64.895081 -2.008363
-71.72998 -64.864777 -2.1038189
-71.148422 -64.839119 -2.185781
-70.177429 -64.872513 -2.1429291
-75.46994 -64.941406 -12.159444
-74.189316 -64.825104 -14.603498
-76.228012 -64.963943 -14.928588
-74.468414 -64.88726 -15.168496
-75.729973 -64.88562 -15.937107
-74.862587 -64.967262 -15.841377
-73.745903 -64.937302 -15.930689
-65.957748 -64.618843 -1.770067
-64.470963 -64.662949 -1.739548
-63.899746 -64.645065 -1.729244
-69.244461 -64.783859 -1.982381
-61.732014 -64.602928 -1.820994
-77.017593 -64.625259 -2.1189549
-79.364349 -64.677872 -2.2291169
-75.59304 -64.700951 -13.461978
-74.738113 -64.601311 -14.562845
-75.778046 -64.703552 -14.682228
-75.49295 -64.689255 -14.728131
-74.729294 -64.612297 -15.023441
-74.544678 -64.710907 -16.350985
-74.65419 -64.607056 -16.469442
-62.946083 -64.495178 -1.723408
-72.589867 -64.427544 -1.929607
-70.238884 -64.403687 -1.978166
-68.542191 -64.475739 -1.838679
-68.084503 -64.498489 -1.892292
-67.888962 -64.547379 -1.880453
-66.661758 -64.49527 -1.851395
-79.091957 -64.596466 -2.1579919
-76.898163 -64.476929 -2.099432
-75.700996 -64.493614 -2.0571909
-73.058372 -64.422302 -2.014941
-71.340157 -64.563202 -2.1066649
-70.868301 -64.4944 -2.142478
-70.100037 -64.5 -2.114753
-70.049568 -64.50251 -2.2090859
-75.743263 -64.544746 -3.6635909
-75.377548 -64.597137 -12.225655
-75.077179 -64.464645 -12.893016
-74.747253 -64.59964 -13.932467
-75.856209 -64.42131 -14.080578
-74.884163 -64.56189 -14.183307
-74.663284 -64.451401 -14.581459
-75.027054 -64.493431 -14.603518
-75.520882 -64.580627 -14.90583
-68.543327 -64.247421 -1.778258
-62.864037 -64.266167 -1.727971
-73.912598 -64.236221 -1.911978
-71.251602 -64.252609 -1.975561
-68.850731 -64.213203 -1.848706
-68.694336 -64.285156 -1.883916
-68.45031 -64.38208 -1.902957
-75.112068 -64.22261 -2.017231
-70.933174 -64.335724 -2.068285
-70.227936 -64.379456 -2.0281391
-79.829865 -64.365486 -2.2321601
-75.339088 -64.370163 -12.245285
-75.141045 -64.380417 -12.784072
-75.140564 -64.325813 -13.112099
-75.666992 -64.254257 -14.093079
-75.766327 -64.287239 -14.576153
-70.12709 -64.095062 -1.467031
-67.076561 -64.083275 -1.737836
-64.512993 -64.174553 -1.70793
-74.17263 -64.183403 -1.9085701
-73.937141 -64.088524 -1.9108109
-73.367676 -64.128967 -1.938149
-71.123123 -64.088181 -1.845093
-69.313675 -64.127861 -1.838068
-79.588127 -64.110703 -2.1673069
-78.607262 -64.196785 -2.129915
-78.273476 -64.141663 -2.153332
-79.860725 -64.031242 -2.225383
-60.92448 -64.021561 -8.7307749
-60.872955 -64.113876 -8.8858566
-75.846924 -64.026016 -13.810105
-75.350014 -64.105438 -13.919932
-75.159264 -64.118057 -14.040928
-73.10585 -63.849739 -1.373894
-71.649414 -63.960541 -1.511268
-72.025383 -63.944176 -1.7742
-71.61071 -63.949345 -1.7598211
-73.025879 -63.885956 -1.956334
-72.234848 -63.825325 -1.87196
-77.786728 -63.847881 -2.126451
-75.45224 -63.946037 -13.758037
-68.320221 -63.763195 -1.748788
-67.870514 -63.666931 -1.7505881
-67.689842 -63.654869 -1.771638
-73.032425 -63.636902 -1.946223
-71.099335 -63.726326 -1.856317
-76.9944 -63.759739 -2.110625
-69.771172 -63.63303 -2.0048981
-79.298416 -63.634254 -2.2105529
-76.452942 -63.61253 -3.6886899
-79.987732 -63.611134 -4.782588
-76.03334 -63.777664 -13.620489
-70.43795 -63.431728 -1.781687
-66.230301 -63.469707 -1.72093
-61.830902 -63.429344 -1.7305861
-74.45433 -63.46244 -1.913936
-73.865837 -63.404842 -1.912135
-72.939072 -63.451164 -1.926447
-69.386856 -63.51479 -1.879604
-67.919197 -63.537273 -1.807797
-76.17131 -63.492416 -2.0846
-75.785721 -63.531937 -2.0566859
-74.68882 -63.496456 -2.0247369
-79.820442 -63.55508 -2.220861
-70.235916 -63.423225 -5.9080768
-66.135826 -63.55241 -5.8648019
-67.674927 -63.332386 -1.76915
-65.500015 -63.270794 -1.725929
-61.469391 -63.307751 -1.753379
-75.106712 -63.316223 -1.898322
-73.676048 -63.287491 -1.8381079
-70.622063 -63.24334 -1.802593
-70.242622 -63.202969 -1.8067321
-68.326355 -63.237473 -1.8360569
-79.112595 -63.31871 -2.112699
-77.720428 -63.395966 -2.124614
-76.655495 -63.388161 -2.1074929
-75.95639 -63.390907 -2.557642
-79.877594 -63.273247 -4.5023322
-71.893204 -63.360905 -5.930202
-73.26564 -63.062084 -1.3566149
-66.936234 -63.041603 -1.681601
-62.256271 -63.104961 -1.7156301
-73.760277 -63.08683 -1.9275351
-71.618103 -63.123875 -1.864241
-66.663101 -63.025116 -1.816747
-65.90715 -63.017593 -1.807644
-78.553055 -63.068035 -2.090848
-78.112106 -63.019138 -2.080204
-65.836014 -63.026901 -2.7636509
-65.834663 -63.02079 -3.151078
-65.960144 -63.019707 -3.251802
-65.729095 -63.056259 -3.5227001
-74.695984 -63.058083 -3.738313
-74.626381 -63.011925 -5.0953259
-67.806656 -63.048576 -5.808744
-67.50013 -63.147297 -8.2630959
-77.847626 -63.108719 -13.759041
-66.850029 -62.945732 -1.77176
-62.990753 -62.974224 -1.692423
-73.336121 -62.9217 -1.92342
-68.312103 -62.965256 -1.901516
-77.891502 -62.877556 -2.080301
-76.144653 -62.939919 -2.078495
-74.565025 -62.864883 -2.030884
-69.332703 -62.839283 -2.158262
-67.060028 -62.985401 -2.1998639
-66.200409 -62.970768 -2.1027009
-79.446915 -62.918968 -2.2064569
-69.745758 -62.841537 -2.2071271
-66.621994 -62.995605 -2.6093359
-71.051193 -62.812172 -2.890413
-69.31459 -62.834572 -2.844173
-68.670326 -62.969482 -2.9029081
-68.348122 -62.828518 -3.1872771
-67.459885 -62.949017 -3.0924311
-67.070938 -62.966778 -3.0824921
-70.267738 -62.851334 -3.368963
-68.661499 -62.951015 -3.3062501
-69.315109 -62.892906 -3.5363021
-68.547943 -62.897118 -3.508615
-65.805649 -62.936813 -3.454663
-72.966286 -62.824104 -3.6475179
-72.704224 -62.818592 -3.701952
-70.691925 -62.814278 -3.6455221
-68.502991 -62.85923 -3.7735341
-66.881683 -62.891541 -3.768728
-66.214554 -62.953735 -3.7741611
-65.962372 -62.934479 -3.777374
-69.8508 -62.864697 -3.8217909
-69.034531 -62.867889 -3.9062891
-70.123657 -62.818752 -4.2598071
-68.629837 -62.891666 -4.49156
-66.243423 -62.923496 -4.4921689
-65.93811 -62.930016 -4.5118442
-69.013214 -62.854729 -4.644701
-66.289719 -62.910954 -4.7359619
-65.936104 -62.912941 -4.7167902
-66.285782 -62.888969 -4.9653478
-65.932549 -62.893021 -5.5271802
-72.78598 -62.939133 -5.8712988
-69.75502 -62.8703 -5.8071699
-72.932007 -62.95903 -10.125673
-73.002464 -62.889191 -14.288145
-61.526489 -62.639317 -1.7254879
-60.640751 -62.674759 -1.707224
-71.717064 -62.733822 -1.838243
-79.282967 -62.688969 -2.1904199
-76.627701 -62.603455 -2.0831201
-75.401871 -62.616447 -2.0227981
-69.094368 -62.793537 -2.2898951
-72.871201 -62.615738 -2.47311
-71.829849 -62.71666 -2.514205
-71.425819 -62.698643 -2.61638
-70.992783 -62.71719 -2.9638751
-67.996254 -62.795891 -3.1786361
-71.84832 -62.709106 -3.3141069
-71.155388 -62.707687 -3.373297
-72.532425 -62.671612 -3.7269289
-67.911003 -62.749023 -3.7835081
-67.376732 -62.735947 -3.790164
-67.040604 -62.720558 -3.7684121
-72.554771 -62.609348 -3.861892
-70.687805 -62.632439 -3.8909709
-70.256905 -62.729763 -3.857203
-70.573105 -62.617172 -4.1052008
-67.862076 -62.687786 -4.1145239
-71.769073 -62.721542 -4.294282
-67.258423 -62.670055 -4.3545151
-67.033028 -62.746803 -4.287024
-70.711952 -62.70681 -4.4844952
-68.211502 -62.661037 -4.5501132
-66.969398 -62.703468 -4.4395418
-71.759529 -62.66853 -4.6213832
-68.54068 -62.787216 -4.7358589
-68.170639 -62.683464 -4.6511841
-67.0495 -62.647346 -4.631218
-72.603004 -62.600067 -4.9754701
-68.110077 -62.653236 -4.9362888
-68.481079 -62.78569 -5.1188631
-67.877289 -62.731621 -5.1017909
-68.529007 -62.778561 -5.3003111
-67.765167 -62.63625 -5.2597761
-67.313591 -62.742149 -5.2366848
-66.964462 -62.700966 -5.296411
-71.849152 -62.638519 -5.4793401
-70.210838 -62.73053 -5.5187368
-67.896866 -62.717148 -5.5382829
-66.910713 -62.651245 -5.474781
-68.162415 -62.63887 -5.7202382
-67.038635 -62.634369 -5.6391201
-73.574753 -62.630585 -5.8507409
-70.907104 -62.645676 -6.1237812
-66.678047 -62.789841 -6.1297498
-66.251671 -62.795918 -6.3100491
-71.29776 -62.618084 -6.5576992
-70.910149 -62.6301 -6.5525222
-70.522491 -62.647163 -6.5506368
-69.297775 -62.67342 -6.513803
-68.683571 -62.679935 -7.648263
-66.775841 -62.69875 -8.4698505
-73.420105 -62.722839 -10.112906
-67.423477 -62.598469 -3.7821081
-70.845932 -62.5159 -3.9133799
-70.506592 -62.451363 -3.913085
-69.792007 -62.484291 -3.806715
-68.554535 -62.579063 -3.8394389
-72.822754 -62.452011 -4.1224122
-70.904724 -62.51078 -4.3071179
-72.795502 -62.533951 -4.4767828
-68.550064 -62.532722 -4.5358801
-72.808533 -62.445679 -4.6777468
-71.607338 -62.532913 -4.8890381
-69.428215 -62.586281 -4.9142098
-72.793434 -62.446602 -5.1083159
-71.616943 -62.520664 -5.2455878
-72.849319 -62.464745 -6.9591398
-72.583611 -62.519665 -7.292592
-72.127892 -62.536964 -7.313807
-70.620499 -62.593239 -7.6942048
-71.808365 -62.524864 -8.1210728
-70.161758 -62.571823 -8.1854897
-68.276016 -62.448868 -8.0786409
-70.613655 -62.528168 -9.2884111
-70.254669 -62.519058 -9.3203077
-69.376724 -62.564045 -9.3056526
-68.991173 -62.576641 -9.3040457
-71.670845 -62.45636 -9.4531498
-70.23465 -62.521564 -9.8269806
-69.379059 -62.485344 -10.625092
-60.311672 -62.261982 -1.726548
-74.783226 -62.323936 -1.985593
-74.326591 -62.305038 -1.911087
-77.779251 -62.328438 -2.0768239
-72.859734 -62.25399 -2.15289
-72.851036 -62.266235 -3.0806
-72.849564 -62.346828 -3.469305
-72.088371 -62.293888 -3.749192
-72.811058 -62.348385 -4.134531
-72.793106 -62.296829 -4.6521401
-72.79213 -62.292671 -4.9298782
-72.777802 -62.385056 -6.6767368
-72.800133 -62.329205 -6.8058038
-72.836304 -62.24736 -7.4944692
-68.175728 -62.359344 -8.1470108
-72.872543 -62.21365 -9.9580269
-61.628902 -62.095856 -1.683854
-72.853546 -62.077164 -1.951099
-79.631508 -62.056435 -2.1955709
-76.611404 -62.176064 -2.049041
-75.304062 -62.194908 -2.0201061
-75.069061 -62.161804 -2.4436309
-72.82058 -62.018143 -3.7697401
-72.806229 -62.061279 -4.7243018
-72.830009 -62.114803 -4.876801
-72.792938 -62.143398 -4.898067
-72.817833 -62.150711 -5.2177992
-65.03196 -62.043236 -5.7162089
-72.766541 -62.06324 -9.2558584
-72.813995 -62.167229 -9.4898281
-73.31707 -62.093304 -9.9969454
-72.748184 -62.054771 -12.709648
-72.637253 -62.012589 -13.907707
-73.366486 -62.034847 -14.279798
-72.854935 -62.055038 -14.274601
-73.157814 -61.848667 -1.1529551
-62.231659 -61.985943 -1.6636879
-73.555878 -61.896061 -1.915943
-78.885254 -61.954254 -2.072129
-76.885834 -61.999466 -2.0518761
-76.117607 -61.947502 -2.0492909
-75.410851 -61.963043 -2.0099659
-72.833939 -61.90834 -3.005012
-72.801308 -61.83337 -5.1245451
-73.487221 -61.836933 -6.0708971
-72.767792 -61.883301 -6.2017412
-72.772621 -61.812546 -7.1814899
-72.562744 -61.962734 -14.180691
-73.140976 -61.758614 -1.311643
-73.926346 -61.662407 -1.892684
-73.500107 -61.688591 -1.892361
-73.235527 -61.688435 -1.913187
-72.853729 -61.751656 -1.932959
-79.593681 -61.670273 -2.1792791
-78.884338 -61.75098 -2.0445471
-77.401367 -61.759377 -2.0553091
-72.833542 -61.765633 -3.142159
-72.824402 -61.7136 -3.304184
-72.730301 -61.629639 -3.7491281
-72.762062 -61.626404 -4.718029
-72.735107 -61.610886 -5.3155208
-72.810341 -61.786057 -5.459125
-72.765694 -61.647579 -5.4720478
-73.023537 -61.720818 -6.2739201
-72.790634 -61.790775 -6.658504
-72.780762 -61.730347 -7.7151122
-73.539001 -61.669991 -10.161294
-79.838959 -61.635849 -10.968637
-62.151764 -61.442974 -1.5971529
-72.861168 -61.545929 -1.921416
-79.098404 -61.449638 -2.088547
-78.821899 -61.436039 -2.06057
-76.610306 -61.429817 -2.0427611
-72.835281 -61.415382 -2.114753
-72.5681 -61.457249 -3.8751619
-72.702393 -61.56015 -4.1422262
-72.588875 -61.50753 -4.0914488
-72.74688 -61.570763 -5.511898
-72.874763 -61.485741 -5.833766
-73.144775 -61.543701 -6.2529068
-72.834915 -61.489037 -7.4086938
-72.66729 -61.557327 -9.1275415
-73.394928 -61.461792 -10.099985
-74.497452 -61.326916 -1.9182121
-74.218765 -61.367634 -1.888451
-73.424591 -61.231747 -1.869449
-79.108566 -61.228489 -2.1304679
-77.362564 -61.270622 -2.0407121
-75.131516 -61.35907 -2.001054
-72.612572 -61.399071 -5.1550422
-73.845711 -61.361408 -5.764348
-73.238457 -61.329994 -5.8296418
-73.445663 -61.333817 -10.115829
-72.989288 -61.364029 -10.054228
-62.479973 -61.149872 -1.597566
-60.428703 -61.008579 -1.63859
-72.822159 -61.125294 -2.1409659
-72.797318 -61.039185 -2.6943319
-72.80191 -61.030304 -2.9779019
-72.803528 -61.064262 -3.0008841
-72.797546 -61.131523 -3.34867
-72.646591 -61.111526 -4.531579
-72.535835 -61.088741 -5.1558652
-72.629784 -61.07523 -5.4378462
-72.782837 -61.067375 -7.7612062
-76.882675 -61.051647 -8.8266516
-73.366669 -61.060268 -10.0446
-63.016438 -60.8531 -1.61731
-62.042313 -60.832504 -1.611487
-74.637657 -60.948288 -1.969618
-73.758926 -60.907425 -1.8652281
-72.862808 -60.922478 -1.8907191
-79.534622 -60.960762 -2.1530931
-78.687439 -60.911331 -2.0330989
-78.205315 -60.98362 -2.0342481
-77.276176 -60.861286 -2.020885
-76.686813 -60.963131 -2.0371549
-72.806953 -60.997005 -2.2882531
-72.838295 -60.941544 -3.6907229
-72.609108 -60.804337 -4.3477559
-72.58577 -60.879288 -4.2655668
-72.538902 -60.92625 -4.7008009
-66.019699 -60.93943 -4.737381
-65.992142 -60.879246 -4.8437638
-60.582951 -60.811115 -5.7187099
-77.695335 -60.948502 -9.9735594
-72.9142 -60.999569 -10.071172
-72.731339 -60.920837 -10.037692
-62.614441 -60.657562 -1.622214
-74.514549 -60.680092 -1.895968
-72.818901 -60.710693 -1.885191
-78.327888 -60.79501 -2.0658729
-76.238258 -60.732742 -3.599844
-66.295052 -60.730732 -5.831913
-72.750198 -60.604671 -6.9795642
-72.736671 -60.637665 -7.3558488
-72.882065 -60.630077 -7.919292
-76.900307 -60.693054 -8.5485315
-78.207458 -60.78899 -9.0323696
-76.61808 -60.664429 -9.6568203
-72.739609 -60.757301 -9.744133
-78.81501 -60.734371 -10.785048
-73.194466 -60.749081 -14.198119
-73.497726 -60.739006 -14.204573
-73.918327 -60.410614 -1.816803
-72.776138 -60.536133 -1.895014
-72.770744 -60.531593 -3.2857289
-72.633087 -60.553989 -3.757288
-65.966217 -60.505325 -4.8858032
-73.456497 -60.579872 -6.0877929
-78.030281 -60.459473 -8.3931007
-77.846252 -60.578636 -8.3361769
-78.078995 -60.466637 -8.5975647
-76.839706 -60.438545 -10.020832
-76.723053 -60.463459 -10.167313
-73.470047 -60.47966 -10.051362
-63.069973 -60.370235 -1.556836
-75.770859 -60.284508 -1.959217
-75.369911 -60.286602 -1.938771
-73.862518 -60.24955 -1.818156
-79.038872 -60.322716 -2.1235881
-78.986267 -60.282669 -2.08076
-72.845589 -60.353859 -3.579083
-72.541809 -60.235344 -4.5090809
-73.631851 -60.356586 -5.7183371
-73.345612 -60.224239 -6.0827751
-73.087608 -60.240303 -6.246037
-72.727936 -60.230564 -6.5237021
-73.092125 -60.212448 -8.1823235
-77.008156 -60.252949 -8.5112486
-78.184921 -60.367413 -9.813488
-77.830002 -60.261444 -10.084261
-78.60144 -60.300083 -11.571354
-62.965202 -60.051994 -1.783927
-76.855537 -60.122925 -1.997992
-73.063728 -60.148178 -1.834951
-62.089924 -60.106949 -1.891222
-60.64901 -60.165089 -1.8821959
-78.541351 -60.012337 -2.025291
-77.011818 -60.091732 -2.0246911
-63.676922 -60.012878 -2.54738
-62.52515 -60.136906 -2.4589109
-60.380829 -60.107323 -2.9941969
-72.747147 -60.172211 -3.2844279
-62.537231 -60.082649 -3.2265241
-62.560139 -60.06012 -3.6642139
-72.736252 -60.037426 -3.8856239
-72.489922 -60.182373 -4.1542768
-61.662125 -60.062363 -4.2401652
-60.058456 -60.053741 -4.597157
-60.065857 -60.086617 -5.0425472
-63.302883 -60.035065 -5.313971
-62.261372 -60.038078 -5.371552
-72.705505 -60.024826 -5.5376868
-60.055073 -60.114208 -5.4677711
-72.908432 -60.17886 -5.7907171
-61.023209 -60.017418 -6.1109042
-60.004288 -60.07069 -6.0318451
-61.788715 -60.047371 -6.436183
-72.714165 -60.194798 -7.0119662
-73.070374 -60.132729 -8.4201012
-77.443481 -60.128624 -9.9140759
-76.917007 -60.099335 -10.057671
-77.986839 -60.137592 -11.471786
-77.506378 -60.108635 -13.523324
-73.122475 -79.832825 -2.0029781
-74.745277 -79.973579 -2.3970871
-74.343079 -79.931168 -2.3808341
-72.434593 -79.993759 -2.2125461
-72.144882 -79.9254 -2.3409481
-67.413177 -79.839867 -2.398031
-65.199661 -79.963287 -2.394948
-60.421867 -79.83812 -2.3352339
-77.080498 -79.858047 -2.5707259
-76.19696 -79.834267 -2.492923
-75.113037 -79.949722 -2.4876771
-74.893448 -79.84642 -2.4356661
-74.563614 -79.902359 -2.463331
-71.911026 -79.89505 -2.4212611
-71.070488 -79.852783 -2.5534301
-68.723358 -79.815338 -2.4374399
-65.63736 -79.933365 -2.421788
-79.575302 -79.9422 -2.618958
-66.818527 -79.892242 -5.9291401
-72.543396 -79.835533 -6.0945549
-64.141083 -79.927521 -6.2152858
-67.594345 -79.961456 -6.821239
-64.296143 -79.910744 -7.033494
-71.280502 -79.923325 -7.3792858
-67.393051 -79.817841 -7.3225918
-65.620193 -79.80938 -7.327034
-65.504387 -79.825668 -7.3121352
-71.072914 -79.945541 -7.443543
-70.84977 -79.832108 -8.1705999
-72.797302 -79.969604 -8.2743797
-69.287262 -79.994705 -8.2760124
-72.913918 -79.851334 -8.974329
-74.713013 -79.946152 -9.4145908
-63.359665 -79.7108 -2.3899159
-75.116325 -79.693893 -2.47105
-74.290115 -79.688812 -2.422452
-69.651382 -79.695564 -2.520565
-70.532448 -79.652336 -5.4784431
-70.132767 -79.623871 -5.6813231
-72.836945 -79.637184 -5.8562522
-72.330627 -79.777412 -6.0951538
-70.67276 -79.655106 -6.5996909
-66.777664 -79.605171 -6.949295
-68.445198 -79.628151 -7.141048
-67.735313 -79.677986 -7.2089028
-64.207924 -79.722404 -7.3093972
-74.883034 -79.665039 -7.9814191
-73.62394 -79.625694 -7.9239521
-73.54953 -79.663071 -7.9268069
-70.776924 -79.799461 -8.0591488
-70.929428 -79.782135 -8.4841185
-64.573601 -79.69841 -8.8386812
-72.498764 -79.5149 -2.0976119
-73.550652 -79.47374 -2.316221
-66.486786 -79.483063 -2.3778441
-66.248894 -79.482826 -2.3922479
-74.152328 -79.457016 -2.423758
-71.746765 -79.56356 -2.493186
-71.119446 -79.432838 -2.5624671
-70.529449 -79.496819 -2.5642691
-67.678955 -79.583481 -2.443696
-71.457672 -79.410095 -5.5274901
-66.729218 -79.497887 -5.948431
-72.458885 -79.492554 -6.1995902
-70.478287 -79.415863 -6.710032
-68.191086 -79.55481 -7.1916399
-64.633286 -79.408905 -7.2787781
-73.174438 -79.521034 -8.2768154
-65.570053 -79.490707 -8.4201193
-70.868019 -79.416931 -8.7507458
-73.325119 -79.460052 -9.0677338
-72.571198 -79.422287 -9.0368414
-66.721329 -79.440598 -9.0054436
-73.830688 -79.445686 -9.2873201
-72.53894 -79.355423 -1.792477
-72.379822 -79.290161 -2.138881
-74.833168 -79.366753 -2.3886001
-72.338432 -79.281105 -2.247144
-72.090904 -79.277054 -2.3002861
-65.291443 -79.315552 -2.385864
-63.858994 -79.356003 -2.3668039
-77.425293 -79.270981 -2.5785179
-70.494843 -79.258522 -2.5694449
-69.826057 -79.314247 -2.5234301
-69.501556 -79.346146 -2.4805651
-68.107368 -79.3088 -2.4386041
-66.645584 -79.260689 -2.405762
-79.999382 -79.299339 -2.6891451
-71.63398 -79.208427 -2.62641
-74.13768 -79.262756 -2.946363
-74.131966 -79.257317 -3.327724
-74.108032 -79.24559 -4.1321549
-74.10508 -79.24585 -4.3373489
-73.924576 -79.219612 -4.5734472
-73.854904 -79.217148 -4.8917131
-73.916519 -79.25425 -5.0192041
-72.018692 -79.299355 -5.5607748
-71.423477 -79.311249 -5.9043608
-71.443687 -79.380836 -6.0321889
-69.712921 -79.376816 -6.04248
-66.641525 -79.317818 -6.100276
-65.375473 -79.274315 -6.5130272
-66.307434 -79.325172 -6.6549568
-65.119507 -79.355209 -7.0278869
-73.854126 -79.317299 -7.7514458
-71.760933 -79.285957 -7.8370991
-73.748528 -79.387138 -8.2763119
-71.822586 -79.256355 -8.4842453
-70.894554 -79.357941 -8.949482
-74.137901 -79.3386 -9.5523062
-72.109108 -79.298584 -12.383557
-72.322205 -79.091003 -2.245398
-66.512894 -79.121857 -2.3924451
-66.016243 -79.103477 -2.388423
-61.412991 -79.042656 -2.3267031
-79.661774 -79.061218 -2.5764229
-76.611694 -79.077133 -2.5044489
-71.568512 -79.147072 -2.5290799
-71.29818 -79.083817 -2.4966049
-79.677467 -79.042488 -2.6314659
-74.130203 -79.163818 -4.5556211
-74.470482 -79.154869 -4.6603951
-74.138512 -79.152405 -4.9076958
-68.182838 -79.122391 -5.5639529
-70.32975 -79.148476 -5.6705332
-69.648605 -79.082367 -6.099369
-66.85257 -79.135902 -6.3213301
-70.178009 -79.094658 -6.9022079
-63.478214 -79.036728 -7.049015
-75.385696 -79.147293 -8.8241863
-71.881767 -79.001762 -10.887445
-74.263382 -78.918732 -2.348397
-72.09922 -78.844681 -2.3420441
-74.721512 -78.91404 -2.416049
-74.350914 -78.994461 -2.4362769
-72.066116 -78.852409 -2.4187901
-71.72554 -78.959579 -2.46435
-70.853653 -78.925049 -2.5325561
-69.074554 -78.926399 -2.475172
-67.237335 -78.895882 -2.404182
-65.713394 -78.989334 -2.413111
-70.539413 -78.889549 -2.6094949
-76.58934 -78.822845 -4.0992689
-71.674408 -78.896317 -5.5255032
-70.657318 -78.962578 -5.6796498
-63.144501 -78.855759 -6.6299319
-72.520508 -78.950043 -6.9508238
-64.193047 -78.904984 -6.945035
-66.254692 -78.878372 -7.03898
-68.484917 -78.953018 -7.2621579
-65.499878 -78.989914 -7.2586708
-73.736298 -78.947083 -7.541276
-73.534645 -78.988777 -7.7047372
-71.277069 -78.870476 -7.6849098
-66.8853 -78.897095 -7.6420231
-67.745667 -78.926453 -7.8906441
-70.490486 -78.966919 -8.1581535
-75.161583 -78.912766 -8.3047705
-72.067749 -78.883659 -8.2713928
-69.36293 -78.92865 -8.2597008
-74.933426 -78.992653 -8.4904575
-72.004135 -78.988609 -8.5671158
-75.454651 -78.922333 -8.6520615
-69.023758 -78.924301 -9.191124
-74.628319 -78.95491 -9.4413338
-74.991882 -78.925858 -9.8165236
-72.390495 -78.999931 -11.477966
-72.415855 -78.61554 -2.0228119
-74.732346 -78.701279 -2.381042
-74.452591 -78.720261 -2.3679299
-66.52282 -78.686111 -2.3965051
-66.040794 -78.785896 -2.383148
-65.849411 -78.672775 -2.382633
-64.662094 -78.646385 -2.3670361
-62.99416 -78.623398 -2.336076
-60.267624 -78.622131 -2.3060479
-71.666641 -78.712067 -2.4409571
-71.50161 -78.689735 -2.4665561
-68.976921 -78.707291 -2.4837289
-72.775826 -78.617592 -5.7916689
-71.273758 -78.742363 -5.8373919
-69.815651 -78.672173 -5.8207469
-69.574593 -78.765335 -6.5083861
-72.514488 -78.731377 -7.0150261
-72.107727 -78.633087 -7.396646
-64.206604 -78.724258 -7.2570229
-63.768471 -78.69101 -7.4396739
-74.438995 -78.61908 -7.7422571
-72.084183 -78.636856 -8.1464548
-65.241547 -78.702148 -8.0818872
-75.165947 -78.752892 -8.2748356
-74.891289 -78.63649 -8.2114716
-75.627098 -78.636414 -8.5588198
-67.570099 -78.795746 -8.5778122
-75.128754 -78.709251 -8.9147987
-73.545746 -78.525894 -2.276459
-72.243912 -78.445953 -2.219651
-71.703796 -78.587212 -2.3895221
-63.331444 -78.579704 -2.3281181
-77.418732 -78.555824 -2.52984
-75.725899 -78.486618 -2.4704881
-74.694687 -78.554749 -2.4240811
-71.485168 -78.539093 -2.4247789
-70.25914 -78.55497 -2.5259581
-69.343582 -78.419174 -2.518754
-69.066971 -78.530258 -2.4893
-68.643822 -78.568604 -2.443742
-65.147461 -78.47731 -2.410717
-79.930672 -78.507828 -2.651144
-71.129242 -78.492599 -6.326766
-66.611069 -78.486786 -7.6789751
-71.776703 -78.494072 -8.1025486
-70.082977 -78.580009 -8.0749626
-74.127335 -78.442886 -8.2393284
-71.491646 -78.5158 -8.4498644
-72.542976 -78.40358 -10.851341
-72.499878 -78.208023 -1.835164
-75.072266 -78.317772 -2.3841791
-74.077072 -78.21273 -2.337563
-72.018967 -78.34549 -2.2914109
-61.787857 -78.225708 -2.2748151
-77.155563 -78.344971 -2.4963601
-75.113403 -78.336288 -2.4420049
-74.953094 -78.343063 -2.4324379
-69.514923 -78.325279 -2.5044611
-71.169617 -78.286911 -2.700253
-72.925034 -78.317688 -5.9557109
-73.223938 -78.240494 -6.0810361
-65.116447 -78.330643 -6.0342832
-70.564659 -78.24411 -6.8499279
-66.418243 -78.302765 -6.9993248
-66.785217 -78.339951 -7.3261938
-64.237358 -78.28598 -7.3725872
-63.824516 -78.266907 -8.189374
-71.389145 -78.205124 -9.7132587
-74.030411 -78.374374 -9.8524628
-71.179352 -78.368164 -11.657223
-74.156677 -78.054306 -2.35201
-72.027557 -78.133316 -2.262857
-64.84742 -78.070007 -2.391113
-60.939423 -78.174347 -2.3070741
-60.733788 -78.033836 -2.3069999
-79.658623 -78.110214 -2.5511961
-77.80098 -78.182281 -2.5150411
-76.635925 -78.167053 -2.477303
-76.135956 -78.089264 -2.482918
-74.663879 -78.156082 -2.4101551
-70.943138 -78.129486 -2.4965301
-69.678146 -78.107727 -2.493464
-69.332428 -78.040001 -2.499022
-72.671555 -78.10556 -6.0931759
-66.192932 -78.117111 -6.1640821
-65.749062 -78.020607 -6.064992
-65.026962 -78.082687 -6.6788678
-72.514969 -78.101486 -9.3710995
-71.385574 -78.198944 -9.2735605
-72.180908 -78.077988 -10.131277
-73.668221 -78.073837 -11.515627
-72.23983 -77.865097 -2.101198
-71.907257 -77.89151 -2.292238
-61.094006 -77.957024 -2.316407
-60.933636 -77.851112 -2.2875199
-76.992325 -77.811005 -2.547009
-75.501427 -77.870651 -2.4231861
-74.533394 -77.864777 -2.410836
-71.293488 -77.898888 -2.436482
-70.910774 -77.842651 -2.499244
-70.513397 -77.834259 -2.514287
-67.909622 -77.929131 -2.518106
-65.804703 -77.870171 -2.4613199
-67.64447 -77.826523 -6.102901
-65.426414 -77.801193 -6.3319979
-71.9366 -77.813667 -6.7112231
-71.904228 -77.886108 -7.0342879
-68.868164 -77.849289 -7.0770659
-72.65596 -77.910873 -7.3359652
-75.045799 -77.900398 -8.0602493
-74.733734 -77.895096 -8.1395798
-67.759529 -77.92823 -8.1625118
-70.911064 -77.929642 -9.4854565
-74.634338 -77.963608 -10.553368
-70.461807 -77.835373 -10.632481
-73.076668 -77.716957 -1.955572
-72.370834 -77.715401 -1.936572
-74.747498 -77.704498 -2.379823
-65.522751 -77.771919 -2.388128
-61.208023 -77.690254 -2.3077061
-78.643875 -77.75412 -2.543674
-78.223511 -77.789978 -2.5502069
-70.925583 -77.720886 -2.491142
-70.561348 -77.66433 -2.5234561
-65.687134 -77.677124 -2.4676809
-68.075485 -77.679398 -2.6219101
-67.696098 -77.65181 -2.6185279
-71.227478 -77.736328 -4.5834141
-71.199242 -77.752586 -4.592947
-71.53788 -77.623871 -4.6667132
-71.128418 -77.727158 -4.727387
-71.257065 -77.688011 -4.956388
-66.239708 -77.753685 -6.171751
-66.646027 -77.746643 -7.277545
-70.304283 -77.703217 -7.694509
-67.392113 -77.791367 -7.6563959
-65.505592 -77.78569 -7.7606368
-69.404289 -77.708893 -8.1619549
-70.189117 -77.672729 -8.2809696
-74.857536 -77.698868 -9.373333
-73.110626 -77.780258 -9.3502703
-70.415657 -77.784698 -10.923346
-73.117416 -77.790558 -11.061983
