# .PCD v0.7 - Point Cloud Data file format
VERSION 0.7
FIELDS x y z
SIZE 4 4 4
TYPE F F F
COUNT 1 1 1
WIDTH 1485
HEIGHT 1
VIEWPOINT 0 0 0 1 0 0 0
POINTS 1485
DATA ascii
-77.74865 -2.9286871 -0.36131701
-77.307098 -2.9208429 -0.368898
-76.670601 -2.93577 -0.342103
-76.599609 -2.8489659 -0.34153301
-72.10511 -2.918998 -0.39680099
-71.662643 -2.9495721 -0.383329
-71.468834 -2.9221311 -0.364977
-71.123558 -2.9329231 -0.33845001
-70.890961 -2.927336 -0.30364501
-70.655281 -2.92941 -0.27782601
-70.135269 -2.929528 -0.26452601
-68.682144 -2.8906131 -0.30074701
-68.497787 -2.9248869 -0.33006001
-68.138176 -2.9595029 -0.35214001
-67.952637 -2.9172361 -0.32442099
-67.756348 -2.8795691 -0.35419899
-79.958099 -2.972656 -0.42119899
-78.95871 -2.9842241 -0.40451899
-77.280548 -2.889729 -0.40744501
-76.377213 -2.8727019 -0.44402599
-76.179237 -2.8453729 -0.426851
-75.754555 -2.9741399 -0.44524899
-75.455582 -2.9627531 -0.43438199
-74.945801 -2.8689661 -0.447947
-74.553711 -2.9722061 -0.45231399
-73.005623 -2.9742229 -0.41581801
-72.603287 -2.9426291 -0.415223
-71.675102 -2.9756491 -0.408283
-68.453934 -2.8904819 -0.438916
-67.497391 -2.8477399 -0.46383801
-66.789917 -2.8756571 -0.413248
-63.11969 -2.8935621 -0.57313102
-62.930069 -2.888448 -0.58225
-62.613365 -2.8652871 -0.595734
-61.875977 -2.897979 -0.58777601
-61.38533 -2.9919829 -0.58464599
-61.146439 -2.8689229 -0.56559002
-60.970638 -2.8827789 -0.57914299
-60.048203 -2.8097069 -0.53205597
-66.208023 -2.825706 -0.60358298
-65.915535 -2.862741 -0.63748199
-65.747849 -2.8834021 -0.66390198
-65.080261 -2.9354489 -0.73805898
-64.515129 -2.9410479 -0.751899
-64.274399 -2.9240661 -0.73913199
-64.159897 -2.9437511 -0.70439899
-63.865704 -2.8842709 -0.664253
-63.699928 -2.9135029 -0.66467702
-63.500237 -2.8439751 -0.64811498
-63.311234 -2.8158391 -0.63775003
-63.058365 -2.9439659 -0.635364
-62.877522 -2.8366079 -0.63082302
-62.494854 -2.930352 -0.63098902
-62.364624 -2.8537011 -0.612481
-61.669861 -2.969955 -0.60304302
-60.673428 -2.860146 -0.62270999
-60.510612 -2.853313 -0.62585998
-67.480835 -2.8411291 -0.97611701
-64.939484 -2.934778 -0.82515198
-64.766464 -2.976825 -0.828641
-61.720348 -2.8404529 -0.90636402
-67.483078 -2.8238239 -1.095999
-62.059666 -2.9057939 -1.183061
-62.072632 -2.8853071 -1.272987
-61.925682 -2.8174469 -1.351588
-67.462013 -2.8282549 -1.431667
-67.309784 -2.917522 -1.447516
-67.167786 -2.819711 -1.563475
-61.964874 -2.871686 -1.435991
-67.248764 -2.8650849 -1.617823
-61.984928 -2.9979031 -1.747794
-61.363075 -2.8729191 -1.743102
-60.653603 -2.9679289 -1.788327
-60.503822 -2.9207039 -1.744278
-62.522461 -2.8924451 -1.957822
-60.699409 -2.898483 -1.843774
-63.374882 -2.964196 -2.1889291
-62.314884 -2.9336901 -2.125051
-60.967651 -2.9299231 -2.051074
-63.422314 -2.9003329 -2.247051
-63.270897 -2.8319321 -2.3343129
-62.941689 -2.9166851 -2.338424
-62.643097 -2.896488 -2.3519111
-62.559505 -2.9251239 -2.348444
-62.265015 -2.888289 -2.2525599
-63.247101 -2.9697621 -2.444967
-62.831226 -2.8676929 -2.56865
-62.696144 -2.91032 -2.537986
-62.547722 -2.912421 -2.530045
-61.754704 -2.914181 -2.5778511
-60.457592 -2.925663 -2.498024
-60.234943 -2.976187 -2.497895
-62.67688 -2.902735 -2.7348509
-62.557861 -2.9167731 -2.6744399
-62.059448 -2.888948 -2.6809311
-62.842415 -2.894238 -2.9565761
-62.644882 -2.8980031 -2.904006
-62.492371 -2.8753171 -2.8586431
-62.229656 -2.9722171 -2.9059031
-62.185986 -2.983392 -2.9064009
-61.858093 -2.955332 -2.956008
-63.334843 -2.918052 -3.1771231
-63.120041 -2.880532 -3.16572
-62.946358 -2.8784039 -3.1294279
-62.204132 -2.981632 -3.0020299
-61.408554 -2.9528279 -3.021019
-63.292717 -2.9134691 -3.2500701
-63.076584 -2.8106561 -3.2995081
-62.969891 -2.8625491 -3.3377669
-60.377167 -2.9901111 -3.3798521
-63.246315 -2.9138279 -3.5285549
-63.154953 -2.8418069 -3.4524169
-62.942162 -2.8335259 -3.525218
-62.240623 -2.946506 -3.403425
-63.238785 -2.950175 -3.662359
-60.995911 -2.9431641 -3.6547251
-66.288643 -2.9920659 -4.1541319
-66.286705 -2.8499441 -4.323163
-62.659088 -2.8289809 -4.4357772
-62.120953 -2.9769311 -4.849721
-61.978813 -2.8480661 -5.2377129
-69.081573 -2.652699 0.45490599
-68.998718 -2.6606929 0.27384001
-70.063782 -2.630296 -0.18664999
-79.691498 -2.6910281 -0.37543401
-79.204712 -2.7296269 -0.36561799
-79.055756 -2.695879 -0.38298401
-78.644272 -2.604629 -0.38380501
-78.213509 -2.6865101 -0.38688201
-77.738747 -2.672255 -0.35939899
-77.255508 -2.7079141 -0.37636
-76.665741 -2.7837031 -0.34278899
-72.532837 -2.6490819 -0.38512599
-72.111816 -2.600431 -0.385681
-70.844757 -2.677927 -0.31156099
-70.52626 -2.6826301 -0.29200101
-68.672043 -2.706563 -0.27689701
-68.321846 -2.678669 -0.25911799
-68.090088 -2.682303 -0.26653501
-67.678772 -2.6290071 -0.330493
-67.555809 -2.650156 -0.383798
-67.30098 -2.7326839 -0.38735899
-67.115723 -2.619797 -0.343519
-66.921951 -2.64183 -0.387279
-66.793915 -2.6364951 -0.395473
-79.136803 -2.606189 -0.419696
-78.574173 -2.661777 -0.42823499
-77.494728 -2.6799619 -0.42110699
-77.381912 -2.675885 -0.43486401
-75.493484 -2.653074 -0.43268299
-75.319572 -2.6361301 -0.44691601
-72.556702 -2.6768401 -0.420609
-71.863022 -2.6953399 -0.41086701
-67.664574 -2.723212 -0.44861299
-67.422714 -2.6746931 -0.48295701
-67.328003 -2.7475021 -0.50166899
-66.874969 -2.7887621 -0.40635699
-66.501816 -2.6603329 -0.494822
-66.115845 -2.678905 -0.57617599
-63.872353 -2.662626 -0.56653601
-63.632332 -2.6863551 -0.56531298
-63.103195 -2.6959119 -0.56920397
-62.86364 -2.65184 -0.57762599
-62.75544 -2.6912341 -0.59017497
-62.083969 -2.7211659 -0.58986002
-61.871353 -2.7415431 -0.55960798
-61.705437 -2.6672759 -0.55196899
-61.497826 -2.68874 -0.510185
-61.090614 -2.7100179 -0.51123297
-60.550537 -2.662075 -0.53394401
-60.236778 -2.714838 -0.559012
-60.114388 -2.702621 -0.54018402
-67.421875 -2.6875019 -0.69150102
-67.387878 -2.6605639 -0.67114103
-66.092339 -2.661629 -0.61738598
-65.938644 -2.697078 -0.69443798
-65.701706 -2.6802509 -0.70204198
-65.328056 -2.647974 -0.67182797
-64.742447 -2.6894381 -0.746521
-64.479858 -2.6710539 -0.74526101
-64.248314 -2.672437 -0.69491398
-64.092789 -2.75351 -0.70231199
-63.884705 -2.6637449 -0.64062601
-63.711143 -2.7790699 -0.67301702
-63.551781 -2.7640531 -0.61289001
-62.766052 -2.7151561 -0.62821901
-61.806065 -2.649883 -0.68407702
-61.751293 -2.6637859 -0.71383899
-60.298046 -2.7845089 -0.62083799
-67.44072 -2.6891241 -0.96103698
-67.346405 -2.6902201 -0.95910299
-65.054054 -2.7479129 -0.80801898
-64.941734 -2.6898539 -0.90998203
-64.375725 -2.6032801 -0.80049801
-61.712254 -2.6599791 -0.90486002
-67.463562 -2.6535981 -1.108936
-67.35553 -2.6772809 -1.078943
-61.672455 -2.685935 -1.0761451
-73.736374 -2.7540481 -1.396034
-67.510979 -2.6890481 -1.313448
-67.346878 -2.6966479 -1.300501
-62.099224 -2.7163799 -1.264626
-61.974667 -2.752701 -1.346171
-61.792767 -2.6162591 -1.375541
-61.515587 -2.710799 -1.307472
-60.870838 -2.6559579 -1.371552
-67.35463 -2.6728311 -1.493158
-67.161331 -2.750272 -1.451219
-62.051033 -2.701165 -1.4279391
-60.756943 -2.697675 -1.457145
-67.447235 -2.725539 -1.67182
-61.344864 -2.670083 -1.7131211
-61.027691 -2.649441 -1.7112859
-61.057556 -2.788162 -1.862855
-62.531601 -2.780443 -2.0664639
-61.062458 -2.649812 -2.123384
-60.650463 -2.6043861 -2.187629
-62.817501 -2.6511519 -2.3269701
-62.740459 -2.7253301 -2.362247
-62.091896 -2.745208 -2.2484951
-61.382401 -2.631671 -2.208519
-62.694069 -2.73646 -2.5068851
-62.23357 -2.619199 -2.5299361
-61.219101 -2.6177981 -2.5781541
-60.896679 -2.680938 -2.597996
-60.543255 -2.6251681 -2.597347
-61.957329 -2.78473 -2.753701
-60.655701 -2.698844 -2.748667
-60.441345 -2.636524 -2.768692
-61.83461 -2.617027 -2.9446149
-61.381866 -2.6199231 -2.9887609
-60.977192 -2.616472 -2.965261
-60.612846 -2.647866 -2.8948951
-60.145378 -2.640137 -2.965348
-62.945782 -2.7334731 -3.143024
-62.774323 -2.6476171 -3.15908
-62.598461 -2.76984 -3.030925
-61.135872 -2.6094241 -3.151022
-62.918121 -2.7042921 -3.27633
-62.670609 -2.6743209 -3.3457079
-61.850582 -2.6317761 -3.3424909
-61.277966 -2.6871791 -3.277204
-61.070969 -2.6112051 -3.375443
-60.06263 -2.7436171 -3.3111911
-60.753784 -2.659534 -3.457068
-63.371964 -2.660974 -3.6416459
-62.940655 -2.6267171 -3.786391
-62.600761 -2.6039021 -3.711046
-62.109009 -2.6414499 -3.6303599
-61.401962 -2.7252569 -3.7069571
-62.976074 -2.6878231 -4.1603079
-61.768772 -2.792949 -4.2809811
-62.115131 -2.639529 -4.606873
-62.179558 -2.7357271 -4.8189359
-79.408272 -2.613492 -7.5903111
-79.56604 -2.7142639 -7.8071208
-69.469147 -2.5870841 0.71864498
-69.852509 -2.554688 0.145046
-70.034637 -2.5688319 -0.184324
-69.95343 -2.578578 -0.115171
-68.790588 -2.5390649 -0.191091
-77.825714 -2.4983251 -0.36141801
-77.624222 -2.4322791 -0.38786301
-71.7332 -2.552917 -0.37643
-71.450096 -2.5127709 -0.34916899
-71.306587 -2.5232961 -0.3439
-71.067299 -2.503211 -0.34876001
-70.916214 -2.4937141 -0.34411001
-70.480263 -2.456872 -0.34189901
-70.312241 -2.4853089 -0.258672
-70.099197 -2.5430541 -0.25304699
-68.278481 -2.5618279 -0.28826201
-68.035515 -2.524425 -0.291302
-67.118797 -2.5633631 -0.37716299
-66.90361 -2.5005269 -0.37066501
-79.582199 -2.4011719 -0.434791
-78.93367 -2.5766189 -0.414314
-78.659447 -2.5557799 -0.40839699
-78.525604 -2.4793501 -0.41718
-77.608795 -2.490622 -0.401272
-76.10083 -2.5475349 -0.432744
-75.893471 -2.5154431 -0.45053899
-74.893288 -2.5109739 -0.44519299
-73.774277 -2.5979259 -0.43079901
-70.684044 -2.5196109 -0.41174799
-70.510674 -2.444243 -0.42080799
-67.110794 -2.5118201 -0.44011
-65.898468 -2.4905889 -0.57934701
-64.280403 -2.4733019 -0.57810003
-64.030212 -2.5059271 -0.53177702
-63.858894 -2.5100479 -0.53404599
-63.689758 -2.505609 -0.50055403
-63.479828 -2.564728 -0.53449303
-63.2784 -2.5113831 -0.544411
-63.102848 -2.4842081 -0.52813298
-62.942482 -2.5393491 -0.55264699
-62.769997 -2.4666259 -0.58702302
-62.47427 -2.486073 -0.54992098
-62.27388 -2.465857 -0.533889
-62.11322 -2.516983 -0.52494299
-61.89502 -2.501261 -0.57576102
-61.72105 -2.535378 -0.514094
-61.331856 -2.4939539 -0.459829
-61.166443 -2.4506991 -0.57300597
-60.944115 -2.51825 -0.53875297
-60.677094 -2.4653521 -0.470348
-60.575912 -2.5346949 -0.50788301
-60.246796 -2.493412 -0.48603499
-60.107571 -2.539171 -0.470281
-66.07312 -2.562577 -0.62131399
-65.544426 -2.4981649 -0.66344398
-64.923653 -2.511374 -0.76693797
-64.482162 -2.519953 -0.72154301
-64.270081 -2.4763269 -0.65087098
-62.330231 -2.5020261 -0.60922498
-61.887352 -2.503763 -0.72860003
-67.280426 -2.576457 -0.94555801
-65.278145 -2.473376 -0.81687599
-65.08564 -2.4616301 -0.86861199
-64.912994 -2.4388659 -0.83962703
-64.684372 -2.508424 -0.87493902
-61.881073 -2.4914229 -0.89511901
-61.787628 -2.598161 -0.96053898
-60.805363 -2.426295 -0.939731
-60.776848 -2.457824 -0.96098101
-61.882732 -2.484272 -1.098814
-61.075066 -2.4568491 -1.139154
-60.946198 -2.4388411 -1.140965
-60.699509 -2.483598 -1.130103
-60.585415 -2.4963861 -1.086225
-67.328384 -2.533546 -1.360304
-62.070709 -2.55073 -1.28925
-61.881706 -2.4944861 -1.284886
-60.885361 -2.479409 -1.273308
-60.753136 -2.4530661 -1.2267081
-67.450012 -2.538255 -1.44914
-62.588192 -2.514102 -1.553615
-61.867756 -2.463558 -1.481916
-61.792652 -2.4696209 -1.532932
-61.079445 -2.5135839 -1.4936841
-60.769527 -2.4186239 -1.527315
-67.42112 -2.551255 -1.62765
-62.924915 -2.414675 -1.68681
-61.878304 -2.484318 -1.697405
-60.99733 -2.462172 -1.646384
-62.909142 -2.433712 -1.835945
-62.265694 -2.4029329 -1.828639
-73.563293 -2.400239 -2.0099881
-61.911022 -2.5727041 -2.0661769
-60.681015 -2.496098 -2.095619
-60.385803 -2.431592 -2.1419239
-62.872559 -2.4377129 -2.245364
-62.724144 -2.5312669 -2.2661569
-62.042221 -2.5092249 -2.349895
-61.880661 -2.550724 -2.290916
-61.611992 -2.450665 -2.2135949
-61.547409 -2.453635 -2.3117521
-60.911701 -2.468683 -2.2868831
-60.730171 -2.421602 -2.370188
-60.425243 -2.5307109 -2.35132
-60.361206 -2.518147 -2.2280159
-62.172451 -2.5024559 -2.568774
-61.958965 -2.5924489 -2.549778
-61.472759 -2.4734881 -2.558897
-61.025757 -2.5966611 -2.5715599
-61.456474 -2.4676549 -2.6103539
-61.103672 -2.456409 -2.7505989
-60.23761 -2.495569 -2.7118421
-61.280937 -2.527504 -2.894515
-61.047756 -2.401284 -2.8843131
-62.232658 -2.5147049 -3.1030419
-60.243549 -2.5421591 -3.144155
-63.039509 -2.581229 -3.3675611
-62.096169 -2.5383461 -3.3260159
-60.433079 -2.4264879 -3.313118
-60.23217 -2.5523601 -3.3221731
-63.039619 -2.5695851 -3.504173
-62.890316 -2.4667151 -3.484298
-62.684528 -2.548965 -3.4063151
-61.885368 -2.5458281 -3.6695039
-60.584911 -2.4312389 -3.633193
-63.289158 -2.570766 -3.8943441
-63.3773 -2.538909 -4.0754828
-62.220245 -2.5296471 -4.9606872
-79.248947 -2.577673 -6.912221
-79.450706 -2.522186 -7.5973549
-69.41938 -2.3569369 0.74323303
-69.060768 -2.262506 0.32833701
-68.920746 -2.20033 0.216489
-69.966721 -2.2329431 -0.120264
-68.82756 -2.2525799 -0.028594
-79.771652 -2.2822509 -0.38748801
-79.055862 -2.2783749 -0.387678
-78.891235 -2.254663 -0.39309701
-78.506279 -2.3363011 -0.392845
-78.241547 -2.277184 -0.36466199
-77.707901 -2.235846 -0.38116601
-77.535492 -2.305109 -0.38148299
-77.258331 -2.3624671 -0.36490601
-71.858246 -2.2904229 -0.380678
-71.71907 -2.3684621 -0.381365
-71.342232 -2.2992809 -0.351266
-71.151947 -2.236979 -0.316616
-70.657921 -2.285748 -0.33272201
-70.547569 -2.3072701 -0.31588301
-70.080856 -2.2361331 -0.271025
-68.622452 -2.2540541 -0.31327099
-61.514641 -2.2711141 -0.38299501
-61.396889 -2.364656 -0.39347601
-60.815861 -2.3220401 -0.39824301
-60.720871 -2.258189 -0.37204599
-60.261414 -2.2508531 -0.37354401
-79.944153 -2.268723 -0.42242
-79.224556 -2.3089221 -0.41137299
-79.151352 -2.268676 -0.42207
-78.533737 -2.349987 -0.41548201
-78.244232 -2.2398181 -0.432464
-77.765335 -2.203953 -0.419168
-76.338196 -2.364408 -0.42613301
-75.060791 -2.289875 -0.442826
-74.157494 -2.2119491 -0.424885
-73.021469 -2.2039189 -0.42505699
-72.289986 -2.264853 -0.418284
-71.62294 -2.3619571 -0.400471
-71.290215 -2.2526951 -0.42402899
-70.824623 -2.329958 -0.414662
-70.65274 -2.329284 -0.43976301
-67.018448 -2.34553 -0.43369299
-66.910019 -2.253449 -0.42630899
-66.309128 -2.2789011 -0.43821099
-66.133377 -2.244004 -0.47909701
-65.893784 -2.317301 -0.5345
-64.427032 -2.313875 -0.549622
-64.274933 -2.2875969 -0.52673101
-64.121925 -2.2921669 -0.497026
-63.865677 -2.3403749 -0.49932599
-63.738029 -2.3056619 -0.46607101
-63.478069 -2.3099051 -0.45117101
-63.303291 -2.2469771 -0.445288
-63.054493 -2.2554929 -0.45412499
-62.927998 -2.2898691 -0.51936102
-62.746967 -2.2894759 -0.50172901
-62.552811 -2.303879 -0.49456799
-62.277893 -2.3096981 -0.47136599
-62.112339 -2.232542 -0.45238501
-61.866539 -2.2580969 -0.452317
-61.776695 -2.244467 -0.42024499
-61.476677 -2.3172059 -0.42514399
-61.252853 -2.3689079 -0.461346
-61.134506 -2.2613699 -0.50951499
-60.936638 -2.311451 -0.49109399
-60.668385 -2.296679 -0.434156
-60.558037 -2.3345621 -0.456278
-60.076752 -2.3914649 -0.437076
-65.677269 -2.3195789 -0.666614
-65.332047 -2.336787 -0.73547399
-64.855286 -2.267139 -0.71046901
-64.670517 -2.355664 -0.70880097
-64.551834 -2.31306 -0.68275201
-64.343567 -2.3501501 -0.64718902
-63.127266 -2.3847179 -0.60378802
-62.479698 -2.3697209 -0.61270398
-64.871475 -2.3002479 -0.87779599
-64.744904 -2.342221 -0.864676
-61.993416 -2.3397851 -0.81255603
-60.737022 -2.360091 -0.948457
-65.426941 -2.2026851 -1.01553
-65.276733 -2.2359481 -1.0344239
-60.866241 -2.319968 -1.058043
-60.64502 -2.3872859 -1.0220881
-62.78775 -2.2054951 -1.3060631
-60.922611 -2.3204899 -1.380901
-60.734005 -2.3036001 -1.572628
-62.853294 -2.292357 -1.762252
-62.642666 -2.2424159 -1.727156
-62.463665 -2.2610619 -1.6885
-62.29707 -2.3336639 -1.749846
-61.895218 -2.242646 -1.706983
-60.768803 -2.2577779 -1.6945
-63.044601 -2.295567 -1.882345
-60.293831 -2.2911 -1.974164
-62.86137 -2.2492959 -2.0784819
-62.722466 -2.296716 -2.09881
-62.517097 -2.3012841 -2.1093979
-60.902046 -2.3142469 -2.16909
-60.486629 -2.296833 -2.1608119
-60.295891 -2.337085 -2.09477
-60.135185 -2.3460441 -2.130198
-62.85358 -2.2429891 -2.255064
-62.108753 -2.2734449 -2.3671589
-60.858574 -2.2762091 -2.2786231
-60.742779 -2.321697 -2.237906
-60.488029 -2.266418 -2.246963
-60.313587 -2.3974071 -2.2159431
-62.118141 -2.293319 -2.506474
-61.918938 -2.3093171 -2.568958
-60.612152 -2.2790201 -2.4597919
-60.279137 -2.210834 -2.5518861
-62.0718 -2.316323 -2.6744549
-61.940964 -2.2294531 -2.6734729
-61.447769 -2.206234 -2.690377
-61.139977 -2.3052051 -2.7252901
-62.324669 -2.3863111 -2.950727
-61.493034 -2.2522581 -2.9917819
-61.320522 -2.2676771 -2.89341
-60.907341 -2.26317 -2.8724179
-60.5784 -2.219712 -2.878129
-62.240631 -2.345984 -3.1196549
-62.199966 -2.2495861 -3.0339839
-61.346207 -2.2679679 -3.1530671
-60.904694 -2.210149 -3.107923
-60.737335 -2.253515 -3.125319
-62.957748 -2.35639 -3.362591
-62.13052 -2.277077 -3.288846
-61.989864 -2.3393259 -3.2405839
-61.28183 -2.311588 -3.252789
-60.590153 -2.378526 -3.3961749
-60.398071 -2.2305751 -3.2602029
-63.017784 -2.3110869 -3.423728
-62.81411 -2.3772421 -3.5751369
-61.811752 -2.2665639 -3.4119511
-61.715473 -2.217284 -3.5347271
-60.363789 -2.3177969 -3.4055791
-79.72065 -2.238858 -3.7787049
-63.062439 -2.3390751 -3.6422319
-62.922279 -2.338949 -3.746145
-62.292416 -2.226094 -3.7424631
-62.128593 -2.330703 -3.718286
-62.175041 -2.2278979 -4.590723
-61.772114 -2.320518 -4.5957661
-62.148258 -2.211396 -4.8552208
-79.800873 -2.243072 -5.692863
-79.816284 -2.226382 -6.6844201
-69.661407 -2.1343751 0.46164
-79.883247 -2.0430541 0.380261
-68.915047 -2.0933559 0.22480001
-69.973557 -2.159786 -0.166816
-68.542969 -2.0822639 -0.183823
-79.41674 -2.1989291 -0.37264299
-78.706688 -2.0933521 -0.38852999
-77.858307 -2.0981419 -0.35965699
-77.674751 -2.1541851 -0.375792
-77.468384 -2.130214 -0.37280801
-77.291191 -2.12782 -0.37145099
-77.08992 -2.1499741 -0.34916699
-76.928795 -2.1067171 -0.338458
-72.542397 -2.125232 -0.39649901
-72.135231 -2.158972 -0.38497701
-71.467171 -2.1581481 -0.36515799
-71.362274 -2.1222081 -0.3802
-71.077934 -2.1147511 -0.30456299
-70.92086 -2.131665 -0.33692199
-70.31189 -2.158937 -0.33035201
-69.985352 -2.056571 -0.244258
-68.687187 -2.096668 -0.29076201
-68.517563 -2.14573 -0.31818399
-67.91098 -2.0665741 -0.27325201
-66.849335 -2.0622089 -0.36479899
-66.304901 -2.0702021 -0.34701499
-64.43483 -2.012974 -0.332885
-64.223221 -2.0925751 -0.38977501
-64.137024 -2.0686409 -0.351089
-63.746208 -2.1039491 -0.36734301
-63.494202 -2.092325 -0.36520499
-63.334126 -2.0893719 -0.35837501
-63.117947 -2.0621459 -0.38096201
-62.959717 -2.042433 -0.36690101
-62.679672 -2.0837779 -0.382027
-62.47728 -2.011111 -0.323098
-62.115524 -2.038223 -0.37309301
-61.627792 -2.088546 -0.36107099
-61.532463 -2.083441 -0.35189
-61.326893 -2.1244171 -0.347316
-61.087135 -2.0879271 -0.36252099
-60.85672 -2.1091461 -0.37927201
-60.682838 -2.0854411 -0.33229399
-60.518982 -2.073576 -0.33919701
-60.310089 -2.0462289 -0.33234099
-60.089401 -2.100173 -0.36205599
-79.734238 -2.1054139 -0.41558999
-79.543663 -2.0479381 -0.42978501
-79.310638 -2.141053 -0.42484999
-78.695259 -2.0996289 -0.41547599
-77.153107 -2.052511 -0.420046
-74.618668 -2.143002 -0.425147
-73.805603 -2.0414979 -0.48402601
-73.794022 -2.1796329 -0.437839
-71.948082 -2.1716831 -0.40925899
-71.420654 -2.1415441 -0.41025501
-71.362396 -2.1251099 -0.401297
-70.0755 -2.1542611 -0.50728601
-69.953033 -2.0421 -0.46670401
-68.576241 -2.151408 -0.41845801
-68.050194 -2.1662519 -0.43595001
-66.836517 -2.128336 -0.43511599
-66.646439 -2.1580729 -0.470063
-66.14444 -2.163559 -0.454992
-65.912834 -2.098048 -0.51522499
-64.82193 -2.081625 -0.59558898
-64.646225 -2.1086271 -0.58435899
-64.479805 -2.087208 -0.55504698
-64.341759 -2.1138861 -0.49884099
-64.058334 -2.1611969 -0.42432499
-63.906765 -2.1352961 -0.42766801
-63.725159 -2.112395 -0.416334
-63.292717 -2.114188 -0.44185701
-63.098343 -2.107722 -0.43762499
-62.700676 -2.1511941 -0.43154001
-62.265358 -2.060885 -0.436647
-62.119713 -2.0689831 -0.44141799
-61.955494 -2.198205 -0.472523
-61.725456 -2.096159 -0.43672001
-61.49371 -2.094203 -0.41606501
-61.133404 -2.1220281 -0.41725299
-64.856277 -2.103611 -0.703511
-64.565384 -2.1641691 -0.67004699
-65.860245 -2.100745 -0.912485
-65.688881 -2.0934961 -0.94974297
-64.895927 -2.0917339 -0.95241702
-65.667343 -2.076472 -1.050215
-65.427299 -2.0955911 -1.145007
-65.295013 -2.092346 -1.117036
-65.084656 -2.117156 -1.070381
-64.952675 -2.0441749 -1.026957
-65.272827 -2.1818669 -1.257251
-62.82299 -2.0887461 -1.3512681
-62.824905 -2.1339419 -1.493843
-62.672974 -2.1314759 -1.495349
-62.537445 -2.114291 -1.482919
-61.895882 -2.054389 -1.5229059
-61.681751 -2.1160929 -1.494154
-61.527893 -2.1497941 -1.5787309
-60.980675 -2.091845 -1.525319
-62.904697 -2.1023459 -1.738669
-62.73666 -2.106878 -1.624413
-61.867737 -2.111475 -1.6642801
-61.659042 -2.191257 -1.60974
-61.477169 -2.1184001 -1.699475
-61.278328 -2.058481 -1.7730319
-60.89061 -2.123137 -1.66776
-60.780128 -2.1617041 -1.707139
-62.456139 -2.184042 -1.85376
-62.345879 -2.1075239 -1.915532
-61.827507 -2.118685 -1.921546
-61.66386 -2.06723 -1.828689
-61.356094 -2.002327 -1.851483
-61.056427 -2.0577979 -1.851728
-62.621948 -2.1190901 -2.5908699
-60.241203 -2.1595521 -2.464499
-60.17202 -2.0666871 -2.5636461
-61.135151 -2.093225 -2.735924
-60.868263 -2.1517849 -2.76244
-60.484566 -2.051734 -2.708185
-60.109924 -2.0175929 -2.773771
-61.4533 -2.1803451 -2.913203
-60.949615 -2.1415579 -2.8384819
-62.544174 -2.182307 -3.019788
-62.111832 -2.0860939 -3.100112
-61.842407 -2.1629381 -3.010072
-61.664566 -2.1219511 -3.0369909
-61.484493 -2.1742461 -3.118674
-61.236015 -2.1296041 -3.02373
-60.514221 -2.0320771 -3.142606
-60.186523 -2.194865 -3.0680051
-61.356014 -2.0618081 -3.2629249
-60.907043 -2.1265731 -3.329787
-60.684387 -2.1536269 -3.2677031
-60.51194 -2.064769 -3.2578671
-61.351814 -2.129951 -3.4459529
-60.274933 -2.0810599 -3.5157981
-61.340027 -2.0876839 -3.650986
-60.699074 -2.1055429 -3.66081
-61.603539 -2.1645689 -4.3231521
-79.783508 -2.1363499 -5.364779
-79.364571 -2.0418911 -5.5028691
-79.302948 -2.060621 -5.7044172
-79.24321 -2.0908849 -5.9491858
-79.187569 -2.0546391 -5.9657521
-79.79953 -2.1932471 -6.1000519
-79.321495 -2.053756 -6.2464838
-79.9151 -2.177289 -7.0789442
-79.320679 -2.1657319 -7.8323512
-69.532738 -1.8938349 0.71136898
-68.839478 -1.906973 0.112326
-68.682343 -1.836156 -0.148001
-68.187988 -1.8417259 -0.19975901
-63.847481 -1.907172 -0.178343
-63.698326 -1.819479 -0.158637
-79.814941 -1.864966 -0.37810099
-78.88475 -1.8053041 -0.39041901
-77.648422 -1.932506 -0.355901
-77.510681 -1.895932 -0.382007
-77.039658 -1.886515 -0.34340799
-72.487503 -1.826123 -0.39127499
-72.175659 -1.8177691 -0.38620299
-71.521591 -1.926073 -0.36422199
-71.079765 -1.905746 -0.31383601
-70.950386 -1.879651 -0.314641
-70.696991 -1.9500459 -0.30823901
-70.508186 -1.911229 -0.33860099
-70.319885 -1.919924 -0.281452
-70.105743 -1.846339 -0.28369901
-68.685211 -1.946022 -0.216179
-68.471405 -1.925766 -0.28642499
-68.164856 -1.891925 -0.26870099
-67.847252 -1.838591 -0.33789799
-67.708817 -1.879709 -0.28206101
-67.074173 -1.837411 -0.31720701
-66.851868 -1.929705 -0.28794801
-66.461563 -1.856128 -0.302953
-66.312691 -1.885234 -0.30713201
-64.540558 -1.854738 -0.32323399
-64.377365 -1.983616 -0.30802101
-64.091339 -1.871609 -0.24260999
-63.888042 -1.887475 -0.278813
-63.496841 -1.967054 -0.30381
-62.706295 -1.841998 -0.31216899
-62.539299 -1.82445 -0.31854001
-62.359764 -1.885774 -0.33796999
-62.073475 -1.848835 -0.36669901
-61.879993 -1.939971 -0.389101
-61.751049 -1.853482 -0.34146899
-61.172203 -1.947569 -0.30916101
-60.929863 -1.916394 -0.28626999
-60.679108 -1.849993 -0.292685
-60.484829 -1.869393 -0.27269599
-60.392654 -1.919741 -0.321556
-60.030693 -1.926567 -0.316531
-79.950897 -1.931116 -0.435065
-79.060654 -1.933226 -0.43136501
-77.170639 -1.9072109 -0.424851
-76.45639 -1.908105 -0.41264799
-76.376114 -1.936161 -0.421756
-75.665115 -1.839157 -0.434302
-75.309265 -1.908692 -0.42865899
-74.1922 -1.803943 -0.42846301
-73.743469 -1.889208 -0.419094
-70.023827 -1.987483 -0.41551
-68.155914 -1.96184 -0.47046199
-67.336319 -1.832641 -0.44058701
-67.18898 -1.954569 -0.418845
-66.701157 -1.966494 -0.438999
-66.278709 -1.862237 -0.41003501
-66.071655 -1.873474 -0.40873301
-64.845825 -1.881478 -0.525428
-64.701073 -1.833171 -0.44393599
-64.521011 -1.949649 -0.422757
-62.940735 -1.9406559 -0.412999
-61.900677 -1.937928 -0.41833699
-65.905205 -1.826628 -0.61267698
-64.813637 -1.888808 -0.74699402
-65.738556 -1.901181 -0.96951199
-65.497559 -1.881575 -0.95945698
-65.276947 -1.861403 -0.95452797
-65.069611 -1.845193 -0.94741899
-64.853859 -1.897705 -0.880777
-65.506721 -1.897617 -1.055667
-65.299271 -1.885811 -1.085987
-65.107574 -1.854513 -1.061571
-64.922348 -1.800604 -1.014794
-60.208733 -1.8977391 -1.0473191
-60.132248 -1.85202 -1.120048
-65.683815 -1.836651 -1.222679
-65.350357 -1.873274 -1.2098579
-65.149628 -1.894316 -1.260713
-60.060936 -1.857303 -1.329537
-62.831596 -1.967854 -1.501703
-61.516262 -1.978898 -1.595005
-61.017639 -1.90939 -1.578284
-60.909981 -1.968594 -1.516945
-62.857315 -1.977807 -1.6364371
-61.365448 -1.858289 -1.755298
-61.078884 -1.900818 -1.749665
-60.963295 -1.955853 -1.6236809
-62.877686 -1.993912 -1.89575
-62.289948 -1.9131 -1.977294
-61.848698 -1.881503 -1.8633471
-61.399223 -1.888049 -1.8296781
-61.0415 -1.850917 -1.856647
-62.369282 -1.9077719 -2.0571029
-60.747364 -1.801345 -2.595284
-60.107033 -1.93569 -2.5649371
-62.544277 -1.866137 -2.7302771
-62.130695 -1.945896 -2.781466
-60.649887 -1.868711 -2.694808
-60.498825 -1.95526 -2.746037
-60.299812 -1.948361 -2.7773359
-60.123989 -1.938104 -2.7033589
-62.509384 -1.880967 -2.9275489
-62.322163 -1.918865 -2.901859
-60.628242 -1.896158 -2.827481
-60.521267 -1.882827 -2.9369509
-60.279495 -1.922588 -2.8932109
-60.099953 -1.932333 -2.810945
-62.942036 -1.8269989 -3.1012909
-62.656166 -1.865387 -3.1041429
-62.482441 -1.8625391 -3.0853829
-62.187206 -1.846616 -3.10571
-61.732132 -1.88867 -3.0706811
-60.460815 -1.921855 -3.097496
-60.038582 -1.9345371 -3.055439
-62.575195 -1.802426 -3.2333879
-62.101067 -1.833572 -3.3636711
-61.683975 -1.890126 -3.298625
-61.526848 -1.812386 -3.306637
-62.960281 -1.902247 -3.49279
-63.249886 -1.8923301 -3.773145
-62.986519 -1.871032 -3.7253239
-63.057659 -1.96254 -4.1184821
-79.296356 -1.815441 -5.440649
-79.053192 -1.858634 -5.4880242
-79.067047 -1.8752069 -5.7434878
-79.291473 -1.839124 -5.871119
-78.944916 -1.848685 -5.8668289
-79.087769 -1.911641 -6.064239
-79.283272 -1.884788 -6.2583828
-79.722328 -1.877816 -6.587256
-79.569321 -1.959358 -6.8312478
-79.909904 -1.993919 -7.3098178
-79.450218 -1.82962 -7.355372
-79.424004 -1.885823 -7.7477012
-69.614227 -1.7501971 0.44651899
-69.734894 -1.799549 0.163323
-69.85067 -1.7276469 -0.152575
-68.341934 -1.6766 -0.193332
-64.614189 -1.656332 -0.14910901
-64.329941 -1.64039 -0.073914997
-64.125 -1.702258 -0.100918
-63.922688 -1.6850851 -0.094222002
-63.718754 -1.746451 -0.13797399
-63.510406 -1.701391 -0.16604701
-63.350586 -1.6578881 -0.189531
-61.47966 -1.664636 -0.17740899
-61.038261 -1.638068 -0.18907
-60.976345 -1.602437 -0.107695
-60.51926 -1.61508 -0.179905
-77.922607 -1.739646 -0.36765999
-77.463707 -1.723444 -0.37559301
-77.0886 -1.635546 -0.384249
-72.310966 -1.707804 -0.39508101
-71.699287 -1.7841901 -0.372118
-71.236 -1.602659 -0.38138199
-70.72258 -1.674659 -0.30773601
-70.466248 -1.7036951 -0.316376
-70.351883 -1.707152 -0.316163
-70.064117 -1.682394 -0.28917101
-68.668304 -1.743271 -0.234906
-68.246155 -1.732249 -0.31983101
-68.073776 -1.713545 -0.291978
-67.863029 -1.724517 -0.252763
-67.750031 -1.6711 -0.28356501
-67.448624 -1.726557 -0.32520601
-67.12381 -1.695514 -0.30886
-66.91954 -1.7463191 -0.297562
-66.657974 -1.696298 -0.313223
-66.529144 -1.670735 -0.29538199
-66.305466 -1.719931 -0.29098499
-66.111206 -1.690783 -0.304618
-64.814774 -1.717193 -0.349994
-64.692055 -1.731272 -0.34869799
-63.984676 -1.731287 -0.217354
-63.769604 -1.796435 -0.204319
-63.316628 -1.721434 -0.25482899
-63.057888 -1.708397 -0.28835899
-62.847687 -1.628824 -0.28777
-62.684685 -1.711702 -0.30235499
-62.538437 -1.721693 -0.32988599
-62.298187 -1.714849 -0.353223
-62.148792 -1.7229379 -0.36471501
-61.878952 -1.64229 -0.292633
-61.647907 -1.738407 -0.30971199
-61.484055 -1.766596 -0.26999801
-61.352646 -1.707016 -0.240769
-61.12875 -1.693579 -0.230242
-60.910328 -1.718066 -0.25312799
-60.660156 -1.731366 -0.250415
-60.329781 -1.671702 -0.201343
-60.058571 -1.763448 -0.22548699
-79.494171 -1.646506 -0.44653699
-79.182312 -1.737815 -0.43928099
-78.305588 -1.654263 -0.41133001
-75.918205 -1.774492 -0.41753101
-73.425201 -1.720755 -0.427737
-72.882492 -1.67408 -0.41799399
-72.298859 -1.7793241 -0.40496099
-71.551147 -1.797557 -0.40743101
-71.196388 -1.748911 -0.40013099
-70.446175 -1.63185 -0.40760401
-68.050362 -1.690717 -0.40333101
-67.678764 -1.754233 -0.43309799
-67.2593 -1.762892 -0.42077899
-64.819206 -1.792224 -0.45195001
-64.774551 -1.7186919 -0.449341
-62.58757 -1.6653759 -0.43031701
-62.206711 -1.7332979 -0.43604201
-64.829376 -1.721632 -0.71434498
-65.670364 -1.642949 -0.94584298
-65.501808 -1.732702 -0.95584899
-65.28437 -1.691653 -0.93408102
-65.097641 -1.659479 -0.97089899
-64.903992 -1.7215019 -0.89487398
-65.654076 -1.746287 -1.081315
-65.452606 -1.749931 -1.056752
-65.287079 -1.775842 -1.111462
-64.926735 -1.798663 -1.050947
-60.418114 -1.782676 -1.0146151
-60.350716 -1.771945 -1.034768
-60.040989 -1.748172 -1.167004
-60.089363 -1.706169 -1.2924629
-61.439175 -1.762915 -1.673753
-61.766624 -1.780722 -1.965513
-61.235023 -1.750795 -1.893104
-61.173706 -1.621098 -1.9571871
-60.952118 -1.6289949 -1.844629
-62.133743 -1.686007 -2.063591
-61.333122 -1.70186 -2.080034
-61.859856 -1.723008 -2.3005991
-61.767578 -1.673457 -2.3671551
-61.090462 -1.7262551 -2.2482569
-60.946724 -1.750343 -2.3346119
-62.25354 -1.634939 -2.485688
-62.125999 -1.64925 -2.5417831
-61.219086 -1.662349 -2.5922229
-60.955925 -1.7208689 -2.4465389
-62.169441 -1.616527 -2.6304469
-61.72298 -1.659802 -2.704246
-61.267967 -1.793636 -2.646399
-61.066841 -1.677022 -2.6669569
-60.977703 -1.694459 -2.6133289
-62.483067 -1.683715 -2.9779999
-61.66259 -1.611745 -2.8063371
-60.446682 -1.68103 -2.856806
-60.356651 -1.754343 -2.8837521
-62.821003 -1.743672 -3.099798
-62.668488 -1.766237 -3.074039
-62.497124 -1.74692 -3.0427229
-60.46175 -1.693157 -3.0800209
-63.057774 -1.662724 -3.344825
-62.916458 -1.690696 -3.3502159
-62.668705 -1.697304 -3.328521
-62.484608 -1.706009 -3.328661
-62.067886 -1.684469 -3.293072
-61.952084 -1.715777 -3.2728529
-63.055084 -1.755134 -3.432102
-62.623199 -1.674601 -3.5212231
-62.308975 -1.737594 -3.4227209
-62.08791 -1.6661609 -3.4767351
-62.653839 -1.668282 -3.7437871
-62.315529 -1.737824 -3.6866369
-79.212616 -1.769408 -5.6243548
-79.123192 -1.7186691 -5.6247969
-79.108917 -1.740656 -5.906024
-79.107269 -1.7053519 -6.0545549
-79.12001 -1.7689019 -6.2306962
-79.109436 -1.6759109 -6.518209
-79.450897 -1.783765 -6.621819
-79.767776 -1.785593 -7.0367579
-79.721672 -1.606727 -7.634079
-69.525223 -1.473294 0.44469801
-68.83107 -1.5510859 0.37409699
-69.673843 -1.540907 0.136329
-68.620613 -1.450253 0.081596002
-68.575981 -1.463243 0.049290001
-63.948349 -1.4492691 0.058304999
-68.469894 -1.455076 -0.178785
-67.709221 -1.45882 -0.19658899
-67.040947 -1.451673 -0.19589999
-66.411835 -1.413904 -0.191579
-66.328255 -1.4440449 -0.187647
-64.848373 -1.48658 -0.16321
-64.66011 -1.485939 -0.096974
-64.21405 -1.55574 -0.064708002
-64.152649 -1.5518529 -0.040668
-63.850922 -1.454915 -0.020814
-63.616104 -1.498803 -0.071607001
-63.521851 -1.457903 -0.140081
-63.32914 -1.449497 -0.18712901
-62.28426 -1.4156801 -0.19170301
-61.480423 -1.478632 -0.15214001
-61.263275 -1.51596 -0.174254
-61.087215 -1.470112 -0.129605
-60.86517 -1.499024 -0.134249
-60.682434 -1.5354559 -0.127149
-60.553112 -1.542189 -0.176985
-60.248756 -1.45832 -0.044583
-60.140015 -1.479815 -0.103712
-79.936584 -1.534663 -0.36129999
-79.747162 -1.451637 -0.389449
-78.865372 -1.579582 -0.39739799
-78.481415 -1.518957 -0.39403999
-78.269745 -1.5140361 -0.38672501
-78.096504 -1.460019 -0.38566601
-77.729218 -1.453287 -0.36573601
-77.508003 -1.513911 -0.355396
-77.077568 -1.544124 -0.36471999
-71.032898 -1.5291229 -0.343548
-70.678329 -1.438482 -0.31184199
-70.536926 -1.537204 -0.32934001
-70.251564 -1.457862 -0.36325499
-69.826691 -1.502066 -0.29356399
-69.780853 -1.471977 -0.25807199
-68.492622 -1.532541 -0.209868
-68.231888 -1.494893 -0.27770701
-68.099953 -1.489011 -0.27458501
-67.929031 -1.535548 -0.299135
-67.705116 -1.512551 -0.28229001
-67.472435 -1.445457 -0.25861099
-67.289398 -1.524078 -0.25848699
-67.116646 -1.502234 -0.29516301
-66.530983 -1.481375 -0.296565
-65.854248 -1.529862 -0.28420901
-64.819023 -1.571985 -0.21369299
-63.494362 -1.5207371 -0.21147101
-63.309052 -1.5264471 -0.25327501
-63.069946 -1.475818 -0.22992299
-62.867943 -1.530964 -0.26241601
-62.734299 -1.540851 -0.32062301
-62.535316 -1.45223 -0.25522399
-62.379669 -1.5255589 -0.277888
-62.167332 -1.431433 -0.220874
-61.92704 -1.518676 -0.251899
-61.666183 -1.489452 -0.22592001
-61.39286 -1.554882 -0.227561
-60.482754 -1.588501 -0.20051301
-79.392715 -1.467597 -0.43229699
-79.090096 -1.4968719 -0.46425101
-78.918365 -1.420476 -0.42067599
-78.775726 -1.487555 -0.431027
-78.095825 -1.482983 -0.426357
-77.807632 -1.425287 -0.40752199
-77.544449 -1.469334 -0.42912099
-77.131836 -1.5005651 -0.42063001
-76.543579 -1.401354 -0.40641001
-76.279282 -1.484153 -0.41638899
-72.552193 -1.4101 -0.40853101
-70.349205 -1.4394031 -0.42783701
-70.175346 -1.409966 -0.48266399
-69.736465 -1.496359 -0.43462399
-67.737526 -1.4350179 -0.434746
-66.549652 -1.518724 -0.42485899
-64.777573 -1.534375 -0.401739
-65.830986 -1.598772 -0.97224402
-65.716904 -1.4697 -0.954126
-65.557877 -1.4968981 -0.92669702
-65.334793 -1.493724 -0.96933699
-64.869835 -1.524579 -0.90999597
-64.988884 -1.562345 -1.122878
-60.207489 -1.585085 -1.314454
-60.149757 -1.5397201 -1.3451
-60.11692 -1.507493 -1.480845
-60.235256 -1.527477 -1.659009
-60.06382 -1.489516 -1.651937
-72.34272 -1.530372 -1.965225
-61.313843 -1.447965 -1.971511
-61.141823 -1.49128 -1.951069
-60.941376 -1.504805 -1.857347
-60.787117 -1.489291 -1.954531
-62.041393 -1.52791 -2.1176269
-61.852074 -1.490443 -2.1133201
-61.428238 -1.442044 -2.1231771
-61.281139 -1.489095 -2.090817
-61.865829 -1.512417 -2.239841
-60.890434 -1.419191 -2.307765
-62.113457 -1.501536 -2.569283
-60.996704 -1.4004509 -2.524492
-62.202015 -1.53881 -2.6619511
-62.132023 -1.47008 -2.666636
-61.859188 -1.481182 -2.6785221
-61.743011 -1.520434 -2.6754379
-61.820747 -1.433982 -2.9371381
-61.732155 -1.5402499 -2.875294
-60.46262 -1.597066 -2.868525
-62.741524 -1.533996 -3.1754601
-61.847977 -1.4190561 -3.0150599
-61.694225 -1.503202 -3.099401
-63.064945 -1.586174 -3.300344
-62.59272 -1.566504 -3.3282421
-61.860558 -1.533397 -3.329963
-61.674164 -1.5255049 -3.3079619
-61.546337 -1.458375 -3.3761549
-62.638474 -1.51469 -3.4904499
-62.57988 -1.554085 -3.4913099
-62.070351 -1.473176 -3.492496
-62.643219 -1.557461 -3.665365
-79.69812 -1.4941061 -5.172915
-79.703514 -1.4567339 -5.434175
-79.353294 -1.415563 -5.482965
-79.396957 -1.416435 -6.1100359
-79.057152 -1.473111 -6.1250229
-78.865509 -1.517635 -6.2595878
-79.250572 -1.507583 -6.477231
-79.184052 -1.496611 -6.4987931
-78.954865 -1.570091 -6.5591941
-79.271927 -1.410567 -6.6071811
-79.807678 -1.4446501 -7.0352082
-79.719864 -1.50274 -7.3726039
-79.651672 -1.5840321 -7.7970729
-61.166901 -1.234929 0.27804399
-60.541988 -1.277091 0.28668201
-60.022541 -1.2203881 0.39575899
-69.564682 -1.2976871 0.082255997
-68.492996 -1.29282 0.116515
-64.534485 -1.32919 0.031842999
-64.311523 -1.285995 0.060640998
-64.093109 -1.3069251 0.093419001
-63.877842 -1.31125 0.069075003
-63.742424 -1.300686 0.0035349999
-62.902653 -1.201212 0.001938
-62.476669 -1.201919 0.034451
-62.103413 -1.242929 0.072612002
-61.852917 -1.233772 0.055008002
-61.698662 -1.251765 0.088812999
-61.513508 -1.287607 0.082149997
-61.040821 -1.3208081 0.113514
-60.785599 -1.326697 0.022686999
-60.484283 -1.314752 0.130748
-60.160465 -1.335358 0.13961101
-69.620285 -1.346182 -0.093836002
-68.456604 -1.380794 -0.097392
-68.067337 -1.279667 -0.18381
-67.703796 -1.292182 -0.18029
-67.322067 -1.3069969 -0.189422
-67.090698 -1.35163 -0.192506
-66.973801 -1.3119119 -0.193792
-66.654419 -1.335265 -0.19140799
-66.474716 -1.272404 -0.185221
-65.896118 -1.297369 -0.15970001
-64.822357 -1.272802 -0.087838002
-64.698372 -1.3128 -0.086379997
-63.708794 -1.360513 -0.043173
-63.36702 -1.324789 -0.131091
-63.087376 -1.3104891 -0.161982
-62.917244 -1.292291 -0.18466599
-62.690647 -1.343688 -0.180997
-62.511185 -1.231981 -0.15809099
-62.241116 -1.342361 -0.14637899
-62.14238 -1.32652 -0.168773
-61.702515 -1.340894 -0.105184
-77.874588 -1.2587889 -0.368669
-77.662247 -1.250101 -0.38032001
-77.433006 -1.291839 -0.375108
-76.64817 -1.297037 -0.39550501
-76.001938 -1.325372 -0.396963
-75.402931 -1.355768 -0.39585501
-75.076736 -1.220204 -0.39534599
-74.153687 -1.391093 -0.39461499
-73.245148 -1.281652 -0.394878
-72.549301 -1.388793 -0.38931501
-71.898323 -1.396577 -0.378802
-71.340271 -1.3499269 -0.38165101
-71.052345 -1.333408 -0.348479
-70.947372 -1.2750551 -0.36418301
-70.724365 -1.297585 -0.27320099
-69.830093 -1.299696 -0.320261
-68.240196 -1.264189 -0.240338
-68.135536 -1.320603 -0.266471
-67.929131 -1.301743 -0.275424
-67.508461 -1.28097 -0.24516401
-67.288918 -1.339559 -0.29668301
-67.128075 -1.299679 -0.234161
-66.758842 -1.304531 -0.25813901
-66.484909 -1.2690901 -0.223575
-66.29229 -1.340382 -0.34002399
-66.139313 -1.254652 -0.25237301
-65.917511 -1.371099 -0.31996799
-65.749725 -1.263772 -0.33160001
-65.565437 -1.202672 -0.39021701
-65.137299 -1.233919 -0.36945599
-64.862404 -1.294314 -0.28033501
-64.783859 -1.268562 -0.31552899
-63.250843 -1.290527 -0.208442
-63.125446 -1.388483 -0.21764199
-62.755779 -1.3451459 -0.211962
-62.560432 -1.351602 -0.214285
-62.346062 -1.34604 -0.22615799
-79.330803 -1.333289 -0.41682601
-78.301086 -1.330802 -0.410855
-78.134911 -1.311388 -0.405112
-77.641701 -1.357478 -0.40866199
-77.229568 -1.396238 -0.413057
-74.565094 -1.3398221 -0.42217499
-73.733414 -1.347168 -0.425942
-73.27301 -1.3562061 -0.41931501
-73.023102 -1.399447 -0.42348701
-72.110695 -1.250488 -0.40661499
-71.78392 -1.388512 -0.402731
-70.241974 -1.228582 -0.465132
-70.1147 -1.295028 -0.417463
-69.930725 -1.23623 -0.52790201
-69.584496 -1.241477 -0.42234701
-67.479538 -1.38386 -0.42343
-65.732903 -1.23245 -0.51309299
-65.475479 -1.220166 -0.415337
-65.068932 -1.2307709 -0.40081599
-64.809265 -1.279958 -0.46570799
-64.788269 -1.276437 -0.44279301
-65.8097 -1.226806 -0.717547
-65.764885 -1.203662 -0.65028101
-65.450165 -1.210632 -0.62277299
-64.905846 -1.2749701 -0.65080899
-64.790466 -1.261453 -0.70812398
-65.68824 -1.322747 -0.92732298
-65.520859 -1.2521909 -0.96191299
-65.308426 -1.3079849 -0.92580301
-65.128967 -1.309847 -0.958682
-64.907425 -1.323472 -0.907893
-64.790176 -1.265377 -0.81567198
-60.019081 -1.383353 -1.568211
-60.029129 -1.380271 -1.615591
-62.004745 -1.371613 -1.983277
-61.893429 -1.28984 -1.9761699
-61.776573 -1.3698471 -1.979687
-61.354351 -1.339811 -1.987483
-61.072029 -1.277445 -1.967319
-60.960457 -1.2945549 -1.9053169
-60.777901 -1.308481 -1.9762599
-62.240143 -1.29926 -2.161001
-62.164001 -1.254521 -2.1613309
-61.875259 -1.301365 -2.130445
-61.75235 -1.352599 -2.056082
-61.343414 -1.3724051 -2.0993199
-60.930126 -1.33679 -2.111985
-60.75573 -1.339167 -2.05599
-61.874218 -1.247911 -2.310987
-61.759987 -1.3045731 -2.3149199
-61.017963 -1.222461 -2.257133
-60.878235 -1.241783 -2.2717791
-60.844818 -1.366259 -2.46153
-62.046173 -1.2594219 -2.7376599
-61.899086 -1.319046 -2.7390561
-60.989861 -1.226482 -2.64358
-62.067947 -1.26982 -2.921128
-61.918907 -1.310668 -2.947727
-61.696007 -1.2646151 -2.8708241
-61.970207 -1.243075 -3.152015
-61.859299 -1.329581 -3.290633
-61.944942 -1.221578 -3.4177229
-62.093147 -1.3849781 -3.675472
-79.723839 -1.35065 -5.0762558
-79.817123 -1.309087 -5.2686
-79.189316 -1.213837 -5.4481502
-79.346603 -1.26601 -5.7269411
-78.917953 -1.352278 -5.7157178
-79.662468 -1.315203 -5.9320941
-79.348633 -1.23175 -5.967526
-78.919777 -1.364671 -5.9077392
-78.901169 -1.304496 -6.1119189
-78.975067 -1.389841 -6.4798899
-60.728649 -1.13644 0.47289601
-68.452515 -1.130221 0.28164601
-64.204399 -1.0973949 0.211042
-63.27388 -1.064445 0.21581499
-62.196342 -1.153325 0.24169201
-61.863808 -1.176132 0.22544
-61.724731 -1.186627 0.26239201
-61.497978 -1.169571 0.282446
-60.466431 -1.199723 0.341286
-68.258301 -1.094568 0.055824
-68.143211 -1.047604 0.070052996
-64.528648 -1.027905 0.093355
-64.227737 -1.178576 0.116071
-63.631584 -1.092412 0.084237002
-62.999592 -1.139002 0.091995001
-62.510796 -1.1697 0.123304
-62.083084 -1.170961 0.17742001
-68.24453 -1.142406 -0.052060999
-68.083191 -1.1238149 -0.14690199
-67.87513 -1.128499 -0.17272501
-67.271515 -1.053517 -0.17807201
-66.725113 -1.073112 -0.158858
-65.898491 -1.032872 -0.154247
-63.635391 -1.1737829 -0.023652
-63.504539 -1.169468 -0.11768
-63.328087 -1.160736 -0.12149
-63.139706 -1.17044 -0.159858
-62.910995 -1.159568 -0.064731002
-62.734745 -1.183762 -0.014223
-78.557007 -1.085163 -0.372069
-78.085686 -1.158733 -0.36363301
-77.889641 -1.0349129 -0.371907
-77.545464 -1.039407 -0.354491
-77.28817 -1.161299 -0.35470399
-76.201126 -1.0742739 -0.39411199
-72.124382 -1.006107 -0.381843
-71.665863 -1.007858 -0.382182
-71.004776 -1.135038 -0.384509
-70.741547 -1.107973 -0.33028099
-70.262047 -1.070076 -0.36336201
-70.105942 -1.1603791 -0.358154
-69.892929 -1.083614 -0.33254701
-69.732681 -1.13776 -0.28881001
-69.531517 -1.043171 -0.291958
-67.853729 -1.166749 -0.20895299
-67.698975 -1.167769 -0.232271
-67.432999 -1.09701 -0.238819
-67.309494 -1.0969549 -0.25247499
-66.88842 -1.112329 -0.25946799
-66.555717 -1.1829979 -0.213313
-65.823509 -1.1366661 -0.30938399
-65.723083 -1.151193 -0.317417
-65.279106 -1.032306 -0.36292201
-65.064316 -1.089344 -0.331844
-64.876137 -1.1063 -0.33114201
-79.852943 -1.0610681 -0.42979899
-79.621666 -1.0304821 -0.43561
-79.114258 -1.015489 -0.41209999
-78.253906 -1.141402 -0.41123199
-77.951096 -1.030967 -0.4075
-77.462563 -1.057848 -0.42249
-76.891571 -1.152071 -0.42381701
-75.083542 -1.057447 -0.42290699
-73.774353 -1.003114 -0.42077899
-72.722977 -1.060648 -0.41339901
-70.231522 -1.147602 -0.43585399
-70.042397 -1.170736 -0.42560601
-69.859772 -1.148895 -0.44039199
-65.690125 -1.183046 -0.548356
-65.460411 -1.122402 -0.476019
-65.378448 -1.101258 -0.40996701
-64.821976 -1.157055 -0.54076099
-65.748337 -1.173988 -0.69090003
-65.802216 -1.187007 -0.847498
-65.682892 -1.175439 -0.86267197
-65.470215 -1.148962 -0.84192097
-65.315918 -1.119051 -0.82014602
-65.099129 -1.173846 -0.86885297
-64.919632 -1.168988 -0.89100403
-60.989178 -1.192652 -1.988418
-62.315674 -1.12585 -2.1459069
-62.092342 -1.177153 -2.1530011
-61.868687 -1.0388761 -2.1522501
-62.26268 -1.106595 -2.2902169
-62.178623 -1.1597331 -2.2793159
-61.854446 -1.07534 -2.270005
-61.75724 -1.08463 -2.2786629
-61.558369 -1.051242 -2.3513851
-61.023022 -1.153291 -2.2982681
-60.893608 -1.1364681 -2.29708
-62.29784 -1.100338 -2.4555271
-61.713089 -1.020027 -2.502913
-61.585876 -1.0690171 -2.4231181
-60.945274 -1.173973 -2.5243521
-61.849785 -1.054601 -2.660717
-61.720535 -1.070357 -2.681746
-62.15707 -1.118405 -2.9441171
-61.87748 -1.178064 -2.9220719
-61.704079 -1.058143 -2.8954101
-61.555302 -1.0641299 -2.9116421
-77.432632 -1.03186 -3.166991
-62.140289 -1.162008 -3.083112
-61.660877 -1.025996 -3.0258169
-61.575207 -1.03028 -3.020329
-62.112797 -1.1134731 -3.253778
-77.417336 -1.0338449 -3.775351
-79.427933 -1.122414 -5.5477862
-79.190643 -1.164587 -5.4670858
-79.736694 -1.048951 -5.7260571
-79.411682 -1.080007 -5.6276641
-79.346779 -1.122111 -5.634078
-79.12162 -1.137578 -5.9895029
-79.790855 -1.084689 -6.1418772
-79.060951 -1.064625 -6.0894871
-79.034286 -1.166037 -6.3722668
-78.999191 -1.015335 -6.4177408
-79.51091 -1.05288 -6.6602859
-79.643494 -1.087841 -6.9093299
-64.754715 -0.88651299 1.108346
-68.306931 -0.954889 0.49741599
-68.196602 -0.95513201 0.26958501
-67.970337 -0.925309 0.27367699
-69.459061 -0.98814499 0.082226999
-68.041763 -0.92004001 0.19657999
-67.685135 -0.9418 0.033704001
-67.385025 -0.89545202 0.111199
-67.046814 -0.86889601 0.042119998
-66.673538 -0.85725802 0.085294001
-66.094368 -0.81473798 0.034736998
-64.921555 -0.89749902 0.051980998
-69.517906 -0.92483997 -0.15196501
-67.789673 -0.96878099 -0.161743
-67.327271 -0.93913698 -0.10772
-67.116028 -0.93199599 -0.056407999
-64.400307 -0.800583 -0.15580601
-79.845497 -0.92170501 -0.387952
-79.418564 -0.93630201 -0.398193
-78.955559 -0.99253798 -0.39665699
-78.710434 -0.90938902 -0.398415
-78.445847 -0.91357398 -0.37516701
-78.342148 -0.86926597 -0.37974599
-78.132217 -0.93017 -0.36815199
-77.858292 -0.92041802 -0.362252
-77.66629 -0.86620301 -0.33295399
-77.093712 -0.93280602 -0.384969
-76.711258 -0.88249302 -0.39873201
-75.756287 -0.88129199 -0.38721699
-72.900536 -0.98465598 -0.39365801
-72.682121 -0.93903601 -0.39200699
-70.899536 -0.98019898 -0.352229
-70.718002 -0.88654101 -0.32314199
-70.332504 -0.92479098 -0.287323
-70.141037 -0.904212 -0.33635601
-69.944641 -0.901452 -0.370814
-69.50396 -0.82792997 -0.323614
-67.277405 -0.98163003 -0.216766
-66.232124 -0.99033499 -0.25705501
-66.082878 -0.87676102 -0.32978299
-65.976028 -0.88854599 -0.38751701
-65.697945 -0.84721899 -0.299187
-65.485603 -0.917032 -0.33024999
-65.204559 -0.97717202 -0.31841901
-64.923782 -0.94540799 -0.299696
-64.498466 -0.910317 -0.297849
-79.537621 -0.97999197 -0.42010501
-79.26033 -0.947317 -0.41682401
-79.108025 -0.94479001 -0.41529599
-78.93808 -0.86866099 -0.42744699
-78.477013 -0.87834501 -0.40739301
-77.777344 -0.93247902 -0.409904
-77.335785 -0.96382499 -0.41411799
-76.112709 -0.99565202 -0.41477501
-74.998688 -0.95276302 -0.42189601
-73.309944 -0.97765303 -0.42134199
-72.974045 -0.878829 -0.42094699
-72.258209 -0.91770798 -0.40629101
-71.427582 -0.98800302 -0.40661401
-69.856918 -0.87 -0.43137601
-69.659866 -0.89013302 -0.446439
-66.033058 -0.829301 -0.40959901
-65.572128 -0.96014601 -0.413219
-64.61911 -0.90975201 -0.43145299
-64.547104 -0.91324103 -0.40975201
-73.090378 -0.96682 -1.351143
-61.855202 -0.99724299 -2.1405151
-61.705936 -0.934331 -2.33639
-61.591282 -0.98648298 -2.394685
-61.860023 -0.92933702 -2.440141
-61.676861 -0.94930798 -2.468353
-61.585964 -0.93883902 -2.5787909
-61.717445 -0.96840602 -2.6756251
-61.555916 -0.85060602 -2.6855409
-61.874054 -0.88471597 -2.8308849
-61.705593 -0.90985203 -2.891041
-62.25951 -0.94914401 -3.0619299
-61.691269 -0.95719397 -3.0451
-77.183479 -0.92859101 -3.4952359
-77.285553 -0.98334599 -4.240427
-79.752037 -0.94908899 -5.365171
-79.699249 -0.931602 -5.5262661
-79.471985 -0.97454798 -5.5090451
-79.265671 -0.89382601 -5.7787299
-79.115356 -0.95251602 -5.8702788
-79.393944 -0.99744898 -6.1573682
-79.665787 -0.92941499 -6.564074
-79.578331 -0.81538099 -6.4775991
-79.596283 -0.89997602 -6.814589
-64.759171 -0.62062901 1.136454
-68.066422 -0.77155501 0.77267498
-67.186638 -0.78188902 0.46166301
-67.457123 -0.77715498 0.246516
-66.774574 -0.77175301 0.225408
-66.570557 -0.74940199 0.247197
-69.308029 -0.71357203 0.087076999
-66.231209 -0.73454398 0.072559997
-64.763313 -0.778364 0.032953002
-69.446411 -0.64547902 -0.19559699
-69.335609 -0.62830502 -0.097694002
-64.375648 -0.73918599 -0.197023
-79.903595 -0.67671603 -0.376553
-79.357208 -0.63378 -0.39357299
-78.700836 -0.75879198 -0.37597701
-78.507538 -0.67149597 -0.37504101
-78.284821 -0.64868301 -0.34848401
-78.145515 -0.672611 -0.35562301
-77.925011 -0.68637699 -0.357674
-77.726151 -0.71048999 -0.33874199
-76.999245 -0.61888999 -0.38670301
-75.593254 -0.69261903 -0.39594901
-74.502167 -0.74074203 -0.397199
-71.409744 -0.64688802 -0.36399201
-69.826813 -0.70986497 -0.37505099
-69.612228 -0.72119403 -0.331954
-69.490891 -0.710917 -0.293318
-69.320557 -0.69525599 -0.22336701
-66.128494 -0.65442598 -0.37734199
-65.848572 -0.65118998 -0.32503399
