# .PCD v0.7 - Point Cloud Data file format
VERSION 0.7
FIELDS x y z
SIZE 4 4 4
TYPE F F F
COUNT 1 1 1
WIDTH 1466
HEIGHT 1
VIEWPOINT 0 0 0 1 0 0 0
POINTS 1466
DATA ascii
-81.699646 -243.66608 -15.67307
-82.562035 -243.7964 -16.994978
-82.212189 -243.70239 -16.942356
-88.338638 -243.7308 -17.010132
-86.225906 -243.53757 -7.1550298
-86.172935 -243.55347 -7.183064
-85.785126 -243.51289 -7.1632142
-85.502533 -243.58023 -7.1659999
-81.729477 -243.48013 -7.1136799
-86.882141 -243.58984 -7.3818598
-85.128853 -243.40695 -7.2212968
-82.566803 -243.45496 -7.2021132
-96.147141 -243.45082 -7.5270891
-95.375282 -243.43941 -7.5671868
-93.274902 -243.53046 -7.5242252
-92.480148 -243.46198 -7.5457129
-92.276962 -243.48285 -7.5465531
-91.309265 -243.55499 -7.4826322
-89.693428 -243.52536 -7.473516
-88.710999 -243.54529 -7.4236269
-87.304161 -243.4297 -7.7699561
-87.434479 -243.44824 -8.1391106
-87.333893 -243.44287 -8.2920742
-87.638611 -243.45172 -8.5428066
-87.615227 -243.43643 -8.9663696
-89.148254 -243.56076 -9.331171
-86.469666 -243.48642 -9.8598785
-82.532944 -243.49828 -10.173592
-81.684196 -243.50528 -10.183573
-87.282288 -243.57347 -10.200965
-81.903023 -243.48294 -10.33813
-81.703873 -243.50955 -10.283304
-89.248535 -243.43512 -10.442543
-81.80899 -243.54877 -10.562088
-81.752777 -243.50885 -10.472528
-88.061188 -243.45662 -10.723936
-88.542892 -243.50833 -10.903424
-81.937172 -243.51663 -11.052368
-88.812515 -243.42491 -11.268923
-82.110909 -243.43617 -11.353874
-89.888458 -243.54399 -11.425112
-86.776009 -243.5433 -11.491503
-88.665779 -243.41058 -11.732065
-81.731163 -243.42006 -11.658858
-80.189789 -243.55278 -11.985713
-88.613686 -243.42525 -12.076989
-88.527771 -243.45828 -12.129663
-87.723167 -243.52881 -12.045365
-89.331657 -243.53818 -12.261389
-87.437042 -243.49025 -12.241583
-83.409355 -243.507 -12.290398
-88.930382 -243.44675 -12.547142
-87.813629 -243.47488 -12.473468
-86.454742 -243.56635 -12.585783
-86.354309 -243.52844 -12.56718
-81.046585 -243.55305 -12.450164
-86.377861 -243.56406 -12.610255
-83.239929 -243.50522 -12.782806
-83.049347 -243.4046 -12.641775
-86.794785 -243.50427 -13.169453
-84.156624 -243.49295 -13.13117
-88.231361 -243.48163 -13.296942
-87.519592 -243.49551 -13.315448
-87.086014 -243.54877 -13.228487
-86.65374 -243.47568 -13.279769
-84.152786 -243.53632 -13.226292
-81.146416 -243.41856 -13.786228
-87.273651 -243.48029 -13.989483
-82.867676 -243.51016 -13.803354
-88.78643 -243.59906 -14.141437
-80.736252 -243.52052 -14.922613
-89.35463 -243.43329 -15.072844
-88.783875 -243.53255 -15.628165
-83.15155 -243.55351 -15.708748
-83.277939 -243.53467 -15.867895
-97.686211 -243.40015 -16.315506
-83.246582 -243.43829 -17.206955
-82.270432 -243.48015 -17.634094
-82.024696 -243.3327 -7.1971889
-81.722473 -243.35757 -7.1141338
-86.162224 -243.36029 -7.2117348
-90.994736 -243.32892 -7.4982438
-87.662628 -243.34676 -7.4276762
-87.344727 -243.33943 -7.7149749
-87.116997 -243.37302 -7.6638708
-80.513153 -243.3396 -7.947175
-87.37767 -243.30121 -8.0402546
-80.433411 -243.26434 -8.1167297
-89.01358 -243.29712 -9.0492315
-92.130264 -243.22864 -9.4630814
-88.270844 -243.38321 -9.4772367
-87.13501 -243.23045 -9.7445669
-82.630753 -243.25337 -9.6304731
-81.530441 -243.30827 -9.939352
-88.530869 -243.3985 -10.172283
-88.110573 -243.38098 -10.125692
-87.659004 -243.26996 -10.059565
-81.64975 -243.36029 -10.085172
-81.590942 -243.26328 -10.164776
-87.334366 -243.31776 -10.245714
-82.323097 -243.3436 -10.271427
-81.976242 -243.25015 -10.34007
-81.047775 -243.3898 -10.239378
-89.0308 -243.34958 -10.466322
-82.520813 -243.26248 -10.469391
-87.886215 -243.31755 -10.743582
-82.243546 -243.27232 -10.731345
-81.69783 -243.32486 -10.717706
-87.973953 -243.3219 -10.869128
-87.53643 -243.22549 -11.096608
-86.690155 -243.25339 -11.164053
-81.919189 -243.36261 -11.040588
-81.363747 -243.35866 -11.183978
-88.556671 -243.32095 -11.463076
-88.553482 -243.27287 -11.811525
-87.466759 -243.35292 -11.939916
-87.526855 -243.32834 -12.085178
-86.874657 -243.22842 -12.098677
-89.268707 -243.33382 -12.319664
-88.270134 -243.29672 -12.281255
-88.185196 -243.21938 -12.250586
-87.619614 -243.26225 -12.209936
-88.922333 -243.36197 -12.550455
-88.209831 -243.31863 -12.587517
-83.696831 -243.30371 -12.557022
-83.396919 -243.33112 -12.534662
-89.492691 -243.37659 -12.773718
-84.23027 -243.28629 -12.917265
-83.898781 -243.35233 -12.931999
-88.565872 -243.29904 -13.077793
-87.5644 -243.32147 -13.37991
-86.628242 -243.33311 -13.314297
-88.70903 -243.2924 -13.47073
-83.01815 -243.35565 -13.50615
-84.189919 -243.26372 -13.969017
-89.105873 -243.3773 -14.137741
-88.992126 -243.34088 -14.073157
-84.206909 -243.30933 -14.113604
-87.172203 -243.29559 -14.266021
-83.598389 -243.20901 -14.564585
-98.530632 -243.31023 -14.752482
-98.551804 -243.26929 -14.880314
-99.252228 -243.3118 -15.898947
-87.908188 -243.34009 -15.981823
-85.21994 -243.20346 -17.729105
-83.377213 -243.24561 -18.230286
-85.690216 -243.06416 -7.1797128
-85.510712 -243.02617 -7.169167
-85.13694 -243.11581 -7.171669
-88.150055 -243.10327 -7.351315
-87.66893 -243.08891 -7.2082911
-87.079735 -243.11588 -7.2846322
-86.890259 -243.15945 -7.315865
-86.284744 -243.14066 -7.2241969
-85.156197 -243.16589 -7.2214928
-81.619698 -243.13788 -7.209156
-92.405891 -243.13892 -7.5378442
-91.75766 -243.03058 -7.5172038
-80.47052 -243.06754 -7.709702
-80.315018 -243.02271 -7.919929
-80.357063 -243.13043 -8.4189653
-89.039047 -243.04135 -8.9180441
-89.367126 -243.08194 -9.0942631
-81.89621 -243.07602 -9.0427341
-88.617622 -243.07509 -9.5419588
-87.432953 -243.09082 -9.7930689
-86.696213 -243.06007 -9.7587156
-82.326958 -243.04602 -9.6333351
-81.76828 -243.17465 -9.7731895
-92.053291 -243.1187 -9.858139
-88.386269 -243.16362 -9.9238873
-86.663162 -243.09525 -9.9086847
-81.651154 -243.15703 -9.9194946
-80.614166 -243.05119 -9.8390074
-87.224655 -243.11006 -10.078529
-80.520981 -243.05359 -10.160334
-80.020393 -243.00409 -10.067066
-81.469055 -243.1512 -10.282696
-81.015167 -243.0199 -10.238139
-80.693604 -243.01413 -10.319588
-88.116005 -243.09946 -10.495223
-87.458008 -243.08177 -10.424865
-81.633858 -243.07123 -10.442011
-81.155258 -243.04567 -10.481342
-81.790375 -243.17996 -10.719582
-89.070137 -243.04674 -10.940403
-81.927765 -243.17578 -10.961098
-88.357414 -243.05247 -11.035098
-87.459625 -243.14755 -11.102094
-86.953049 -243.10646 -11.00624
-86.619476 -243.08763 -11.167637
-81.930504 -243.06265 -11.123629
-86.915222 -243.10553 -11.309071
-82.080505 -243.17693 -11.324881
-88.695923 -243.06964 -11.517463
-87.666214 -243.07724 -11.419957
-82.224289 -243.07738 -11.404095
-81.454552 -243.14804 -11.589936
-88.570885 -243.10355 -11.878822
-87.772705 -243.17958 -11.853015
-88.503006 -243.04301 -12.031514
-87.659256 -243.14697 -12.06872
-86.934578 -243.15228 -12.095547
-89.137383 -243.12445 -12.494369
-89.635925 -243.14206 -12.943567
-83.492485 -243.12759 -12.854723
-82.032562 -243.09586 -14.593823
-83.679901 -243.133 -14.724314
-88.996353 -243.11096 -15.71705
-97.902786 -243.04227 -16.177773
-86.248886 -242.9373 -7.188118
-85.150398 -242.90117 -7.1976399
-81.903671 -242.85025 -7.1607471
-81.758408 -242.86154 -7.10921
-89.133133 -242.85361 -7.3672261
-88.248352 -242.93127 -7.3258648
-86.704147 -242.91895 -7.290832
-86.310738 -242.89665 -7.2437348
-80.236496 -242.81702 -7.3544331
-96.57711 -242.98701 -7.4999261
-80.396523 -242.81317 -7.4376221
-80.484558 -242.82751 -7.740849
-80.283691 -242.82358 -7.8627038
-86.874359 -242.95273 -9.1619282
-88.692337 -242.90302 -9.4860315
-87.746613 -242.85678 -9.5498571
-86.573524 -242.86311 -9.4813528
-80.934761 -242.95273 -9.4359617
-80.073174 -242.81931 -9.5408773
-91.965767 -242.89441 -9.7120314
-87.724762 -242.92908 -9.7250051
-86.570145 -242.96594 -9.7526064
-81.243378 -242.89659 -9.7013893
-80.934113 -242.87331 -9.6262741
-91.246452 -242.86044 -9.9763184
-91.063202 -242.93115 -9.9335032
-87.055008 -242.9474 -9.8603306
-86.510071 -242.99011 -9.8307323
-90.976776 -242.84415 -10.081973
-87.522453 -242.91295 -10.139797
-86.6549 -242.99536 -10.008744
-81.258606 -242.80896 -10.225675
-81.138306 -242.84186 -10.248461
-88.237503 -242.93089 -10.415214
-87.896233 -242.92357 -10.443953
-87.117538 -242.9086 -10.572672
-89.12851 -242.82251 -10.651077
-80.89782 -242.87387 -10.88839
-80.567841 -242.89749 -10.876102
-80.902786 -242.88614 -11.186527
-87.683746 -242.96765 -11.292489
-96.505035 -242.85844 -11.554214
-96.570869 -242.81276 -11.62459
-86.749603 -242.87894 -11.848183
-82.307594 -242.9566 -11.829059
-81.612724 -242.9267 -11.800228
-87.416534 -242.99059 -12.113998
-82.963806 -242.89539 -12.842691
-81.94545 -242.81575 -12.816195
-81.284706 -242.80164 -12.910506
-83.844543 -242.93784 -13.390714
-81.36644 -242.83871 -13.397637
-83.79052 -242.85042 -13.503378
-84.075073 -242.83427 -13.666139
-81.320389 -242.85315 -14.492235
-80.720024 -242.80473 -15.710845
-83.243279 -242.82707 -16.167732
-82.543983 -242.85884 -16.729816
-84.305252 -242.96326 -17.447365
-82.347137 -242.98007 -19.238117
-85.89534 -242.70146 -7.0898018
-84.108498 -242.62567 -7.159133
-86.945641 -242.65021 -7.2485719
-86.523094 -242.75316 -7.2566109
-86.231331 -242.64308 -7.2296619
-85.932304 -242.74292 -7.2033401
-84.965355 -242.62723 -7.205255
-80.47258 -242.75706 -7.343678
-89.504715 -242.77997 -7.4785519
-80.227013 -242.73758 -7.8210168
-80.161568 -242.67035 -7.8525491
-81.879837 -242.71021 -8.7811432
-80.776146 -242.65796 -8.6256819
-80.377365 -242.63113 -8.6772718
-82.031082 -242.66522 -8.9331808
-80.494781 -242.71606 -9.3141212
-88.515549 -242.72806 -9.5047264
-87.941704 -242.64392 -9.5666199
-81.086731 -242.74561 -9.4635944
-92.18425 -242.69571 -9.6699114
-87.841118 -242.74783 -9.6999397
-87.742096 -242.7149 -9.6885529
-81.320709 -242.74979 -9.6734352
-81.066086 -242.74622 -9.9044704
-92.035194 -242.64645 -10.004718
-91.282745 -242.68933 -10.167889
-80.933876 -242.72874 -10.094692
-88.309723 -242.72495 -10.522524
-88.119247 -242.6145 -10.46501
-82.364578 -242.76941 -10.950048
-80.749077 -242.72833 -10.921278
-89.025269 -242.77022 -11.1738
-87.263702 -242.65005 -11.085807
-86.917603 -242.68698 -11.131575
-80.869415 -242.63843 -11.402914
-82.931595 -242.64484 -11.740035
-83.382744 -242.68115 -11.833362
-82.288574 -242.65895 -12.106918
-83.144646 -242.63428 -12.495462
-82.12381 -242.66599 -12.921119
-83.529495 -242.77539 -13.480852
-82.675652 -242.69989 -16.60273
-83.006134 -242.75867 -16.872755
-82.9356 -242.65234 -19.018661
-86.651306 -242.41142 -7.1051788
-86.119469 -242.46484 -7.078805
-85.620331 -242.55983 -7.1360688
-83.417496 -242.44878 -7.1427441
-83.034943 -242.57294 -7.1651378
-81.491554 -242.50046 -7.11374
-88.253586 -242.53342 -7.3068571
-87.312927 -242.50757 -7.2608299
-87.082047 -242.56235 -7.251266
-86.493614 -242.49799 -7.236228
-86.381363 -242.41739 -7.2344599
-80.286057 -242.51044 -7.3510551
-89.923584 -242.58772 -7.4520221
-96.452034 -242.47182 -7.6033168
-81.205795 -242.49677 -7.694798
-81.179764 -242.48613 -7.6834121
-80.890045 -242.54245 -8.5825329
-80.383499 -242.53888 -8.579565
-80.147781 -242.52698 -8.5374126
-81.535187 -242.54652 -8.7816792
-80.910202 -242.46693 -8.6333561
-88.889893 -242.5368 -9.1743259
-87.68959 -242.55226 -9.0924263
-80.033844 -242.53339 -9.1330347
-96.430199 -242.43768 -9.3639174
-87.620178 -242.52896 -9.353344
-87.561783 -242.47171 -9.3453608
-86.218842 -242.44775 -9.2269802
-88.672226 -242.58458 -9.5122299
-80.204857 -242.54811 -9.5054197
-88.636963 -242.45033 -9.8247623
-88.139977 -242.54875 -10.051138
-87.321159 -242.541 -10.101986
-97.148895 -242.55141 -10.200337
-91.903244 -242.50793 -10.467939
-96.78347 -242.46729 -10.652234
-87.367477 -242.56427 -11.13905
-87.107224 -242.54486 -11.195094
-82.464172 -242.41437 -11.072546
-82.945641 -242.50464 -11.466377
-83.069763 -242.57535 -11.671471
-88.671715 -242.54445 -11.822031
-80.785141 -242.40253 -11.926311
-82.659485 -242.50162 -12.120474
-82.933861 -242.53352 -12.287075
-87.922424 -242.46112 -12.414001
-83.11351 -242.55942 -12.452735
-80.677658 -242.58609 -12.672318
-81.40863 -242.57956 -13.146082
-81.435265 -242.50999 -13.398122
-81.918266 -242.42252 -13.635621
-80.702972 -242.49072 -13.786976
-83.435837 -242.42346 -14.112423
-81.660629 -242.43864 -14.077415
-81.208649 -242.54868 -14.062049
-81.091736 -242.54135 -14.104023
-81.177948 -242.51216 -14.486849
-81.123863 -242.51352 -14.645823
-83.514725 -242.45908 -14.897251
-81.026596 -242.50644 -15.099778
-81.089317 -242.49591 -15.287439
-83.010193 -242.51878 -15.793169
-81.23111 -242.46127 -15.861967
-81.229813 -242.48743 -16.414459
-85.011475 -242.59845 -18.952042
-84.76339 -242.58026 -19.406822
-85.671722 -242.39668 -7.1312418
-81.310883 -242.25075 -7.072257
-87.159462 -242.35159 -7.263063
-86.355621 -242.32623 -7.2086339
-80.518951 -242.31039 -7.3606248
-80.074181 -242.30261 -7.3129411
-98.866165 -242.22681 -7.583571
-89.901909 -242.27319 -7.4556909
-89.72406 -242.22464 -7.4388881
-80.583252 -242.26001 -8.5648537
-96.514656 -242.26436 -9.1741962
-81.317924 -242.35651 -9.010684
-97.080154 -242.38789 -9.3153725
-96.383705 -242.31175 -9.3756618
-87.55246 -242.34726 -9.3034468
-86.413055 -242.35373 -9.2420101
-88.540909 -242.31589 -9.5090332
-81.585037 -242.36966 -9.4762936
-80.92659 -242.38791 -9.5612278
-96.37793 -242.36279 -9.7742386
-92.914413 -242.33684 -9.9424105
-91.575546 -242.36011 -10.160338
-87.094788 -242.33112 -10.052683
-88.206688 -242.27536 -10.38669
-88.14315 -242.34589 -10.307917
-87.070145 -242.35968 -10.264157
-82.659714 -242.24095 -10.323915
-88.122261 -242.29893 -10.432817
-82.850204 -242.25694 -10.482927
-82.720383 -242.27509 -10.548399
-82.53846 -242.32208 -10.45866
-82.656403 -242.25874 -10.65047
-82.69754 -242.29465 -10.932683
-82.480583 -242.33145 -10.886884
-95.510956 -242.27621 -11.091742
-82.489792 -242.23492 -11.094076
-82.877571 -242.32983 -11.246542
-80.752525 -242.21796 -11.499093
-82.733353 -242.27075 -11.735647
-82.525459 -242.22949 -11.917042
-80.881104 -242.30679 -11.856396
-80.240662 -242.21225 -11.942291
-80.718956 -242.27985 -12.008839
-80.533646 -242.29959 -12.095266
-97.014046 -242.25272 -12.255678
-80.395271 -242.38252 -12.379652
-82.474136 -242.23184 -12.711359
-81.354584 -242.35646 -13.156055
-81.792274 -242.30423 -13.301013
-82.049606 -242.33139 -13.494182
-81.818047 -242.35579 -13.41259
-80.678741 -242.24149 -13.428659
-81.504349 -242.24066 -13.708942
-83.351143 -242.2433 -13.943689
-81.504578 -242.37302 -14.125538
-80.935295 -242.36029 -14.119434
-80.584366 -242.28821 -14.034302
-82.986732 -242.28882 -15.324074
-83.375198 -242.21036 -15.412605
-80.950012 -242.34891 -15.722559
-83.275475 -242.22226 -16.012613
-80.539871 -242.2229 -16.700592
-81.40966 -242.36171 -17.03981
-82.110718 -242.16229 -7.147172
-81.156395 -242.01776 -7.0859981
-84.687065 -242.17735 -7.2088242
-81.226562 -242.142 -7.247745
-98.115021 -242.17438 -7.4244719
-95.749199 -242.15286 -7.5224791
-92.536209 -242.09277 -7.497786
-91.72261 -242.14017 -7.5449662
-96.273514 -242.09085 -7.7306142
-95.858994 -242.07199 -7.6355391
-81.049225 -242.16539 -7.7600479
-80.46386 -242.05052 -7.6599741
-80.261017 -242.05118 -7.6913691
-80.139084 -242.04912 -7.7415571
-81.319183 -242.08618 -8.8806829
-88.658295 -242.09447 -9.553669
-88.462906 -242.12888 -9.568655
-81.781357 -242.14661 -9.5787067
-92.529861 -242.09866 -9.9726648
-95.174667 -242.1955 -10.198977
-91.828133 -242.03395 -10.383466
-80.077179 -242.00543 -10.31511
-95.300232 -242.15475 -10.539841
-81.317612 -242.009 -10.45878
-95.869583 -242.12061 -10.695351
-95.716705 -242.1257 -10.73604
-82.668472 -242.1599 -10.628614
-82.497406 -242.09071 -10.714566
-81.10537 -242.13687 -10.727026
-95.800629 -242.00108 -10.834261
-95.348129 -242.07983 -10.89147
-92.014618 -242.0764 -10.957087
-91.813477 -242.15219 -10.831764
-82.327888 -242.18079 -10.848589
-80.887894 -242.08345 -10.922836
-80.025429 -242.04456 -10.812865
-82.896957 -242.14572 -11.122958
-82.469154 -242.16736 -11.111276
-80.628906 -242.1393 -11.114953
-80.126556 -242.08035 -11.069397
-96.435608 -242.01506 -11.482872
-80.576096 -242.1647 -11.753238
-96.23336 -242.19771 -12.062892
-96.116302 -242.08783 -12.090114
-82.589249 -242.09209 -12.140556
-80.95015 -242.06595 -12.293107
-82.31398 -242.17598 -12.715528
-80.154053 -242.07706 -12.622504
-82.147751 -242.10744 -12.859201
-82.346581 -242.1848 -13.071859
-81.686447 -242.08037 -13.128678
-82.047096 -242.01248 -14.989172
-82.923729 -242.13879 -15.1497
-80.607079 -242.01411 -15.108849
-80.630966 -242.18002 -15.314743
-82.706131 -242.1286 -15.458183
-81.848984 -242.03856 -15.843176
-82.220871 -242.11612 -16.129047
-81.758675 -242.19666 -18.654343
-80.259399 -242.1214 -18.734673
-83.964973 -242.02631 -19.253479
-84.272125 -242.11819 -19.745014
-84.01178 -242.17877 -20.378141
-86.856506 -241.95358 -7.181437
-85.100342 -241.95459 -7.175797
-84.19416 -241.864 -7.1676898
-83.733139 -241.91394 -7.1437359
-81.722198 -241.87766 -7.1381741
-80.175339 -241.84302 -7.1927271
-87.060944 -241.87404 -7.240756
-81.150833 -241.96643 -7.2311921
-80.260773 -241.89087 -7.2489791
-98.528946 -241.80765 -7.4465942
-93.331703 -241.87732 -7.4804811
-80.53672 -241.97913 -7.6754699
-80.186111 -241.95047 -7.6580801
-91.845428 -241.97551 -7.8727722
-91.843018 -241.9973 -8.9313927
-96.46785 -241.92383 -9.1596069
-80.717773 -241.80885 -9.1490812
-96.473801 -241.92255 -9.2152395
-80.857353 -241.84225 -9.2376556
-92.033287 -241.86429 -10.164701
-91.748238 -241.85257 -10.089937
-82.705093 -241.90222 -10.181095
-91.645721 -241.88232 -10.211843
-81.184288 -241.95781 -10.381589
-80.03949 -241.87476 -10.38481
-95.402214 -241.9523 -10.560827
-82.324295 -241.92284 -10.516206
-95.91555 -241.94273 -10.943449
-80.472992 -241.83804 -10.957913
-80.218689 -241.91924 -10.979498
-80.671364 -241.94678 -11.095591
-80.417725 -241.86528 -11.170514
-81.095879 -241.85117 -11.30863
-82.374832 -241.81616 -11.525686
-80.096863 -241.83057 -11.461703
-97.129944 -241.88782 -11.628727
-95.773994 -241.9341 -11.808864
-96.137955 -241.92859 -12.084713
-80.889694 -241.93857 -12.275471
-80.758118 -241.97292 -12.408618
-80.315605 -241.89021 -12.571074
-82.086151 -241.93094 -12.694412
-80.843781 -241.9837 -12.863434
-82.83168 -241.92786 -15.363273
-82.708313 -241.95566 -15.394309
-80.362778 -241.80096 -15.324892
-82.666954 -241.91748 -15.897125
-82.320282 -241.96596 -16.142658
-83.272171 -241.84235 -16.257656
-83.113159 -241.94672 -16.290962
-80.208755 -241.87952 -16.253265
-81.319283 -241.99933 -18.980892
-83.902893 -241.92154 -19.537354
-80.771469 -241.97577 -19.426928
-86.355644 -241.6882 -7.1663718
-84.587616 -241.70737 -7.1682582
-82.959564 -241.73898 -7.1338801
-81.929192 -241.78961 -7.0658679
-81.765854 -241.69963 -7.1143408
-80.487717 -241.67792 -7.0863838
-89.393051 -241.75441 -7.3156919
-80.367889 -241.717 -7.2716279
-96.063583 -241.69341 -7.5198221
-95.046097 -241.67036 -7.4384832
-91.072449 -241.75203 -7.4788399
-90.621643 -241.7029 -7.4255629
-90.532333 -241.76578 -7.4298081
-96.486206 -241.79132 -7.787148
-89.528313 -241.6586 -7.6934519
-81.463997 -241.78777 -8.9935684
-80.113426 -241.73128 -8.9632397
-81.17424 -241.71609 -9.0797777
-80.777267 -241.71434 -9.3345814
-80.822372 -241.63541 -9.441782
-80.746445 -241.65761 -9.4404392
-92.483505 -241.74405 -9.7818565
-91.421364 -241.69064 -10.190665
-92.092873 -241.74538 -10.280729
-91.497604 -241.64667 -10.276602
-80.546967 -241.69958 -10.949946
-80.265587 -241.69853 -10.969027
-80.264755 -241.64566 -11.063353
-97.796936 -241.66882 -11.331057
-80.277878 -241.71786 -11.528231
-80.178215 -241.74615 -11.503185
-97.323082 -241.75027 -11.650564
-81.20192 -241.72726 -11.970874
-80.510033 -241.76616 -12.316509
-82.181969 -241.7339 -12.593948
-81.938896 -241.65082 -12.704714
-80.660835 -241.6804 -12.668402
-83.233322 -241.62907 -12.866634
-83.153358 -241.70782 -12.959669
-83.661392 -241.60352 -13.120232
-83.122665 -241.66919 -13.045689
-83.126945 -241.68932 -13.27552
-80.042336 -241.6188 -13.330841
-80.530487 -241.61526 -14.131435
-80.119583 -241.69221 -14.314422
-80.901291 -241.66977 -14.477407
-80.605423 -241.77605 -14.589601
-83.223572 -241.70062 -14.660223
-82.087204 -241.77176 -14.61049
-84.095367 -241.69713 -15.721932
-82.555023 -241.7213 -15.88726
-80.067932 -241.78873 -15.884886
-84.498474 -241.61632 -16.342953
-83.664719 -241.6954 -16.377293
-83.372421 -241.67677 -16.518494
-84.098618 -241.62244 -17.048931
-81.252777 -241.72864 -19.303288
-82.276115 -241.69275 -19.526867
-91.489288 -241.43245 -7.3975401
-88.317604 -241.46646 -7.3092241
-80.653275 -241.51369 -7.224843
-80.126846 -241.53351 -7.271368
-93.623505 -241.55 -7.4775019
-93.302238 -241.51822 -7.4914422
-92.285217 -241.52328 -7.5519662
-81.387566 -241.57468 -9.1722717
-92.825188 -241.43661 -9.35007
-80.84716 -241.56473 -9.4574051
-91.486519 -241.53687 -10.309814
-96.848526 -241.5938 -11.091515
-81.992294 -241.4039 -11.172619
-82.296906 -241.53513 -11.328497
-81.957832 -241.54068 -11.540332
-97.233368 -241.56526 -11.624412
-80.288498 -241.48511 -11.737997
-82.229927 -241.49966 -11.902343
-81.849144 -241.48163 -11.866589
-82.094864 -241.54785 -12.088348
-81.545708 -241.46826 -12.193359
-81.774727 -241.50029 -12.732116
-81.948212 -241.4231 -12.896206
-82.961273 -241.44659 -13.106194
-80.469185 -241.52692 -13.06011
-80.300941 -241.52455 -13.043854
-80.706688 -241.41684 -13.577556
-80.49157 -241.49045 -13.516685
-80.677727 -241.41104 -13.632731
-80.442932 -241.51578 -13.731131
-80.33287 -241.48381 -13.762791
-83.003662 -241.41843 -14.260873
-80.876595 -241.54893 -14.445906
-82.447296 -241.40433 -15.255411
-83.480057 -241.54825 -15.599915
-83.869843 -241.49057 -15.80679
-83.721451 -241.40805 -16.649532
-84.146042 -241.40506 -17.479038
-81.004074 -241.51941 -18.990639
-82.468552 -241.46997 -19.590693
-81.715439 -241.26747 -7.1271791
-81.444786 -241.35928 -7.1089668
-80.667252 -241.34082 -7.1530032
-80.566193 -241.32321 -7.1099539
-91.418686 -241.32863 -7.3675098
-89.874664 -241.22147 -7.3060541
-87.473831 -241.30389 -7.2779031
-80.466202 -241.33325 -7.2099948
-80.082428 -241.37677 -7.2106018
-99.499481 -241.2645 -7.4935131
-96.72776 -241.31567 -7.538249
-94.335526 -241.22574 -7.422483
-98.973785 -241.239 -7.7349801
-96.139542 -241.3264 -7.7213292
-98.868401 -241.23955 -7.9531069
-95.947449 -241.30341 -7.892271
-92.869476 -241.36334 -9.1279345
-92.481445 -241.37717 -9.6582594
-96.860245 -241.37018 -11.274941
-82.1063 -241.37611 -11.2421
-81.567833 -241.38397 -12.31561
-81.541618 -241.37308 -12.57324
-80.649956 -241.35713 -13.275829
-80.382698 -241.30276 -13.542644
-80.646988 -241.35522 -13.65631
-83.065681 -241.2103 -13.817015
-83.339172 -241.2028 -14.241779
-80.663391 -241.34042 -15.907781
-84.70369 -241.24452 -16.598637
-84.080658 -241.36951 -16.605087
-84.138184 -241.36441 -17.841351
-80.288315 -241.23254 -18.738621
-80.21521 -241.1124 -6.962533
-88.915611 -241.02641 -7.181263
-87.903824 -241.05562 -7.1976762
-86.512115 -241.11928 -7.1465621
-85.369446 -241.15511 -7.1101489
-83.027924 -241.03633 -7.1135802
-98.993652 -241.02528 -7.3176289
-92.707802 -241.14545 -7.369277
-90.680031 -241.08784 -7.3385792
-99.826431 -241.1355 -7.467731
-96.19696 -241.17374 -7.4172502
-96.761543 -241.16771 -11.041886
-84.754044 -241.00763 -11.915218
-82.93602 -241.08844 -13.189062
-82.055817 -241.15842 -13.00654
-83.335304 -241.04074 -13.342439
-82.607941 -241.05722 -13.755579
-82.969604 -241.04199 -14.130318
-83.320679 -241.15167 -14.334925
-82.745331 -241.11823 -14.31657
-82.547104 -241.04108 -14.563195
-84.563812 -241.18289 -15.817511
-84.196068 -241.0612 -16.286446
-84.572128 -241.14857 -16.561182
-83.325226 -241.0844 -17.019098
-83.849342 -241.1132 -17.915543
-82.74585 -241.07953 -17.890507
-82.562523 -241.10747 -18.490065
-82.99485 -241.10857 -18.670353
-84.03656 -241.12544 -19.058355
-81.002151 -240.99944 -6.9942398
-80.765205 -240.84938 -6.9968572
-88.568085 -240.99948 -7.183733
-87.18364 -240.9899 -7.1806979
-85.726776 -240.91733 -7.1428609
-80.110016 -240.91348 -7.1071849
-99.800186 -240.93491 -7.3234849
-93.711548 -240.85265 -7.3710198
-91.763306 -240.96043 -7.3233299
-89.977989 -240.9144 -7.2998052
-97.233101 -240.89526 -11.083042
-97.251862 -240.88388 -11.367601
-83.54451 -240.931 -13.532916
-82.679504 -240.96793 -13.456532
-82.873398 -240.92023 -13.699547
-82.719025 -240.88791 -13.654518
-83.082275 -240.96883 -13.867273
-82.368805 -240.85905 -13.942651
-83.017326 -240.86378 -14.05867
-82.302322 -240.92316 -14.162445
-82.508087 -240.93289 -14.318423
-82.404007 -240.95004 -14.478095
-80.184395 -240.9425 -14.935892
-83.005196 -240.88763 -16.92841
-83.429611 -240.92264 -17.657093
-83.716194 -240.95401 -18.289312
-83.511642 -240.99516 -18.302464
-83.826263 -240.99242 -18.478607
-83.791725 -240.8712 -18.857988
-89.61866 -240.63762 -7.1977472
-89.303345 -240.63579 -7.1858482
-88.871765 -240.62106 -7.1654139
-88.313164 -240.72324 -7.1971102
-87.692841 -240.64493 -7.1664548
-85.69783 -240.7095 -7.1803732
-82.888069 -240.73648 -7.1261692
-81.700638 -240.6882 -7.1189179
-80.914345 -240.63692 -7.07199
-93.867981 -240.72995 -7.378593
-91.876915 -240.66219 -7.3445792
-87.55072 -240.73083 -7.2124052
-88.346039 -240.72049 -7.506144
-82.510536 -240.75172 -13.880457
-82.864098 -240.77252 -16.992102
-83.117493 -240.73087 -17.46917
-83.366516 -240.72824 -17.680763
-82.327759 -240.68121 -17.812595
-83.277481 -240.73485 -19.788311
-80.651505 -240.50784 -6.9802399
-80.112396 -240.48817 -6.9844398
-88.575096 -240.52103 -7.1737218
-87.849274 -240.42679 -7.186059
-87.60891 -240.50191 -7.1991448
-83.333817 -240.52057 -7.074522
-97.356567 -240.54822 -7.3405061
-93.717834 -240.49191 -7.3639278
-92.973595 -240.49472 -7.3394489
-92.242538 -240.50946 -7.3314242
-91.026901 -240.4931 -7.27843
-88.987747 -240.51674 -7.2032251
-82.212967 -240.55551 -14.679375
-82.833984 -240.53297 -16.587324
-80.24884 -240.48186 -18.101944
-81.90345 -240.43118 -19.861164
-82.500359 -240.5835 -20.052502
-81.469948 -240.45129 -20.779701
-89.96286 -240.23859 -7.1816778
-89.323761 -240.37 -7.1820769
-88.926102 -240.22949 -7.1679029
-87.698997 -240.27238 -7.1031818
-87.50235 -240.3252 -7.169013
-96.28331 -240.30377 -7.3368831
-94.580856 -240.38643 -7.3944402
-93.320915 -240.39767 -7.3449378
-91.858459 -240.39706 -7.3099589
-90.211021 -240.23418 -7.2940459
-89.28833 -240.38791 -7.2016549
-80.113388 -240.3036 -9.2919941
-90.321243 -240.29239 -9.4689293
-82.231995 -240.35559 -14.814087
-82.898643 -240.38116 -16.68396
-82.272568 -240.29337 -17.518608
-83.622643 -240.30621 -18.921034
-83.659149 -240.3562 -19.238079
-81.883606 -240.31508 -20.165537
-89.806885 -240.19301 -7.1877012
-88.680038 -240.11728 -7.1300902
-83.092934 -240.13995 -7.1187901
-97.279922 -240.11821 -7.3006959
-96.420433 -240.17412 -7.3101668
-95.054085 -240.11049 -7.2910528
-93.835762 -240.09369 -7.3152151
-92.91407 -240.16769 -7.33289
-92.177971 -240.07108 -7.2588701
-91.885178 -240.06223 -7.2772212
-90.196457 -240.16072 -7.5717931
-90.25531 -240.01614 -8.5356941
-90.222794 -240.00471 -10.550885
-80.142067 -240.13237 -10.529357
-82.427956 -240.15593 -18.028713
-82.955849 -259.88889 -7.5401082
-87.144279 -259.83405 -8.276618
-87.655891 -259.90314 -9.198822
-87.130333 -259.84436 -12.190764
-87.17308 -259.72192 -9.3886728
-87.325066 -259.67792 -10.335257
-87.204643 -259.67654 -10.571755
-87.146309 -259.69928 -13.038498
-87.268379 -259.63165 -16.080561
-87.142365 -259.40118 -8.9197779
-87.113113 -259.57446 -14.13656
-87.080315 -259.54706 -14.603952
-87.00872 -259.48016 -16.191399
-82.986717 -259.38522 -7.6051941
-82.722282 -259.39417 -7.6449251
-87.119354 -259.37866 -8.6014614
-87.053421 -259.3504 -15.748321
-87.223129 -259.09662 -12.427009
-87.020737 -259.13348 -15.365816
-87.049049 -259.04584 -15.816599
-82.747047 -258.90875 -7.5450339
-87.027832 -258.99994 -7.7494478
-84.810646 -258.80823 -7.6127319
-87.122452 -258.82346 -9.2954865
-87.040268 -258.96716 -14.984995
-86.040962 -258.70578 -7.6169968
-87.085419 -258.47003 -7.7569861
-84.001793 -258.49677 -7.6276741
-87.087265 -258.56598 -11.279297
-86.988022 -258.50272 -16.152988
-85.417831 -258.39075 -7.61939
-81.522247 -258.22556 -7.784339
-87.114105 -258.23276 -8.2089481
-86.351776 -258.13696 -7.7475152
-98.47287 -258.01712 -8.9673882
-84.417633 -257.84497 -7.501862
-87.047272 -257.84854 -7.7331738
-98.400681 -257.96866 -8.7562923
-98.644814 -257.97385 -9.0079651
-87.067657 -257.80142 -11.139158
-82.061714 -257.72839 -7.7938709
-81.121162 -257.73578 -7.7756228
-87.028702 -257.77072 -13.433004
-86.978119 -257.77036 -15.344372
-86.42527 -257.45911 -7.6531529
-87.029236 -257.51547 -13.064692
-86.995193 -257.42883 -14.570486
-84.132767 -257.20667 -7.5722799
-85.263931 -257.2999 -7.6389232
-84.825287 -257.29453 -7.6285658
-87.061462 -257.35031 -8.986145
-87.06311 -257.33643 -9.7363882
-86.941376 -257.01263 -14.474584
-88.674652 -257.15286 -15.127243
-86.952209 -257.10071 -16.095463
-83.389389 -256.90994 -7.5682158
-87.059669 -256.96671 -8.2235756
-87.026016 -256.92053 -13.50853
-86.973282 -256.96985 -15.820507
-83.344566 -256.7337 -7.6047258
-87.483551 -256.74951 -9.2147274
-82.062088 -256.5697 -7.7134151
-81.520752 -256.53204 -7.7564321
-87.155334 -256.55835 -9.5856943
-85.363571 -256.22107 -7.588326
-82.436302 -256.38342 -7.5854192
-86.946671 -256.23846 -7.7379951
-86.704346 -256.20724 -7.6937079
-87.048973 -256.0705 -9.7964535
-87.012932 -255.99802 -9.0127382
-86.935684 -255.8605 -15.305166
-86.881287 -255.87418 -15.936475
-86.990143 -255.47531 -8.645771
-87.005585 -255.47534 -12.630681
-86.905045 -255.41553 -14.236431
-86.166565 -255.33768 -7.45928
-86.339233 -255.33725 -7.656271
-85.676773 -255.26846 -7.6361461
-86.970825 -255.23239 -12.105408
-86.957718 -255.37378 -13.231554
-86.971664 -255.06117 -9.540678
-83.371323 -254.98193 -7.4929018
-82.031464 -254.83846 -7.6575131
-80.915749 -254.80464 -7.721962
-86.964081 -254.96153 -9.685854
-86.928192 -254.9489 -13.505581
-86.892075 -254.99338 -14.57878
-86.845169 -254.9594 -15.910563
-86.29435 -254.66566 -7.5115528
-86.912743 -254.64597 -7.880681
-86.92791 -254.71684 -8.4082375
-86.510452 -254.76103 -8.6139994
-86.913704 -254.62187 -11.86031
-86.886459 -254.63702 -13.773497
-83.810417 -254.54314 -7.442699
-85.123383 -254.23184 -7.4342561
-83.952393 -254.22678 -7.518486
-82.532753 -254.25159 -7.562644
-82.205765 -254.23792 -7.471096
-87.334106 -254.26486 -7.6761818
-83.900681 -254.23093 -7.648685
-88.660599 -254.20831 -7.9409151
-89.439041 -254.2068 -8.2544174
-89.027603 -254.21419 -8.2508469
-88.666969 -254.23575 -8.2401581
-89.030846 -254.20584 -8.4784412
-86.494919 -254.2002 -9.9012222
-86.116119 -254.27034 -10.507668
-87.294106 -254.23677 -14.270306
-87.877808 -254.25674 -15.830164
-90.527855 -254.04523 -7.5336962
-85.373688 -254.14786 -7.5143528
-83.969315 -254.14606 -7.5261788
-91.717331 -254.00479 -7.7679882
-91.059128 -254.02495 -7.7620201
-90.204422 -254.05801 -7.769196
-85.313522 -254.13718 -7.6944342
-83.968246 -254.15564 -7.7455082
-91.372253 -254.02223 -7.8058071
-89.646194 -254.15678 -7.8475261
-96.242836 -254.04431 -8.1361275
-87.298782 -254.1736 -8.0859261
-94.615265 -254.09927 -8.2644558
-90.614159 -254.09669 -8.218111
-90.278564 -254.03036 -8.5287342
-90.146767 -254.07288 -8.568285
-95.356911 -254.12996 -8.7180586
-95.023224 -254.12059 -8.7302504
-92.856895 -254.05629 -8.6716604
-91.097176 -254.0762 -8.6938343
-90.913704 -254.10464 -8.6953964
-90.245361 -254.02997 -8.7123413
-94.553024 -254.12991 -8.9757843
-92.573624 -254.03593 -8.8861446
-92.09491 -254.03381 -8.9152374
-90.149681 -254.0376 -8.858469
-93.374283 -254.04201 -9.0371399
-95.374481 -254.05032 -9.4246664
-91.69635 -254.08105 -9.4171238
-90.907715 -254.19757 -9.5191536
-90.243332 -254.05438 -9.4479189
-86.869011 -254.16415 -9.4321613
-96.317711 -254.04134 -9.7846355
-94.168442 -254.14597 -9.6081715
-90.256966 -254.05374 -9.6337357
-90.258476 -254.07234 -10.174837
-93.473572 -254.11713 -10.244323
-87.127731 -254.03787 -11.328828
-88.289375 -254.07016 -11.798777
-91.479218 -254.04143 -12.206272
-92.242798 -254.0238 -12.468163
-86.89463 -254.11838 -13.090316
-89.023155 -254.07787 -13.446592
-88.350128 -254.10017 -13.410049
-86.956345 -254.09842 -13.432187
-88.525528 -254.1035 -13.87406
-88.193619 -254.11517 -13.82079
-87.286575 -254.12076 -13.895786
-87.093735 -254.06979 -13.946707
-90.688225 -254.18649 -14.034585
-87.288612 -254.12411 -14.186323
-86.792374 -254.00763 -14.178644
-88.583038 -254.09834 -14.202865
-91.387993 -254.01018 -14.4879
-88.181862 -254.08859 -14.600924
-86.942123 -254.03346 -15.314079
-89.789459 -254.19582 -16.048698
-86.956238 -253.84602 -7.657784
-85.638306 -253.92891 -7.6182899
-81.459549 -253.86963 -7.647202
-92.985107 -253.91815 -7.90411
-90.896835 -253.98517 -7.8431182
-92.965042 -253.91629 -8.1061821
-90.43605 -253.98581 -8.3870449
-93.324661 -253.92709 -8.4525089
-91.808823 -253.96245 -8.4978991
-91.490601 -253.97713 -8.4982958
-90.769615 -253.9951 -8.582653
-96.360016 -253.95268 -8.7166414
-97.746193 -253.80734 -8.9048119
-97.366135 -253.8287 -8.889679
-96.256454 -253.98456 -8.9257698
-90.363739 -253.98462 -8.9495602
-91.560089 -253.97659 -9.0876865
-86.96994 -253.92636 -9.295166
-86.75676 -253.80502 -9.3304186
-97.859779 -253.92583 -9.5773239
-96.347565 -253.97931 -9.5782757
-92.547577 -253.85898 -9.5853462
-91.852013 -253.98616 -9.4959917
-91.502823 -253.98602 -9.424881
-92.473892 -253.94067 -9.7264481
-86.267288 -253.81061 -10.545034
-87.023941 -253.84857 -10.753919
-86.788078 -253.96674 -11.0774
-90.230057 -253.90291 -11.684116
-91.740875 -253.965 -12.285439
-91.376877 -253.98764 -12.512771
-90.053612 -253.93907 -12.519173
-98.00473 -253.90936 -12.677135
-92.16407 -253.95477 -12.600702
-92.123566 -253.94461 -12.973173
-91.75872 -253.93289 -12.922817
-91.406487 -253.97522 -13.00542
-86.976379 -253.95856 -13.548426
-92.271332 -253.93036 -13.717003
-91.41272 -253.95634 -13.74171
-86.883804 -253.92967 -13.60663
-88.651169 -253.95694 -13.90106
-86.941528 -253.96872 -13.929657
-89.278847 -253.97464 -14.689499
-96.765602 -253.85629 -16.145849
-93.165558 -253.98389 -16.049313
-86.175079 -253.62524 -7.499052
-84.13678 -253.76558 -7.453989
-83.876686 -253.69757 -7.4294991
-99.788803 -253.62924 -7.960135
-97.462273 -253.71814 -7.8707738
-96.273216 -253.74115 -7.912991
-95.051086 -253.6543 -7.930665
-85.799774 -253.71695 -9.5139618
-99.53894 -253.70728 -9.6826324
-99.649658 -253.68723 -10.338411
-96.67099 -253.71399 -10.584452
-93.564178 -253.74031 -10.490217
-87.748741 -253.76216 -11.022898
-99.584702 -253.6107 -12.52866
-96.988884 -253.62958 -12.594706
-97.931198 -253.72165 -12.961596
-96.167511 -253.76749 -13.485519
-97.907639 -253.79007 -13.798289
-97.476074 -253.79605 -14.278687
-95.190437 -253.76909 -14.340453
-96.283607 -253.71426 -14.406533
-99.88501 -253.72415 -16.157831
-97.93882 -253.71686 -16.228733
-97.891281 -253.73979 -16.827147
-87.072937 -253.41382 -7.5458221
-85.527817 -253.55975 -7.4856791
-97.952286 -253.51599 -7.9416852
-80.610596 -253.5183 -7.8396521
-97.946472 -253.45831 -8.7588549
-86.95208 -253.50081 -9.6500931
-92.494293 -253.55736 -9.8704967
-84.953041 -253.52441 -9.9766903
-84.933388 -253.42932 -10.334227
-86.186172 -253.54631 -10.531154
-85.912125 -253.45596 -10.508433
-93.656975 -253.49232 -14.489419
-86.901566 -253.49243 -14.552744
-89.358276 -253.45398 -14.760007
-87.823334 -253.5211 -14.656866
-87.409775 -253.56105 -14.617448
-86.580261 -253.47618 -14.784704
-97.465469 -253.43887 -14.840792
-89.147926 -253.42963 -14.93419
-87.332214 -253.5276 -14.927313
-86.693535 -253.4996 -14.932665
-89.778351 -253.40881 -15.023949
-86.537956 -253.44803 -15.051179
-88.217133 -253.42592 -15.251775
-87.72406 -253.42487 -15.232019
-97.912895 -253.46939 -16.672482
-90.248169 -253.25319 -7.5290089
-81.234848 -253.22208 -7.6480241
-80.649628 -253.3551 -7.6678529
-90.879471 -253.24484 -7.828763
-99.11396 -253.33722 -8.0780334
-89.686234 -253.23172 -8.0030355
-85.62207 -253.28214 -8.7635117
-99.243469 -253.36743 -8.8534718
-99.123077 -253.29297 -8.9063988
-98.084259 -253.3286 -8.8995829
-93.063194 -253.3454 -8.8660479
-86.523605 -253.34979 -9.0708523
-99.253372 -253.33801 -9.5803871
-86.714188 -253.23956 -9.5039234
-91.978622 -253.23024 -9.6690006
-87.348816 -253.29492 -9.6855011
-85.038788 -253.30438 -10.589391
-99.169449 -253.26212 -10.606945
-91.89579 -253.3109 -10.906569
-86.684128 -253.368 -10.868326
-99.322327 -253.26506 -11.397871
-97.89666 -253.38782 -11.259069
-86.483452 -253.38011 -12.14314
-99.19706 -253.24529 -12.479671
-85.991669 -253.33566 -12.537651
-99.224014 -253.23578 -12.681767
-97.838203 -253.33276 -13.462219
-98.001015 -253.23499 -14.735917
-92.669052 -253.27066 -14.798468
-92.023956 -253.30566 -14.786377
-90.274071 -253.39252 -14.727505
-97.766556 -253.28877 -14.862226
-93.049881 -253.27359 -14.929451
-91.698502 -253.34387 -14.977224
-91.340424 -253.35913 -14.959999
-90.727005 -253.38605 -14.939238
-88.502396 -253.37241 -14.94322
-90.808365 -253.02846 -7.5616221
-86.255524 -253.1111 -7.4678879
-84.104996 -253.08026 -7.4067798
-90.20742 -253.07443 -7.750412
-88.12767 -253.06882 -7.6090832
-98.920731 -253.15695 -7.8930011
-87.265762 -253.07967 -7.8914871
-99.055016 -253.19983 -8.3708677
-93.01403 -253.12933 -8.3143702
-85.585304 -253.14499 -8.5454597
-98.872665 -253.041 -8.7541695
-98.84726 -253.0015 -9.0848961
-92.297508 -253.17184 -9.0245752
-86.025543 -253.04669 -9.1464376
-91.416306 -253.02625 -10.486079
-86.636139 -253.15637 -10.49754
-84.983482 -253.12213 -10.752014
-84.748596 -253.19011 -10.695429
-86.579956 -253.16383 -10.908246
-85.011703 -253.03163 -10.926391
-98.988739 -253.09515 -11.369537
-98.26059 -253.03494 -11.855816
-86.617729 -253.05688 -12.837391
-97.945923 -253.1871 -13.096151
-99.24984 -253.15884 -13.255658
-98.053574 -253.16089 -14.165771
-99.017395 -253.03726 -14.234135
-98.972107 -253.05814 -14.61517
-97.728439 -253.02338 -14.979758
-91.898735 -253.18031 -15.217813
-97.540443 -253.00056 -15.430534
-99.104141 -253.07205 -15.856541
-99.038536 -253.02779 -16.204969
-82.17276 -252.8179 -7.434927
-91.448746 -252.9133 -7.6430931
-87.305038 -252.91208 -7.7387171
-81.624542 -252.96777 -7.66118
-87.786591 -252.83142 -7.8016601
-87.466408 -252.91393 -7.877326
-98.540756 -252.89836 -8.1015339
-93.030128 -252.99902 -8.3004475
-87.631073 -252.90172 -8.3323593
-98.800217 -252.97983 -8.7783136
-98.611275 -252.81085 -8.7481928
-93.074455 -252.99823 -8.9698219
-87.286835 -252.92537 -9.0892973
-87.646072 -252.84515 -9.3450394
-98.705307 -252.89447 -9.5671959
-92.533493 -252.89989 -9.5192757
-98.447044 -252.90491 -9.6405163
-92.933716 -252.92288 -9.6807537
-91.419296 -252.92654 -9.7766457
-86.534256 -252.99873 -9.9158087
-98.391281 -252.94522 -10.298738
-92.505219 -252.83333 -10.47447
-98.529633 -252.93605 -10.689278
-98.852112 -252.98862 -11.157335
-85.798775 -252.98932 -11.532507
-98.46019 -252.83824 -12.540885
-98.742676 -252.82977 -13.760065
-98.611038 -252.84702 -14.074654
-98.050659 -252.97339 -15.245474
-99.682457 -252.88251 -15.441177
-87.783691 -252.69772 -7.5427642
-86.939224 -252.73596 -7.5517068
-87.491486 -252.76213 -7.7211561
-92.741928 -252.6006 -8.0717669
-87.377831 -252.6015 -8.7894897
-93.372192 -252.70645 -8.885787
-98.469467 -252.74217 -9.1129084
-86.765823 -252.78528 -9.3123655
-98.606346 -252.76683 -9.5572062
-92.698318 -252.7648 -9.4788857
-86.975967 -252.69403 -9.4170609
-87.308197 -252.60495 -9.7433491
-91.710976 -252.75159 -10.186586
-91.480141 -252.7226 -10.356318
-91.96991 -252.62704 -10.481722
-92.267021 -252.69473 -10.805653
-98.648277 -252.78311 -11.121472
-98.541153 -252.7486 -11.11376
-87.518036 -252.79047 -11.002594
-85.972603 -252.74321 -12.336896
-98.314308 -252.74753 -14.162094
-98.570206 -252.62648 -14.748744
-98.531593 -252.63855 -15.06691
-98.450241 -252.71356 -15.490248
-98.74472 -252.77002 -15.902128
-98.508659 -252.71509 -16.228127
-98.568275 -252.67018 -16.51494
-98.849892 -252.79286 -16.777493
-89.317841 -252.43901 -7.572351
-84.621582 -252.51505 -7.4735088
-84.238022 -252.45331 -7.4785538
-83.81279 -252.49387 -7.4724002
-82.086227 -252.41382 -7.4061451
-85.444496 -252.59441 -11.367655
-98.494118 -252.55438 -15.044151
-98.536125 -252.56775 -16.259556
-86.336182 -252.31833 -7.4488301
-85.351456 -252.3203 -7.4887409
-82.160912 -252.32297 -7.4337959
-81.939194 -252.2937 -7.4507308
-80.985031 -252.28177 -7.598691
-93.42881 -252.31097 -7.7580299
-90.585381 -252.34608 -7.625237
-99.319908 -252.24277 -7.8385339
-87.348 -252.36263 -8.7852182
-87.820221 -252.28058 -9.912034
-92.724777 -252.27826 -10.29894
-85.401276 -252.23459 -10.454836
-86.991783 -252.22092 -13.208425
-82.317062 -252.18742 -7.401309
-81.846313 -252.11716 -7.4087148
-80.502594 -252.05338 -7.6172309
-85.277779 -252.19823 -9.761322
-85.13073 -252.07214 -10.279999
-85.495163 -252.1306 -11.743154
-83.71904 -251.90691 -7.4460258
-99.430107 -251.86855 -7.762732
-99.787354 -251.84723 -7.910779
-99.853729 -251.85303 -8.0056419
-85.356308 -251.90947 -9.9597149
-85.338173 -251.88861 -10.998028
-93.469246 -251.88803 -11.293353
-92.944382 -251.89529 -11.395962
-87.768036 -251.88281 -11.763321
-81.332184 -251.71263 -7.4892268
-85.256241 -251.69699 -10.709113
-91.876183 -251.63219 -10.84551
-88.089355 -251.79684 -11.315168
-92.165642 -251.6019 -12.690204
-91.958611 -251.67404 -12.630714
-86.221664 -251.47586 -7.3404779
-88.196648 -251.44777 -7.4923592
-95.294548 -251.44244 -7.7923431
-91.897636 -251.58183 -7.650764
-88.261986 -251.48865 -11.310194
-89.375168 -251.4323 -11.91087
-86.683144 -251.26207 -7.440547
-81.071274 -251.24924 -7.4372921
-94.274017 -251.31435 -7.8041649
-86.172073 -251.39949 -9.3825808
-94.318222 -251.20248 -10.442466
-89.249329 -251.29489 -11.122519
-89.256126 -251.38521 -11.285939
-87.393143 -251.31059 -12.168177
-86.859474 -251.27185 -12.399541
-91.62941 -251.33517 -12.680545
-83.417976 -251.12703 -7.381104
-87.449463 -251.00755 -7.4264398
-87.092743 -251.00223 -7.4398232
-95.269989 -251.00584 -7.7612662
-91.493721 -251.18431 -10.654476
-89.073372 -251.13773 -12.23112
-92.215286 -251.09731 -13.338032
-86.630493 -250.90042 -7.4122958
-91.649422 -250.92809 -7.629415
-86.639557 -250.88043 -9.7478104
-95.075668 -250.8663 -10.662912
-91.881485 -250.86104 -12.058641
-87.512352 -250.81247 -12.005856
-86.727554 -250.67032 -7.4035282
-95.585892 -250.61682 -7.7945938
-91.528267 -250.73672 -7.6466031
-86.992554 -250.64221 -11.05555
-85.549911 -250.55917 -7.388608
-82.05291 -250.54134 -7.32517
-85.352348 -250.55035 -7.4370222
-96.56955 -250.55028 -7.804719
-87.891975 -250.59618 -9.7198896
-86.244171 -250.56572 -10.551086
-95.0634 -250.44858 -10.808392
-98.954727 -250.54433 -12.572016
-85.444664 -250.22266 -7.3849301
-82.310509 -250.25586 -7.2759991
-81.131607 -250.26134 -7.2924538
-85.344086 -250.2095 -7.4205632
-97.753761 -250.39061 -7.717495
-96.512833 -250.21556 -7.7815681
-94.339577 -250.24043 -7.7855949
-90.373596 -250.22537 -10.98229
-91.602486 -250.22598 -11.185005
-91.711258 -250.28078 -12.181271
-84.555084 -250.17401 -7.3699942
-83.905106 -250.12021 -7.3560228
-96.997864 -250.05002 -7.790545
-87.411003 -250.16817 -11.524906
-87.523766 -250.009 -12.948348
-86.438988 -249.83066 -7.3853889
-83.402229 -249.87663 -7.3176708
-82.624573 -249.93326 -7.3479781
-92.437256 -249.83965 -8.4905224
-92.241913 -249.94421 -8.8590717
-92.970413 -249.80357 -9.0630054
-86.893768 -249.82433 -9.3331604
-85.93779 -249.96904 -10.002184
-91.315292 -249.92543 -10.688405
-90.923164 -249.97952 -11.179174
-96.751083 -249.85733 -12.252076
-87.006645 -249.70955 -7.5151629
-85.028465 -249.73352 -7.402566
-98.324104 -249.69762 -7.7284741
-85.723755 -249.66919 -8.5099592
-87.754814 -249.61134 -8.8457508
-87.258636 -249.7179 -9.6848555
-92.710983 -249.71278 -9.8907146
-90.701736 -249.72629 -10.323966
-91.98658 -249.61343 -10.525535
-94.940918 -249.71979 -10.683804
-91.87011 -249.76788 -10.957108
-87.39006 -249.68185 -11.062177
-87.877426 -249.65489 -11.795301
-97.403748 -249.66129 -11.918622
-97.347473 -249.79868 -12.315762
-88.481865 -249.72762 -12.22688
-97.643829 -249.65736 -12.497561
-96.742767 -249.694 -12.661036
-87.551727 -249.65497 -12.699709
-89.694748 -249.64417 -12.8716
-89.257446 -249.67627 -12.872334
-96.644226 -249.70396 -13.233932
-85.77002 -249.51605 -7.376245
-85.464737 -249.49503 -7.356998
-98.982391 -249.50505 -7.7441978
-87.048462 -249.45221 -7.797843
-85.355515 -249.50121 -9.5706234
-92.162117 -249.54976 -9.8707714
-86.192177 -249.4745 -9.9995031
-86.296036 -249.43346 -10.506803
-86.558838 -249.51901 -10.654383
-87.786346 -249.43207 -10.978253
-87.444748 -249.40915 -10.911351
-87.07653 -249.53139 -11.664125
-93.73584 -249.5278 -11.836571
-89.85836 -249.4209 -11.866012
-96.848358 -249.5425 -12.557547
-96.73159 -249.54317 -12.616098
-90.964096 -249.43726 -12.673891
-89.535431 -249.5845 -12.710665
-86.691841 -249.5874 -12.704796
-96.852509 -249.5036 -12.812416
-89.581276 -249.52199 -12.999561
-88.52388 -249.51956 -12.930376
-97.659912 -249.42381 -13.092278
-89.576469 -249.53961 -13.066879
-88.942337 -249.53357 -13.106731
-88.71772 -249.58641 -13.254604
-91.841827 -249.45055 -13.970436
-92.07016 -249.49622 -14.323618
-92.292938 -249.47522 -14.508675
-99.84906 -249.52988 -18.374889
-83.023087 -249.39088 -7.334384
-81.884125 -249.3488 -7.2652912
-90.527267 -249.38947 -7.5031071
-89.329582 -249.24306 -7.4803791
-88.522568 -249.25027 -7.4355202
-87.258949 -249.31866 -7.476295
-86.346771 -249.364 -7.421905
-99.136169 -249.38907 -7.708087
-96.188019 -249.21094 -7.783154
-90.866539 -249.28482 -7.6654978
-90.518532 -249.26764 -7.6969271
-90.052704 -249.31937 -7.63345
-87.269379 -249.29626 -7.7378268
-94.97567 -249.29254 -7.8961439
-92.700539 -249.29735 -8.1945896
-90.457222 -249.2189 -8.1632643
-92.851562 -249.34335 -8.2008791
-91.884064 -249.26483 -8.2543392
-86.574585 -249.35098 -8.296587
-94.9198 -249.22015 -8.57197
-85.613731 -249.2103 -9.0372992
-86.505257 -249.34637 -9.3494759
-95.021713 -249.26575 -9.5086956
-87.053795 -249.37642 -9.8308439
-86.840515 -249.36766 -9.8537235
-86.622643 -249.3269 -10.100512
-86.346359 -249.33313 -10.123549
-87.449928 -249.20744 -10.382712
-90.945801 -249.37697 -10.51064
-85.459518 -249.22838 -10.691641
-85.810173 -249.37073 -11.475824
-88.727798 -249.25858 -11.924528
-86.180443 -249.21609 -11.887459
-88.758102 -249.25519 -12.051534
-85.995834 -249.21146 -12.191244
-86.659576 -249.38673 -12.272532
-91.310837 -249.2438 -12.456249
-93.525185 -249.20845 -13.219572
-93.285469 -249.21027 -14.195694
-92.935059 -249.32286 -14.18049
-92.600388 -249.38623 -14.514408
-87.100838 -249.0666 -7.3322392
-82.056946 -249.10065 -7.28685
-89.05481 -249.09029 -7.442215
-87.257248 -249.15413 -7.539516
-99.797981 -249.01721 -7.71911
-90.452774 -249.06635 -7.7421732
-89.287056 -249.1048 -7.919312
-89.140747 -249.09224 -7.8838429
-88.540482 -249.07841 -7.8715482
-92.484268 -249.13818 -8.0832291
-87.145798 -249.00073 -8.2414379
-92.952118 -249.05096 -8.4559402
-86.449432 -249.04398 -8.6228943
-95.257538 -249.01151 -8.8890324
-95.070679 -249.0761 -8.8368082
-86.66037 -249.1201 -9.1716986
-86.63739 -249.17029 -9.3156166
-87.016815 -249.0377 -9.8662262
-85.283691 -249.18927 -9.9224339
-93.373352 -249.15378 -10.182125
-95.870804 -249.11734 -11.144844
-93.383186 -249.00931 -11.172643
-94.480743 -249.02707 -11.348944
-94.314392 -249.15295 -11.300513
-91.605286 -249.04688 -11.672626
-91.516327 -249.02795 -11.786501
-86.279259 -249.10347 -11.687218
-85.545273 -249.08322 -11.646873
-88.283936 -249.03537 -11.837972
-86.168953 -249.08087 -11.931931
-85.782692 -249.0166 -12.039063
-86.273949 -249.14481 -12.265952
-91.634781 -249.18375 -12.465639
-90.709251 -249.04146 -12.660048
-87.106468 -249.17883 -13.289165
-92.710083 -249.06778 -14.831505
-85.298569 -248.89163 -7.3417139
-90.905167 -248.88078 -7.5596142
-89.752518 -248.86891 -7.56955
-88.135147 -248.91916 -7.5146322
-92.958138 -248.87981 -7.8753619
-89.57341 -248.80722 -8.4061251
-93.215691 -248.90961 -8.8257799
-97.393173 -248.80568 -9.4883165
-97.468872 -248.84528 -9.6403637
-86.301361 -248.86279 -9.666584
-92.920219 -248.8942 -9.9843903
-97.40538 -248.81946 -10.203892
-92.221237 -248.98318 -10.466362
-87.250366 -248.88885 -10.637606
-86.141846 -248.87378 -10.772832
-87.601219 -248.83272 -10.992881
-96.320358 -248.99725 -11.18192
