# .PCD v0.7 - Point Cloud Data file format
VERSION 0.7
FIELDS x y z
SIZE 4 4 4
TYPE F F F
COUNT 1 1 1
WIDTH 1470
HEIGHT 1
VIEWPOINT 0 0 0 1 0 0 0
POINTS 1470
DATA ascii
-84.540108 -232.98943 -6.883575
-84.209702 -232.96982 -6.8780298
-83.826103 -232.97018 -6.869925
-83.689125 -232.86151 -6.8345661
-82.909805 -232.98816 -6.847836
-97.358864 -232.89554 -7.1476302
-93.673866 -232.84213 -7.115694
-93.328667 -232.9655 -7.0786991
-91.982529 -232.82407 -7.0043759
-93.735359 -232.82515 -7.3762288
-97.515015 -232.85677 -7.4756508
-94.091187 -232.98289 -7.4765821
-93.898582 -232.99895 -7.419899
-97.482269 -232.81345 -7.6793861
-94.503113 -232.81549 -7.6132822
-93.539146 -232.8674 -7.8170538
-93.818031 -232.96059 -8.0257492
-92.735626 -232.83556 -9.6442966
-92.478134 -232.89868 -9.7617512
-92.431976 -232.93875 -9.8388996
-94.038742 -232.96436 -10.040173
-92.604446 -232.99014 -10.037156
-96.889099 -232.93408 -10.246179
-93.511398 -232.83528 -10.362844
-92.924896 -232.92041 -10.217758
-97.459976 -232.83582 -10.525392
-96.978889 -232.86475 -10.432425
-95.135078 -232.96245 -10.499662
-93.521011 -232.85774 -10.499017
-97.724846 -232.90298 -10.6367
-93.02272 -232.95177 -11.308722
-96.224701 -232.99803 -11.65408
-93.736725 -232.91916 -11.7488
-94.10704 -232.88892 -11.836357
-93.12236 -232.96796 -12.096066
-96.921844 -232.8788 -12.349493
-96.738487 -232.96651 -12.462175
-96.965271 -232.99309 -12.730095
-96.978775 -232.88882 -12.837004
-86.02285 -232.8763 -13.483683
-83.031769 -232.71999 -6.7997088
-81.807472 -232.63538 -6.781826
-81.380516 -232.63484 -6.7594929
-80.652939 -232.60686 -6.74613
-80.562111 -232.70277 -6.727654
-93.007812 -232.62332 -6.9484649
-92.819191 -232.7912 -6.9626999
-91.318794 -232.62509 -6.9974952
-90.917213 -232.69077 -6.9508128
-88.097504 -232.65375 -6.9117169
-87.406769 -232.69392 -6.9079418
-86.999786 -232.7226 -6.8950338
-86.156868 -232.69078 -6.8883958
-85.330391 -232.77142 -6.8844008
-85.063446 -232.67352 -6.8980451
-84.894882 -232.67119 -6.880002
-84.711189 -232.64191 -6.8729749
-83.339745 -232.64349 -6.8394399
-82.638596 -232.647 -6.8164291
-82.254913 -232.7522 -6.8091321
-93.827354 -232.68823 -7.112793
-93.539352 -232.72217 -7.0853472
-92.092659 -232.65599 -7.0197172
-91.73761 -232.67072 -7.0210652
-93.727585 -232.69318 -7.301702
-93.519348 -232.73407 -7.3368788
-97.384605 -232.70392 -7.5324812
-94.630943 -232.7536 -7.581758
-97.360657 -232.63377 -7.7488909
-93.863815 -232.62669 -7.6261988
-94.156174 -232.69206 -7.8015928
-99.702988 -232.60513 -8.1907063
-97.362068 -232.63197 -8.1389465
-97.393349 -232.6505 -8.4992085
-97.397202 -232.6803 -8.7661982
-97.364624 -232.63812 -8.9206152
-97.531326 -232.76225 -9.1793833
-92.260391 -232.70538 -9.0594645
-97.341103 -232.64473 -9.3900185
-92.820541 -232.63855 -9.3479385
-97.435928 -232.79208 -9.5428514
-97.355515 -232.69048 -9.5161152
-92.833717 -232.75798 -9.5176945
-92.747498 -232.73796 -9.5187492
-97.414764 -232.76405 -9.7388706
-97.36335 -232.65976 -9.7930174
-92.629631 -232.77463 -9.618701
-92.58606 -232.73856 -9.679224
-97.429199 -232.72856 -9.8539495
-97.337837 -232.62753 -9.8241959
-92.865898 -232.7569 -9.9284515
-92.603302 -232.75394 -9.8524456
-92.576912 -232.69867 -9.8148537
-97.414436 -232.77205 -10.074273
-92.979156 -232.76993 -10.037261
-97.312431 -232.75684 -10.261005
-97.149963 -232.70721 -10.246754
-96.980011 -232.61943 -10.232511
-93.491127 -232.6526 -10.26263
-93.516289 -232.76707 -10.422621
-97.313019 -232.61505 -10.709978
-97.399216 -232.74414 -11.122858
-97.377098 -232.72536 -11.235088
-97.299957 -232.66986 -11.671479
-96.199142 -232.68512 -11.723333
-97.303551 -232.74747 -12.127575
-96.995865 -232.73224 -12.256008
-96.916687 -232.70779 -12.701747
-85.130638 -232.74493 -14.148039
-90.148911 -232.76048 -14.340593
-82.611618 -232.54269 -6.7921638
-82.122818 -232.55983 -6.7895622
-80.996437 -232.56178 -6.752429
-80.24794 -232.57788 -6.7665272
-92.712097 -232.59669 -6.9637618
-91.295303 -232.51978 -6.9706311
-90.925697 -232.49596 -6.96663
-90.707581 -232.53009 -6.9609122
-90.290077 -232.55257 -6.9552641
-89.911179 -232.48691 -6.947989
-89.700012 -232.43105 -6.9311428
-89.50795 -232.47858 -6.9213762
-88.983505 -232.54593 -6.910871
-88.592873 -232.58597 -6.914814
-87.70771 -232.59576 -6.9127002
-87.478058 -232.45372 -6.8858442
-87.05011 -232.53412 -6.8650532
-86.83683 -232.55052 -6.9045701
-86.745995 -232.53148 -6.8889632
-85.696487 -232.53455 -6.8560882
-85.4711 -232.50343 -6.8737192
-84.857101 -232.51015 -6.8843288
-84.21167 -232.57289 -6.8550072
-83.67305 -232.58353 -6.8451748
-83.051895 -232.53055 -6.8263788
-93.734612 -232.46933 -7.1581082
-93.515152 -232.57292 -7.0708661
-94.244217 -232.5423 -7.3008289
-99.687149 -232.5867 -7.473381
-99.685486 -232.59653 -7.9293742
-97.30088 -232.48956 -8.0653896
-97.328506 -232.47464 -8.3209743
-99.678528 -232.58238 -8.4871006
-97.308823 -232.4852 -8.4326897
-99.699966 -232.54448 -8.9750443
-92.397736 -232.52025 -8.8911438
-92.70752 -232.47321 -9.1463985
-97.358414 -232.56693 -9.3560076
-92.722397 -232.49203 -9.3547382
-99.681137 -232.55138 -9.4753323
-97.31826 -232.50203 -9.414258
-92.717789 -232.55426 -9.4848347
-99.666023 -232.54472 -9.9602499
-97.332031 -232.50027 -9.8290339
-97.120361 -232.45241 -9.9339304
-93.500916 -232.42078 -9.90378
-99.686768 -232.53864 -10.064924
-96.763451 -232.46138 -10.207596
-99.638191 -232.52888 -10.485601
-96.937759 -232.59819 -10.437501
-96.677567 -232.52795 -10.462129
-96.042953 -232.44914 -11.378675
-95.977478 -232.41682 -11.424532
-96.154541 -232.43948 -12.112663
-96.583809 -232.51863 -12.592619
-83.559402 -232.56841 -12.763372
-97.25872 -232.45078 -12.914466
-84.207581 -232.49187 -14.694502
-97.297256 -232.49994 -15.245632
-84.624435 -232.51103 -16.011297
-82.504257 -232.24442 -6.7910342
-81.751984 -232.24202 -6.7628698
-93.649094 -232.36212 -6.9704628
-93.43615 -232.3237 -6.9459791
-92.912247 -232.39682 -6.9862309
-90.549469 -232.35349 -6.9559498
-90.300743 -232.21205 -6.9172678
-90.104286 -232.36514 -6.967227
-89.88913 -232.27213 -6.9504752
-88.938911 -232.32782 -6.8990378
-88.582703 -232.26472 -6.9041629
-88.256485 -232.27319 -6.8937311
-87.81884 -232.23428 -6.890605
-87.499779 -232.25687 -6.887517
-87.04184 -232.32288 -6.870111
-86.127251 -232.23796 -6.861258
-84.951309 -232.29352 -6.8580489
-84.098679 -232.29517 -6.8385148
-82.901497 -232.31882 -6.8074088
-93.342239 -232.21605 -7.026278
-92.87719 -232.3652 -7.0012012
-91.933784 -232.21057 -7.0712399
-91.749214 -232.25513 -7.0651021
-91.38385 -232.28757 -7.0079918
-90.906578 -232.30058 -7.0095992
-90.534653 -232.25813 -7.32796
-97.31076 -232.31686 -7.511272
-92.021553 -232.20494 -7.401752
-97.349434 -232.29399 -7.7132182
-97.380081 -232.2692 -8.1904087
-97.341019 -232.35947 -8.3356018
-97.408646 -232.25894 -8.4734545
-97.341362 -232.37973 -8.4641724
-97.480225 -232.2276 -8.750988
-97.365395 -232.37662 -8.7215223
-97.427025 -232.26282 -8.8831024
-97.366936 -232.35596 -8.8610497
-92.535728 -232.30948 -9.1564226
-97.475395 -232.27017 -9.3483877
-97.367409 -232.3777 -9.3329344
-92.67157 -232.32054 -9.3661318
-92.53833 -232.37126 -9.2352715
-92.703934 -232.34973 -9.4098291
-97.417839 -232.23061 -9.797658
-97.370033 -232.35719 -9.7264795
-97.24942 -232.37595 -9.8891582
-93.521889 -232.39783 -9.8720207
-97.072655 -232.2263 -10.125919
-94.559456 -232.20395 -10.361101
-97.366882 -232.22263 -10.454314
-97.672363 -232.23505 -11.009355
-95.83255 -232.27045 -11.340498
-97.516464 -232.26421 -11.416882
-97.450821 -232.32448 -11.663204
-95.94519 -232.21472 -11.64547
-83.942009 -232.28947 -12.606676
-97.341675 -232.3378 -13.014512
-97.238464 -232.31148 -14.95774
-97.137833 -232.3214 -15.414328
-97.055679 -232.30847 -15.702301
-83.831268 -232.18532 -6.7983732
-83.48259 -232.07076 -6.7864141
-82.917252 -232.10559 -6.7941041
-82.51812 -232.01326 -6.7662821
-82.230453 -232.16458 -6.772131
-81.828918 -232.11595 -6.711905
-81.333542 -232.13086 -6.7440138
-80.972626 -232.10953 -6.7288718
-80.571007 -232.19739 -6.7578449
-80.112831 -232.14943 -6.7761312
-91.088028 -232.1669 -6.9690108
-90.685333 -232.01666 -6.9962711
-90.522171 -232.04488 -6.9295421
-90.310303 -232.17853 -6.9229479
-90.18602 -232.06406 -6.9318199
-89.896812 -232.07321 -6.9085002
-89.29187 -232.09164 -6.899828
-88.685059 -232.19284 -6.895865
-87.895782 -232.13315 -6.8807549
-86.587753 -232.17102 -6.861701
-85.778992 -232.1333 -6.8562889
-85.385017 -232.14893 -6.857296
-84.593582 -232.14188 -6.8464551
-83.797806 -232.14131 -6.827065
-83.389038 -232.19759 -6.8187099
-97.3377 -232.14574 -7.1493101
-96.869804 -232.11194 -7.115438
-96.482552 -232.04254 -7.1374121
-96.164581 -232.05515 -7.0954781
-95.756081 -232.03711 -7.1165972
-95.412048 -232.05939 -7.1704769
-94.578079 -232.05301 -7.08144
-94.245522 -232.0882 -7.0146618
-93.81488 -232.08197 -7.0186501
-92.883835 -232.19785 -7.0730419
-92.670639 -232.14859 -7.0879459
-92.290848 -232.14407 -7.1250768
-91.925255 -232.15706 -7.1037598
-91.439575 -232.1102 -7.1082978
-91.331436 -232.09875 -7.0756302
-91.136276 -232.0383 -7.037396
-90.921722 -232.11598 -7.0700622
-90.673065 -232.08005 -7.0424318
-90.358185 -232.05353 -7.160213
-97.023468 -232.02467 -7.3544259
-95.751724 -232.07449 -7.2951531
-95.348892 -232.05882 -7.3230348
-95.056694 -232.03632 -7.3040709
-94.568504 -232.02879 -7.332273
-94.206635 -232.18729 -7.3641958
-94.170135 -232.09894 -7.2787142
-93.828339 -232.02136 -7.3236108
-93.400177 -232.05371 -7.3276501
-92.949791 -232.07005 -7.338665
-92.517982 -232.07428 -7.3783512
-92.223236 -232.09558 -7.3828592
-91.836487 -232.09135 -7.3708191
-91.455757 -232.05412 -7.3951669
-90.566986 -232.1044 -7.3042178
-90.286209 -232.01587 -7.34899
-96.649475 -232.04251 -7.4517708
-91.63575 -232.17911 -7.4255199
-91.132507 -232.06998 -7.4156842
-97.477303 -232.18033 -8.1809778
-92.57103 -232.07788 -8.8802233
-92.524567 -232.12155 -9.108963
-94.649132 -232.11348 -10.478855
-97.371658 -232.1073 -11.064846
-95.643471 -232.17758 -11.04041
-97.63942 -232.14738 -11.434671
-96.036499 -232.04565 -11.793688
-96.120819 -232.04933 -11.8626
-96.076195 -232.19873 -12.080479
-93.830177 -232.01167 -12.662423
-88.818161 -232.1429 -12.631637
-97.674347 -232.05911 -14.605989
-82.588127 -231.86331 -6.7832518
-82.227371 -231.85188 -6.7685089
-81.82576 -231.8053 -6.7525511
-81.056458 -231.94904 -6.7185831
-80.566154 -231.9306 -6.7534051
-90.45105 -231.95262 -6.963593
-90.252808 -231.93445 -6.949111
-90.022652 -231.85995 -6.9554482
-89.993164 -231.95259 -6.9129739
-89.570724 -231.82054 -6.9408989
-89.016914 -231.80513 -6.8986959
-88.967026 -231.94829 -6.8771081
-88.21402 -231.81497 -6.8681078
-87.770248 -231.88678 -6.8717508
-87.004333 -231.87405 -6.85043
-86.222153 -231.80798 -6.8382411
-85.754669 -231.82709 -6.8424239
-84.260719 -231.83437 -6.8411722
-83.792686 -231.90588 -6.8097482
-83.143967 -231.90262 -6.8053789
-97.230476 -231.92589 -7.1625319
-97.020081 -231.94641 -7.1590228
-96.591446 -231.97966 -7.10116
-96.241707 -231.97879 -7.1342859
-95.992119 -231.94055 -7.0655141
-95.390381 -231.9592 -7.1518922
-95.101212 -231.95772 -7.0908389
-94.695251 -231.97446 -7.096683
-94.221794 -231.97687 -7.116735
-93.977928 -231.99622 -7.0342221
-90.266022 -231.88593 -7.0661812
-90.095795 -231.82344 -7.0456638
-89.92775 -231.85013 -7.0573888
-89.735741 -231.81238 -7.1946001
-97.962776 -231.93185 -7.243845
-93.4758 -231.95624 -7.396162
-90.516251 -231.98241 -7.3832898
-90.35247 -231.85616 -7.3698368
-90.042007 -231.86476 -7.3256741
-89.935982 -231.88261 -7.297874
-89.711731 -231.83725 -7.3254151
-98.519478 -231.84486 -7.5034528
-98.297592 -231.87405 -7.4745421
-97.274162 -231.88771 -7.5018172
-96.967773 -231.94687 -7.5210738
-96.24147 -231.86906 -7.5362992
-95.109169 -231.90128 -7.4608469
-94.724319 -231.93817 -7.4974952
-94.13295 -231.93822 -7.5195708
-93.68808 -231.85953 -7.5337038
-93.012451 -231.93625 -7.4681048
-92.710159 -231.97623 -7.4996138
-91.914467 -231.88837 -7.558825
-91.422607 -231.96201 -7.481709
-90.981758 -231.92101 -7.522243
-90.679688 -231.91095 -7.4622278
-90.477676 -231.93359 -7.4472051
-90.385002 -231.8067 -7.5771971
-90.03521 -231.83028 -7.4994421
-99.428169 -231.83862 -7.6127558
-97.014465 -231.95462 -7.6430349
-96.625412 -231.86401 -7.641943
-93.000244 -231.82376 -8.7610359
-92.63826 -231.81856 -8.7216568
-93.237534 -231.95499 -8.8273239
-93.133507 -231.96045 -8.8135777
-92.63739 -231.99446 -8.8237753
-92.506081 -231.95978 -8.8159962
-92.523117 -231.93915 -9.0716658
-97.680603 -231.84399 -9.512948
-97.641808 -231.91364 -9.7862768
-97.545097 -231.85916 -9.7785988
-97.141884 -231.91322 -9.7723789
-97.328644 -231.86774 -10.64366
-94.768372 -231.87627 -10.743588
-97.421646 -231.94534 -11.121183
-95.887466 -231.88004 -11.167194
-95.861916 -231.88773 -11.317585
-95.762939 -231.90605 -11.274868
-97.540276 -231.94731 -11.405157
-96.009171 -231.84435 -11.496373
-95.921036 -231.85001 -11.490875
-96.069153 -231.90439 -11.660837
-94.596313 -231.8519 -12.575106
-90.546577 -231.9286 -13.658816
-83.722633 -231.71179 -6.7877588
-83.326645 -231.71114 -6.7921271
-82.96479 -231.75119 -6.7908649
-81.452728 -231.77151 -6.7394462
-81.227928 -231.68263 -6.7076249
-80.987366 -231.75256 -6.740407
-80.23526 -231.77322 -6.7670012
-89.695641 -231.72934 -6.9931369
-89.265045 -231.6855 -6.936296
-89.086464 -231.75079 -6.91155
-88.564087 -231.69403 -6.8899951
-87.426353 -231.76962 -6.8541322
-86.523674 -231.78514 -6.838017
-85.421753 -231.7218 -6.8381252
-85.097771 -231.74634 -6.8377228
-84.509651 -231.76491 -6.8257751
-83.661377 -231.71167 -6.8235531
-83.46476 -231.79691 -6.8073192
-90.078293 -231.79085 -7.146883
-89.812965 -231.76868 -7.0831261
-89.681473 -231.70712 -7.145472
-89.527023 -231.66927 -7.1052971
-89.32309 -231.63223 -7.135118
-89.84462 -231.73633 -7.3691149
-89.69294 -231.74225 -7.2736082
-89.521271 -231.74718 -7.290113
-89.208633 -231.67035 -7.3351812
-99.724716 -231.71613 -7.5458012
-99.511635 -231.74594 -7.5797238
-96.556702 -231.7749 -7.5433631
-95.763245 -231.77248 -7.522788
-95.293724 -231.79349 -7.5485568
-90.261086 -231.71472 -7.5432582
-89.96199 -231.70654 -7.4211721
-89.512955 -231.71805 -7.4196572
-99.009399 -231.74966 -7.6097021
-96.289078 -231.70988 -7.628581
-90.867531 -231.64832 -7.6613679
-90.738098 -231.72632 -7.628274
-92.569336 -231.64359 -8.5793667
-92.608101 -231.78339 -8.7557344
-92.528503 -231.74281 -8.719902
-92.488625 -231.62321 -8.8078775
-92.578918 -231.78778 -9.0805483
-88.25985 -231.67757 -9.9354982
-88.754669 -231.64578 -10.168043
-88.830734 -231.70625 -10.219172
-88.716263 -231.7627 -10.280274
-97.150833 -231.77888 -10.664677
-96.044312 -231.77203 -11.372032
-95.780167 -231.74913 -11.335337
-85.47908 -231.40892 -6.7828279
-83.309814 -231.43292 -6.7915201
-82.162392 -231.51445 -6.7543221
-81.521759 -231.5592 -6.6984868
-81.343109 -231.45743 -6.7144022
-80.546707 -231.48093 -6.7548008
-80.10025 -231.53955 -6.7719512
-89.292603 -231.49927 -6.988884
-89.052925 -231.48212 -6.9797359
-88.928467 -231.46021 -6.9626918
-88.696899 -231.56464 -6.9021749
-88.183609 -231.42416 -6.8654752
-87.6912 -231.52121 -6.8428259
-86.614403 -231.45003 -6.8206511
-84.91433 -231.43057 -6.8235168
-84.518295 -231.48254 -6.8372831
-84.1091 -231.46487 -6.8096509
-83.588493 -231.52095 -6.8050771
-89.278374 -231.49753 -7.1035209
-89.058319 -231.4567 -7.0582218
-88.95369 -231.46544 -7.0891628
-89.291878 -231.51079 -7.326015
-89.111969 -231.42319 -7.3096409
-88.85347 -231.41792 -7.226428
-89.692184 -231.5285 -7.472765
-90.812424 -231.58038 -7.6754718
-90.798866 -231.56639 -7.6814942
-92.540207 -231.54456 -8.5796938
-92.495743 -231.52136 -8.6911364
-88.603241 -231.50952 -9.9326363
-88.280487 -231.51924 -9.9087753
-88.764954 -231.5083 -10.189552
-88.282959 -231.49602 -10.035516
-89.287033 -231.40836 -10.741262
-96.068283 -231.52724 -11.093491
-95.947784 -231.55087 -11.164114
-95.891579 -231.58327 -11.230217
-94.484253 -231.54112 -12.394817
-86.287262 -231.29875 -6.78688
-84.1884 -231.36456 -6.7955499
-83.817612 -231.36655 -6.793539
-82.887291 -231.34262 -6.780005
-82.779579 -231.3221 -6.77913
-82.506706 -231.36469 -6.7639751
-81.758682 -231.3204 -6.7327271
-81.427628 -231.39523 -6.7227669
-81.337341 -231.35017 -6.703155
-81.092644 -231.33357 -6.7202229
-80.928787 -231.21259 -6.6765008
-80.679497 -231.25368 -6.688189
-80.534164 -231.32774 -6.708714
-80.306503 -231.30505 -6.6979642
-80.151405 -231.23369 -6.6846442
-88.672035 -231.35556 -6.9291811
-88.428017 -231.27264 -6.9072762
-88.331284 -231.36438 -6.8936582
-88.105713 -231.3382 -6.8803248
-87.487411 -231.32172 -6.8608389
-87.356522 -231.33588 -6.8373361
-87.007332 -231.29898 -6.8429918
-86.993774 -231.25563 -6.8354239
-86.591736 -231.25864 -6.821466
-86.10508 -231.38742 -6.8209209
-85.353539 -231.39159 -6.8181601
-84.650764 -231.28058 -6.8207021
-83.774445 -231.21425 -6.8033748
-89.126434 -231.35005 -7.1587229
-88.938095 -231.35791 -7.0833149
-88.63591 -231.31125 -7.1124249
-88.566422 -231.34329 -7.1661639
-89.086708 -231.39038 -7.3381939
-88.821358 -231.37349 -7.3242741
-88.733452 -231.33403 -7.328136
-92.539574 -231.28864 -8.3533993
-92.556274 -231.36592 -8.4215059
-91.50209 -231.23264 -8.453783
-92.558029 -231.34348 -8.6804466
-92.576973 -231.39804 -8.8017788
-91.265701 -231.29787 -9.0002966
-89.369888 -231.32193 -9.9278297
-89.409058 -231.34065 -10.04777
-88.68734 -231.24582 -10.095121
-89.929703 -231.20969 -10.2455
-88.926605 -231.31895 -10.384802
-88.789612 -231.27499 -10.544006
-88.820274 -231.23367 -10.605843
-89.424492 -231.3595 -10.818657
-88.73735 -231.24081 -11.903303
-94.327995 -231.2673 -12.272043
-86.584076 -231.03629 -6.780704
-84.494171 -231.04388 -6.796257
-83.878891 -231.05768 -6.7862239
-82.963203 -231.05432 -6.7607908
-82.114944 -231.05643 -6.7336268
-80.167496 -231.08456 -6.6633949
-88.918106 -231.16995 -6.9718232
-88.653259 -231.18213 -6.9796691
-88.520599 -231.01581 -6.9286442
-88.251495 -231.11765 -6.9058309
-87.954422 -231.06583 -6.8471122
-87.472565 -231.07622 -6.832727
-87.082718 -231.15579 -6.829042
-85.816971 -231.07092 -6.8127499
-85.120422 -231.05942 -6.8069329
-84.628464 -231.00194 -6.820899
-88.730026 -231.18721 -7.0060072
-88.520363 -231.04135 -7.090549
-88.709106 -231.06445 -7.2220788
-88.457512 -231.15326 -7.3051229
-91.479462 -231.08398 -8.0950279
-91.322159 -231.01236 -8.0395069
-92.654327 -231.19487 -8.2616167
-92.477119 -231.05351 -8.3269701
-91.423004 -231.15021 -8.3165092
-91.354416 -231.1077 -8.2959452
-92.513733 -231.01602 -8.4905605
-91.478897 -231.13101 -8.425128
-92.614975 -231.08572 -8.685667
-92.572998 -231.12949 -8.6690788
-91.337486 -231.04034 -8.6566334
-91.405609 -231.15663 -8.8347092
-89.875916 -231.07121 -9.8230829
-89.726173 -231.0976 -9.8244476
-88.693703 -231.10162 -9.9861746
-89.392334 -231.10553 -10.108444
-88.65947 -231.07916 -10.107228
-90.052063 -231.08966 -10.345589
-89.991959 -231.04515 -10.413712
-88.926628 -231.02556 -10.459226
-88.692535 -231.12756 -10.683954
-88.732285 -231.00587 -11.379131
-88.820152 -231.12518 -11.676077
-88.730774 -231.14651 -11.692722
-94.426163 -231.08786 -12.025066
-94.345329 -231.11374 -12.05192
-87.100876 -231.00998 -12.051466
-87.582993 -230.89189 -6.7972288
-86.251251 -230.92146 -6.7837381
-85.96698 -230.80331 -6.7943621
-85.341858 -230.9548 -6.7786312
-85.008972 -230.98621 -6.7946482
-84.245811 -230.92126 -6.7796068
-83.449036 -230.98169 -6.7840791
-82.632591 -230.96524 -6.754158
-81.744011 -230.92271 -6.7036762
-81.379288 -230.99588 -6.7021408
-80.957443 -230.93623 -6.6891999
-80.51281 -230.9003 -6.6741228
-88.483528 -230.85852 -6.9873958
-88.282928 -230.91284 -6.9774809
-87.834618 -230.97133 -6.8301191
-87.784958 -230.90656 -6.8477669
-87.471924 -230.88608 -6.8177938
-87.224045 -230.88638 -6.8426709
-87.080261 -230.91455 -6.8270378
-86.644592 -230.98457 -6.8101511
-86.156448 -230.9955 -6.8027048
-85.393234 -230.94467 -6.8087931
-84.381172 -230.914 -6.8031611
-88.694366 -230.96716 -7.001071
-88.299652 -230.92604 -7.11377
-88.199905 -230.83061 -7.1096511
-88.666206 -230.94957 -7.3417449
-88.552902 -230.90439 -7.2692041
-88.3452 -230.88046 -7.2966251
-88.103836 -230.83981 -7.30898
-88.850815 -230.97501 -7.5358968
-88.695549 -230.9325 -7.4540019
-88.457359 -230.93784 -7.547884
-88.290268 -230.87561 -7.427484
-91.321831 -230.90939 -7.7634602
-88.821106 -230.94867 -7.780839
-88.777451 -230.89935 -7.6695228
-88.509514 -230.9068 -7.728415
-88.308731 -230.86606 -7.662756
-91.310898 -230.91855 -7.9265079
-88.671234 -230.92807 -7.9706941
-88.543198 -230.92403 -7.9076328
-88.323784 -230.82227 -7.8286829
-91.293335 -230.84482 -8.125885
-88.695869 -230.86371 -8.0076494
-88.55571 -230.85977 -8.0761557
-91.362961 -230.8912 -8.2851763
-91.288284 -230.96571 -8.6551723
-90.083344 -230.9968 -9.847681
-93.829666 -230.81747 -10.025944
-93.793045 -230.80205 -10.070168
-88.746513 -230.90544 -10.068016
-93.824219 -230.83832 -10.239323
-89.961731 -230.9823 -10.334911
-88.979797 -230.97394 -10.248123
-88.286324 -230.86081 -10.302433
-88.92012 -230.9838 -10.581
-93.971405 -230.81787 -10.674564
-89.375763 -230.96066 -10.660026
-88.292908 -230.88226 -10.759325
-87.828125 -230.91884 -10.728945
-87.760185 -230.92491 -10.761761
-94.026733 -230.81508 -10.995846
-87.855446 -230.96182 -10.888412
-94.310883 -230.92255 -11.793684
-87.400009 -230.90842 -11.812689
-86.852417 -230.65051 -6.783875
-86.143433 -230.61426 -6.7782431
-85.921143 -230.67854 -6.770709
-85.733231 -230.66275 -6.7848029
-84.182571 -230.65848 -6.78336
-83.820564 -230.60068 -6.7744298
-83.278885 -230.60349 -6.757308
-82.643028 -230.62001 -6.7294998
-81.810356 -230.73212 -6.7068629
-80.881493 -230.68677 -6.6683631
-80.208946 -230.6293 -6.6485462
-88.224228 -230.7491 -6.9554319
-88.097626 -230.68782 -6.9051061
-87.651176 -230.64856 -6.8080692
-87.540741 -230.66948 -6.8646851
-87.39566 -230.7569 -6.8557272
-87.03566 -230.69586 -6.8473129
-84.544113 -230.68878 -6.8081841
-91.864563 -230.69591 -7.1934929
-88.286232 -230.63026 -7.0666752
-88.128311 -230.64253 -7.028883
-91.61953 -230.62085 -7.302949
-91.351715 -230.6503 -7.351068
-88.509048 -230.78827 -7.3810229
-88.353058 -230.73006 -7.2230482
-88.081459 -230.70425 -7.347733
-91.298637 -230.69815 -7.5712161
-88.47287 -230.66182 -7.5491958
-88.15654 -230.60376 -7.5121422
-91.262924 -230.70544 -7.6853051
-91.14048 -230.61252 -7.7588849
-88.348938 -230.66623 -7.7087221
-88.114449 -230.69177 -7.6955581
-91.110321 -230.66692 -7.9500828
-88.452515 -230.67155 -7.9498739
-88.312988 -230.72734 -7.9297361
-88.173912 -230.6552 -7.8669248
-92.430473 -230.72409 -8.1761446
-91.08844 -230.66132 -8.0512142
-88.657936 -230.65118 -8.0836487
-88.495819 -230.76456 -8.0378532
-88.578369 -230.64212 -8.2545843
-93.659607 -230.70195 -9.6611357
-93.518166 -230.64775 -9.7399216
-93.67881 -230.70972 -9.8608685
-89.813766 -230.65262 -9.8666906
-93.804604 -230.79942 -10.023025
-89.844391 -230.64807 -10.185891
-93.8172 -230.75893 -10.377947
-93.79364 -230.73732 -10.207993
-88.306061 -230.70062 -10.298035
-93.907654 -230.73306 -10.543386
-89.330437 -230.66505 -10.59284
-93.953819 -230.66695 -10.750162
-87.777718 -230.73993 -10.755898
-94.01458 -230.66516 -10.833878
-93.99472 -230.79109 -10.915749
-88.55455 -230.75732 -10.983795
-94.052322 -230.75232 -11.08677
-94.067429 -230.76465 -11.258233
-94.101646 -230.6526 -11.752019
-87.799286 -230.68459 -11.636698
-94.304993 -230.63599 -12.635372
-86.616722 -230.54997 -6.7849312
-85.608521 -230.40901 -6.7855368
-85.250244 -230.54276 -6.7775602
-84.934158 -230.58383 -6.7820568
-84.600433 -230.58464 -6.7729931
-83.036003 -230.57721 -6.750967
-82.305496 -230.54428 -6.715848
-81.890381 -230.52444 -6.6806989
-81.439743 -230.52856 -6.6858191
-80.620773 -230.58594 -6.666532
-88.223267 -230.57077 -6.992919
-88.092346 -230.48126 -6.966712
-87.908936 -230.50656 -6.928473
-87.411369 -230.55397 -6.8648381
-86.73497 -230.50421 -6.8324881
-91.318756 -230.4225 -7.199327
-88.079956 -230.51195 -7.0871172
-87.885223 -230.54056 -7.0828328
-91.344666 -230.47871 -7.3611369
-88.271622 -230.55344 -7.262351
-88.094925 -230.59306 -7.273087
-87.88266 -230.44704 -7.321116
-88.506378 -230.47717 -7.4414558
-88.315056 -230.42595 -7.4133868
-88.115646 -230.50325 -7.4710188
-87.90358 -230.42485 -7.4262638
-91.282433 -230.47803 -7.675117
-91.182266 -230.57687 -7.7772198
-88.058777 -230.49832 -7.7012591
-91.13887 -230.57706 -7.9319692
-91.085609 -230.58824 -8.0490646
-88.649422 -230.40596 -8.1775227
-88.300621 -230.50038 -8.0793505
-88.195656 -230.543 -8.0260754
-92.139725 -230.48315 -8.3024521
-88.810646 -230.57358 -8.2505426
-88.666672 -230.52435 -8.2561398
-88.537048 -230.54889 -8.2497864
-92.34549 -230.57596 -8.4881926
-92.917534 -230.41919 -8.7311602
-92.622406 -230.41248 -8.6342525
-93.440628 -230.5386 -9.3064833
-93.33194 -230.41628 -9.2172375
-93.479752 -230.57983 -9.4214087
-93.359169 -230.44595 -9.4068794
-89.741104 -230.5517 -9.8821507
-88.92038 -230.51093 -9.9606113
-88.47554 -230.496 -10.241629
-89.041138 -230.50632 -10.445831
-88.64119 -230.58716 -10.6224
-88.34523 -230.4731 -10.706753
-88.24646 -230.47754 -10.977325
-88.100098 -230.52054 -11.278697
-87.933189 -230.58836 -11.46705
-94.31031 -230.56732 -12.254295
-85.015503 -230.45158 -12.296106
-86.508316 -230.32104 -6.7761078
-85.823441 -230.27216 -6.767777
-85.709007 -230.3432 -6.7617922
-84.58976 -230.28281 -6.760818
-84.031792 -230.31117 -6.7506151
-83.782303 -230.2652 -6.760757
-83.51133 -230.39078 -6.7320571
-83.085442 -230.26732 -6.7420802
-82.929611 -230.23535 -6.7285442
-81.872429 -230.20314 -6.687078
-81.006485 -230.26251 -6.6638508
-80.085007 -230.282 -6.6208401
-88.277885 -230.37451 -6.975234
-88.153 -230.38464 -6.9142308
-87.759903 -230.36417 -6.9655981
-87.924232 -230.3037 -7.148428
-87.719276 -230.22163 -7.089076
-87.558685 -230.23029 -7.0376692
-91.352753 -230.28726 -7.270669
-87.869843 -230.35815 -7.3478479
-87.715622 -230.35278 -7.2913809
-91.4636 -230.3165 -7.4913101
-88.158272 -230.33443 -7.553432
-87.976128 -230.24603 -7.4954309
-91.573807 -230.29578 -7.6940718
-88.215988 -230.27831 -7.660017
-88.139923 -230.25833 -7.7272878
-88.209915 -230.28604 -7.8818069
-88.141396 -230.33429 -7.8813372
-88.471069 -230.25267 -8.0940466
-88.312698 -230.32071 -8.0332546
-88.177261 -230.22107 -8.0797348
-92.426666 -230.32446 -8.3967609
-92.025955 -230.29352 -8.2538319
-88.516235 -230.29584 -8.290123
-92.379395 -230.34866 -8.4753666
-91.963066 -230.22122 -8.4251099
-92.851669 -230.38432 -8.7864971
-92.533295 -230.37238 -8.6469183
-92.904953 -230.27744 -8.999321
-92.771912 -230.31419 -8.8342762
-93.264595 -230.30769 -9.0790844
-93.066238 -230.30455 -9.0288506
-92.96405 -230.25583 -9.0126591
-93.260765 -230.26442 -9.3501673
-93.175705 -230.25423 -9.2416325
-89.760712 -230.30484 -9.9507694
-88.956322 -230.26926 -9.8633165
-89.898438 -230.30026 -10.077
-89.573692 -230.34935 -10.029089
-88.731308 -230.25693 -10.272921
-88.332542 -230.32114 -10.684246
-90.046944 -230.2041 -10.912294
-88.287888 -230.38945 -10.926347
-90.44088 -230.36536 -11.446234
-86.534126 -230.29453 -11.421783
-83.776779 -230.32426 -12.574564
-80.050209 -230.15706 -6.5969019
-86.261292 -230.09982 -6.7684588
-85.899582 -230.16177 -6.7681479
-85.405701 -230.1243 -6.75769
-84.896324 -230.15747 -6.7755289
-84.172806 -230.18881 -6.7543378
-83.431396 -230.15424 -6.7417769
-82.564468 -230.11761 -6.7094312
-82.105133 -230.14468 -6.6822958
-81.4412 -230.17839 -6.6597538
-80.561234 -230.11621 -6.6419692
-80.03392 -230.10599 -6.6075821
-97.360397 -230.19859 -6.9570551
-88.529526 -230.0215 -6.863482
-87.609985 -230.09164 -6.9802332
-87.489113 -230.13033 -6.9264631
-87.375069 -230.07758 -6.901484
-87.024254 -230.12517 -6.8669372
-86.538391 -230.12753 -6.8424802
-85.976334 -230.18716 -6.814714
-91.713074 -230.10135 -7.1847091
-91.510361 -230.17053 -7.141108
-87.821671 -230.02928 -7.163063
-91.731293 -230.07468 -7.299726
-87.915909 -230.13776 -7.2889638
-87.781815 -230.06526 -7.2332549
-87.515915 -230.02209 -7.288846
-88.447922 -230.04062 -7.5810318
-88.239044 -230.13971 -7.5510259
-88.03418 -230.19357 -7.4460068
-87.848793 -230.15437 -7.419826
-87.656555 -230.04605 -7.4176159
-87.591904 -230.02127 -7.5100279
-88.427299 -230.03961 -7.6695552
-88.289375 -230.17096 -7.7250991
-88.165375 -230.17131 -7.7964268
-87.820351 -230.10599 -7.6574488
-91.627289 -230.12041 -7.8943329
-88.214996 -230.18445 -7.815702
-88.077438 -230.14252 -7.896944
-88.169067 -230.18466 -8.0490932
-91.964005 -230.05005 -8.2795525
-92.923798 -230.16689 -8.8329124
-93.024559 -230.10381 -9.0574894
-93.160347 -230.16005 -9.2665138
-88.937889 -230.12709 -9.7787275
-89.317474 -230.19266 -9.8955393
-88.906479 -230.15924 -10.206068
-88.650696 -230.17097 -10.466715
-89.938263 -230.05225 -10.687526
-89.787872 -230.0864 -10.821203
-90.403687 -230.16975 -13.013185
-93.978745 -230.07759 -13.454065
-80.090591 -229.86395 -6.5847988
-85.468468 -229.83844 -6.7601552
-84.571213 -229.85739 -6.7520232
-83.831085 -229.82497 -6.7344389
-83.425385 -229.8044 -6.7180238
-83.002365 -229.82797 -6.7110071
-82.726685 -229.82091 -6.691514
-82.092178 -229.98273 -6.6917071
-81.391716 -229.86311 -6.6558738
-80.07534 -229.82585 -6.6015692
-99.695091 -229.89478 -6.9989839
-98.233917 -229.8577 -6.9628801
-89.802582 -229.87556 -6.912014
-87.56636 -229.83624 -6.983736
-87.370773 -229.88318 -6.9123788
-86.908142 -229.86559 -6.8857799
-86.575211 -229.93657 -6.8554001
-91.807632 -229.83121 -7.101223
-87.771729 -229.87976 -7.0989032
-87.526947 -229.8824 -7.0796599
-87.391693 -229.91835 -7.075243
-87.863968 -229.99643 -7.3487391
-87.729248 -229.96246 -7.2596912
-87.523056 -229.87427 -7.2915449
-87.601578 -229.97905 -7.464479
-88.399849 -229.99115 -7.6553941
-91.740967 -229.95013 -7.8607869
-91.774292 -229.94081 -8.1338511
-91.842682 -229.93643 -8.2271357
-88.947861 -229.83916 -9.6489048
-89.297447 -229.96829 -9.9469166
-89.903519 -229.83627 -10.4599
-89.37867 -229.83902 -10.586386
-88.527893 -229.86252 -10.556373
-88.831802 -229.84653 -11.707676
-87.6642 -229.89526 -11.704454
-86.529259 -229.85699 -11.675708
-87.535202 -229.92722 -11.88753
-95.13266 -229.92085 -12.942907
-80.138306 -229.72617 -6.5685611
-86.217285 -229.77466 -6.752161
-86.186371 -229.71158 -6.7710128
-85.827087 -229.77223 -6.7611351
-85.482834 -229.71486 -6.7532701
-85.097244 -229.7384 -6.7452641
-84.715118 -229.64182 -6.73032
-84.205467 -229.74033 -6.7420831
-82.238525 -229.78406 -6.6791229
-82.082916 -229.79724 -6.6753731
-81.883087 -229.69141 -6.6651659
-81.03598 -229.79587 -6.646441
-80.653946 -229.7431 -6.6337452
-96.601677 -229.65962 -6.9513268
-95.286064 -229.69266 -6.9642682
-94.960892 -229.70326 -6.9558501
-94.412399 -229.64764 -6.986825
-87.532959 -229.76222 -6.938149
-87.319084 -229.66615 -6.932879
-87.081535 -229.72672 -6.8891129
-86.992355 -229.7211 -6.9277968
-86.309479 -229.78976 -6.832478
-92.051117 -229.62137 -7.0793152
-88.11998 -229.77464 -7.055367
-87.804367 -229.78717 -7.0669632
-87.663628 -229.65067 -7.1638541
-87.469101 -229.75999 -7.15236
-87.099495 -229.65671 -7.0649271
-87.675377 -229.71362 -7.3297172
-87.586288 -229.68329 -7.3696332
-87.865425 -229.77658 -7.5849528
-87.783943 -229.74454 -7.4273791
-87.389481 -229.67798 -7.6106372
-88.888885 -229.62744 -8.8892555
-88.74147 -229.65784 -9.0663204
-88.865463 -229.66785 -9.3958921
-88.871185 -229.69545 -9.5365744
-88.764954 -229.64658 -9.5563507
-88.957611 -229.78523 -9.7015667
-88.770454 -229.666 -9.6216583
-89.010017 -229.73387 -9.8817806
-88.860634 -229.71609 -10.152967
-89.909424 -229.75116 -10.266331
-88.770409 -229.72723 -10.244974
-88.294456 -229.70758 -10.729038
-89.455215 -229.74843 -10.912004
-87.804596 -229.79196 -11.321671
-86.378815 -229.63516 -12.249693
-80.032272 -229.54074 -6.3911419
-80.10408 -229.46196 -6.5230188
-85.753143 -229.52193 -6.751472
-84.980843 -229.41551 -6.7292581
-83.444717 -229.43494 -6.70119
-81.836945 -229.46445 -6.645093
-81.762566 -229.466 -6.645658
-81.00119 -229.45352 -6.622117
-99.639397 -229.41609 -6.977015
-96.538399 -229.45322 -6.9340372
-95.388168 -229.44469 -6.9322839
-88.255089 -229.52594 -6.9851508
-87.497902 -229.53639 -6.958261
-87.368103 -229.53215 -6.930603
-87.189606 -229.4917 -6.9527788
-86.89859 -229.526 -6.871973
-92.666466 -229.40521 -7.1026368
-92.310562 -229.56731 -7.1176448
-91.950394 -229.46713 -7.0546122
-87.517456 -229.55385 -7.076241
-87.260818 -229.47946 -7.1137948
-87.188141 -229.5016 -7.0939908
-87.55687 -229.58481 -7.3809628
-87.317375 -229.45921 -7.2595701
-87.836182 -229.51224 -7.4870539
-87.720711 -229.44252 -7.4962902
-87.380219 -229.57863 -7.434082
-89.815331 -229.41602 -8.5432739
-90.210022 -229.43341 -8.8672466
-90.183472 -229.43179 -8.8541851
-89.05777 -229.58469 -9.0920877
-88.955627 -229.54478 -9.1079845
-88.738457 -229.50378 -9.0876617
-88.859467 -229.56564 -9.3330841
-88.669479 -229.49335 -9.3393736
-88.589493 -229.44293 -9.3534679
-88.617012 -229.46852 -9.4684
-88.565613 -229.42236 -9.6759605
-89.663223 -229.42334 -9.9391518
-89.022575 -229.41364 -9.88799
-88.542007 -229.44077 -9.8398685
-88.353088 -229.46432 -9.9493046
-89.706604 -229.46344 -10.15486
-88.883713 -229.50723 -10.096838
-88.227859 -229.4734 -10.093544
-88.669945 -229.51466 -10.200111
-88.096153 -229.47878 -10.268068
-89.81752 -229.56712 -10.444349
-88.560013 -229.54019 -10.48357
-87.85379 -229.48099 -10.546827
-87.751083 -229.42168 -10.530287
-88.400726 -229.57043 -10.713389
-87.419487 -229.42982 -10.803673
-86.3368 -229.43286 -11.397793
-88.743927 -229.50732 -11.644238
-97.682297 -229.56921 -13.499132
-97.409248 -229.43115 -13.800476
-80.120483 -229.31078 -6.5402288
-86.098679 -229.31415 -6.771843
-85.478699 -229.29758 -6.7321448
-84.727676 -229.38025 -6.726686
-84.251434 -229.37634 -6.719964
-83.847595 -229.39561 -6.7227292
-83.083832 -229.32288 -6.68856
-82.649117 -229.39238 -6.6889968
-82.313904 -229.36328 -6.676795
-81.364258 -229.32684 -6.6406088
-80.618721 -229.35986 -6.6104321
-99.320335 -229.3781 -6.9805322
-97.965439 -229.3981 -6.9523878
-96.259354 -229.37898 -6.9443851
-95.734329 -229.2379 -6.9951048
-87.442665 -229.36668 -6.9954319
-87.285759 -229.3633 -6.9617462
-87.090729 -229.28229 -6.9080529
-86.519089 -229.35556 -6.850317
-86.257362 -229.39917 -6.8384171
-98.894798 -229.37169 -7.0061579
-92.992287 -229.39011 -7.138299
-88.565987 -229.37056 -7.1554041
-87.469475 -229.34967 -7.149765
-87.345993 -229.31003 -7.0728211
-87.12767 -229.30324 -7.080976
-87.704788 -229.37123 -7.354373
-87.476517 -229.33105 -7.306232
-87.278709 -229.23103 -7.3279128
-87.181572 -229.22995 -7.3688202
-87.627731 -229.37456 -7.5505209
-87.238052 -229.23859 -7.4565721
-87.110527 -229.20662 -7.5331368
-87.311859 -229.26721 -7.758924
-89.806778 -229.38969 -8.519043
-89.733429 -229.30193 -8.5193977
-88.847137 -229.20212 -8.4765892
-88.766487 -229.20071 -8.5116034
-90.017654 -229.35133 -8.7750111
-89.942856 -229.28622 -8.6563416
-89.740433 -229.32579 -8.6356649
-88.71907 -229.24011 -8.7753201
-90.057793 -229.38687 -8.8441067
-89.846664 -229.31671 -8.8272028
-89.797447 -229.36688 -8.8259773
-88.66983 -229.2435 -8.8326931
-89.267868 -229.2384 -9.0562954
-88.623062 -229.25098 -9.0575066
-88.613182 -229.38464 -9.3552437
-88.592354 -229.30899 -9.3141727
-89.268051 -229.26205 -9.4064846
-88.617203 -229.3746 -9.5489521
-88.594154 -229.37399 -9.5404587
-88.552483 -229.36716 -9.6711063
-89.430443 -229.30624 -9.8578424
-88.439926 -229.32602 -9.853941
-88.352638 -229.3461 -9.9367352
-89.51416 -229.31812 -10.04151
-88.269058 -229.37715 -10.008681
-88.153519 -229.37668 -10.162737
-88.066658 -229.37718 -10.318547
-89.290253 -229.23071 -10.463811
-89.080795 -229.37047 -10.567322
-87.922699 -229.38159 -10.455904
-87.112679 -229.3475 -10.990531
-88.832069 -229.3903 -11.412564
-86.5495 -229.39838 -11.483068
-80.075859 -229.06306 -6.4681802
-84.989967 -229.01398 -6.7299442
-84.560204 -229.05774 -6.7163739
-83.369667 -229.01782 -6.700428
-82.102448 -229.07959 -6.6542439
-81.801918 -229.00162 -6.649868
-81.3713 -229.0114 -6.629786
-80.940506 -229.04468 -6.6190648
-99.942802 -229.15161 -6.9892511
-98.899506 -229.17567 -6.9853668
-96.564003 -229.02946 -6.9445992
-96.183533 -229.10741 -6.9208498
-87.42041 -229.08264 -6.893127
-87.334343 -229.06714 -6.917789
-87.082214 -229.02249 -6.9295239
-86.938309 -229.02025 -6.9713068
-86.745041 -229.03662 -6.8929348
-86.231209 -229.0307 -6.8363581
-99.485367 -229.07303 -7.0283518
-92.699028 -229.02914 -7.0665569
-87.371201 -229.14873 -7.1068268
-87.047928 -229.05869 -7.0659761
-89.373535 -229.06039 -7.3435559
-87.298737 -229.08154 -7.3542099
-87.112015 -229.14243 -7.2403908
-89.2425 -229.02133 -7.5720158
-87.245712 -229.13297 -7.5761948
-87.09668 -229.16411 -7.5278692
-86.916016 -229.03424 -7.4647689
-89.25219 -229.02747 -7.6929622
-87.302124 -229.05234 -7.657526
-87.12941 -229.03497 -7.6487651
-86.993591 -229.11606 -7.7269421
-89.438416 -229.03502 -7.8860102
-89.311844 -229.02692 -7.86412
-87.308434 -229.1123 -7.947258
-87.090195 -229.08168 -7.891212
-89.686234 -229.12451 -8.1853905
-89.562515 -229.09851 -8.1139755
-89.072395 -229.02556 -8.1952991
-88.922318 -229.01834 -8.1798096
-89.664993 -229.13989 -8.2785568
-89.436806 -229.01888 -8.2005777
-88.904907 -229.04591 -8.2356691
-88.799026 -229.11189 -8.386322
-89.608429 -229.04247 -8.4958572
-89.583656 -229.10544 -8.5199652
-88.872559 -229.12228 -8.4933128
-88.727829 -229.08475 -8.5173302
-88.690399 -229.16501 -8.6196404
-88.540726 -229.04808 -8.6576309
-89.858963 -229.05692 -8.8388777
-88.643539 -229.09787 -8.9337254
-88.543678 -229.10291 -8.8966732
-89.271011 -229.0107 -9.0502396
-88.432556 -229.02827 -9.0466957
-88.375275 -229.02563 -9.045433
-88.257904 -229.02997 -9.3587294
-89.220886 -229.01122 -9.5646572
-89.444427 -229.10873 -9.8663635
-89.02594 -229.09393 -10.689058
-88.93248 -229.1098 -10.870535
-86.307739 -229.08632 -12.091884
-90.011292 -229.18861 -12.417942
-80.6483 -228.9529 -6.5930252
-80.250076 -228.93456 -6.574409
-80.071098 -228.91025 -6.4984322
-86.019058 -228.92093 -6.7530341
-85.782173 -228.95537 -6.739295
-85.316788 -228.94128 -6.7392139
-84.200745 -228.99689 -6.7036481
-83.81768 -228.9424 -6.6953111
-83.044334 -228.89648 -6.692183
-82.63279 -228.97725 -6.6703272
-98.463402 -228.83046 -6.980248
-97.854279 -228.93103 -6.9744201
-96.930573 -228.86209 -6.8862729
-87.21299 -228.87242 -6.8623848
-87.103241 -228.9505 -6.9115009
-86.623383 -228.85637 -6.846705
-86.362259 -228.98895 -6.8593431
-93.782578 -228.98343 -7.0612388
-86.880119 -228.84415 -7.1934628
-89.016083 -228.9245 -7.336061
-87.505966 -228.92392 -7.3007398
-87.144516 -228.91417 -7.3742452
-86.974457 -228.92538 -7.310421
-86.759384 -228.86536 -7.2904592
-89.099869 -228.99924 -7.5047741
-88.126472 -228.89685 -7.5664358
-87.238007 -228.95602 -7.4590979
-87.168549 -228.9321 -7.4601579
-86.857132 -228.8869 -7.495687
-86.790459 -228.97842 -7.5625901
-89.068359 -228.96017 -7.752048
-88.954697 -228.86832 -7.6962662
-88.187943 -228.8325 -7.718729
-87.852325 -228.81874 -7.6445551
-87.418961 -228.99103 -7.7798839
-87.076675 -228.96915 -7.7106762
-86.919556 -228.91092 -7.691124
-89.045525 -228.97858 -7.9868841
-88.991928 -228.91751 -7.843564
-87.302261 -228.87408 -7.8906121
-87.053642 -228.84518 -7.9388018
-86.809464 -228.82243 -7.8881612
-89.446541 -228.952 -8.1744442
-89.330246 -228.99252 -8.1639891
-88.930344 -228.96429 -8.1715155
-87.350845 -228.90292 -8.1435785
-87.165337 -228.81256 -8.1757002
-89.455429 -228.96196 -8.2037964
-88.904404 -228.83971 -8.4548149
-88.662369 -228.99207 -8.5471773
-88.544022 -228.97629 -8.5931759
-90.026199 -228.87766 -8.7191601
-88.617844 -228.94716 -8.6244593
-88.424164 -228.90344 -8.7476797
-90.045921 -228.85085 -8.8148375
-89.985985 -228.82059 -8.8027735
-88.329414 -228.93326 -8.9025965
-89.0373 -228.8775 -9.1592855
-88.231834 -228.85468 -9.0222321
-88.184021 -228.93034 -9.1244221
-88.991852 -228.94273 -9.34202
-88.160683 -228.9415 -9.3470707
-88.671783 -228.86313 -9.5049162
-88.104912 -228.84648 -9.456131
-89.088371 -228.93231 -9.6563044
-88.225372 -228.93887 -9.6349859
-88.15921 -228.89276 -9.7244883
-88.22377 -228.92249 -9.8552027
-88.107368 -228.87546 -9.856864
-88.231079 -228.87509 -10.119271
-88.159424 -228.8522 -10.12537
-80.097427 -228.67999 -6.5231242
-84.586456 -228.64917 -6.712512
-84.269722 -228.67311 -6.6884198
-83.397957 -228.78444 -6.6673651
-82.954498 -228.71915 -6.6791949
-82.657234 -228.62527 -6.669024
-81.405075 -228.67471 -6.6231461
-81.029633 -228.61157 -6.6125131
-99.837318 -228.7168 -6.988481
-99.048279 -228.64195 -6.97121
-95.126541 -228.67326 -6.9426188
-87.140442 -228.75075 -6.901629
-86.983093 -228.60402 -6.9297509
-86.715668 -228.60931 -6.8794198
-88.84436 -228.68492 -7.19029
-88.755196 -228.66595 -7.1721439
-87.233505 -228.70192 -7.0754652
-87.110077 -228.6801 -7.1396022
-86.842445 -228.64252 -7.0787592
-88.852081 -228.71124 -7.3272738
-86.822685 -228.60165 -7.2032671
-86.720963 -228.75015 -7.314064
-88.049149 -228.69656 -7.5481701
-87.065506 -228.70569 -7.5917058
-86.827698 -228.72679 -7.550467
-86.689789 -228.7677 -7.5570741
-88.894318 -228.73279 -7.767632
-87.066002 -228.66678 -7.6837111
-86.914932 -228.66255 -7.737206
-86.75914 -228.62494 -7.7045522
-88.894608 -228.66301 -7.844842
-88.159317 -228.7153 -7.835856
-87.284805 -228.69868 -7.883903
-87.167236 -228.69043 -7.8758702
-86.848389 -228.67847 -7.920341
-86.761932 -228.6983 -7.8784881
-88.939537 -228.67361 -8.157608
-87.254967 -228.62982 -8.1187687
-88.981712 -228.63678 -8.3647747
-87.379272 -228.739 -8.2181311
-90.057983 -228.76588 -8.8734741
-89.081558 -228.74225 -9.0615292
-89.055382 -228.69994 -9.3167801
-88.721703 -228.77463 -9.361001
-88.119286 -228.78641 -9.2871885
-88.160049 -228.75761 -9.559576
-89.141678 -228.69104 -9.6740112
-88.164726 -228.78514 -9.7441721
-88.121262 -228.74545 -9.8396616
-89.204865 -228.64374 -10.056576
-88.121933 -228.7166 -10.065815
-88.107437 -228.74147 -10.219332
-88.076523 -228.69391 -10.507111
-89.852089 -228.74377 -10.750548
-96.176651 -228.6105 -13.748472
-80.584846 -228.52748 -6.5861168
-80.064995 -228.49001 -6.456769
-85.848061 -228.4982 -6.7491241
-85.799103 -228.50363 -6.7760081
-85.406921 -228.5347 -6.712038
-85.022621 -228.5127 -6.7165799
-83.799187 -228.56363 -6.6878309
-83.383698 -228.56123 -6.6704159
-82.222809 -228.59244 -6.6387482
-81.878952 -228.53136 -6.6253061
-99.492081 -228.4071 -6.950912
-98.284317 -228.51901 -6.9617548
-97.651276 -228.50731 -6.978889
-96.413017 -228.41037 -6.8833809
-93.13356 -228.41083 -6.942934
-87.224197 -228.49982 -6.9900732
-86.829865 -228.56161 -6.9075761
-86.67823 -228.56361 -6.8386211
-86.160797 -228.5179 -6.8144722
-85.982117 -228.55984 -6.818069
-98.723282 -228.4838 -7.0142469
-86.89621 -228.53378 -7.085444
-88.724289 -228.58089 -7.2697902
-86.91893 -228.4845 -7.3161511
-86.769493 -228.55678 -7.2832928
-88.873871 -228.58142 -7.5402298
-86.892021 -228.44424 -7.4921622
-86.777901 -228.52789 -7.5844851
-88.940063 -228.58372 -7.7545791
-86.840927 -228.5145 -7.634676
-89.020935 -228.4156 -7.8281231
-87.22213 -228.55382 -7.9840312
-86.852005 -228.43719 -7.8685012
-86.77404 -228.58008 -7.848474
-89.205612 -228.40701 -8.140295
-89.03363 -228.49451 -8.131834
-88.960854 -228.57468 -8.1662464
-87.208008 -228.45631 -8.0218811
-89.064621 -228.51382 -8.2698097
-88.960258 -228.56094 -8.516696
-89.257179 -228.59019 -9.5654726
-89.228943 -228.56163 -9.7062397
-89.250275 -228.59404 -9.9032679
-89.14888 -228.57117 -10.294863
-89.299675 -228.53448 -10.529333
-87.862572 -228.4274 -11.029527
-87.867828 -228.44403 -11.28898
-80.040573 -228.28618 -6.3744321
-80.653313 -228.29448 -6.5896578
-80.092316 -228.25987 -6.4691558
-85.326912 -228.25314 -6.7031231
-84.133286 -228.28491 -6.690752
-83.47126 -228.2708 -6.6659608
-82.535683 -228.25938 -6.6349111
-82.22332 -228.22688 -6.6427541
-81.473091 -228.23296 -6.6014662
-98.263359 -228.2056 -6.943017
-97.827812 -228.24347 -6.965847
-96.495003 -228.24898 -6.8675218
-95.40979 -228.30673 -6.943975
-88.219086 -228.21561 -6.8538589
-87.086319 -228.27008 -6.9318042
-86.98214 -228.21811 -6.9533782
-86.635635 -228.20044 -6.829814
-90.860016 -228.33179 -7.150702
-90.793724 -228.38393 -7.1447229
-86.935181 -228.39493 -7.0638552
-90.855064 -228.35883 -7.2382302
-86.850769 -228.24081 -7.2868848
-86.721008 -228.20589 -7.3342538
-87.136536 -228.30937 -7.4405112
-86.904312 -228.32022 -7.5568399
-89.046753 -228.34369 -7.7795668
-87.019402 -228.32602 -7.7106519
-86.947815 -228.25711 -7.6673002
-88.976028 -228.36891 -7.9644532
-86.871315 -228.39079 -7.869987
-89.282188 -228.29634 -8.1569157
-89.038612 -228.2961 -8.0488129
-87.233116 -228.37796 -8.0859337
-89.342781 -228.23546 -8.2127752
-88.998489 -228.27733 -9.2418671
-89.352699 -228.39108 -9.913291
-87.809319 -228.31651 -11.214942
-87.783691 -228.30284 -11.252604
-88.007179 -228.38042 -11.754364
-81.051437 -228.15633 -6.5809312
-80.10154 -228.09903 -6.5462499
-86.704376 -228.12039 -6.7936211
-86.212288 -228.09743 -6.7985349
-85.775024 -228.13657 -6.7228189
-84.941849 -228.14047 -6.6890531
-84.532616 -228.15564 -6.691102
-83.714516 -228.15504 -6.6841621
-83.031815 -228.12755 -6.6458831
-81.827881 -228.11761 -6.6175008
-99.942352 -228.0845 -6.9527822
-99.451569 -228.16235 -6.952939
-98.897186 -228.144 -6.9901319
-98.547462 -228.06752 -6.9344931
-95.050148 -228.08713 -6.8844328
-94.749207 -228.02882 -6.897058
-86.242844 -228.16235 -6.807971
-96.02462 -228.02463 -7.1089382
-95.912613 -228.16837 -7.0586758
-87.088951 -228.12842 -7.1075082
-87.074188 -228.06157 -7.3166471
-86.94043 -228.0957 -7.302207
-86.722046 -228.18518 -7.370028
-87.0103 -228.15401 -7.5398412
-86.955048 -228.10547 -7.5710149
-88.968338 -228.19547 -9.0385818
-87.394363 -228.02879 -11.731534
-87.145584 -228.11696 -11.671605
-86.750839 -228.13403 -12.394679
-80.015427 -227.88861 -6.4780269
-86.499138 -227.81308 -6.7886591
-86.019081 -227.88699 -6.783926
-84.942032 -227.90224 -6.6845489
-84.160446 -227.82234 -6.6731029
-83.379898 -227.86298 -6.6627841
-83.151337 -227.97401 -6.6256409
-82.603767 -227.81064 -6.630867
-82.276497 -227.91481 -6.6252708
-81.414948 -227.84515 -6.6074128
-99.179756 -227.80373 -6.916728
-95.48983 -227.8493 -6.9686198
-94.889061 -227.8755 -6.8755002
-93.889755 -227.91536 -6.8714051
-88.292633 -227.87424 -6.923439
-87.021996 -227.99773 -6.9294162
-86.899185 -227.98869 -6.838326
-86.286331 -227.81934 -6.822381
-96.123871 -227.8242 -7.1511679
-95.901794 -227.88715 -7.1060801
-89.505577 -227.98778 -7.1555548
-86.868973 -227.8656 -7.0653009
-95.949776 -227.92398 -7.2250028
-87.023407 -227.94316 -7.222281
-86.933098 -227.85712 -7.2930212
-87.248154 -227.93414 -7.513001
-87.063805 -227.85764 -7.4969311
-87.653038 -227.81906 -11.696421
-81.807884 -227.7572 -6.5913601
-81.687241 -227.6485 -6.5790472
-81.020508 -227.76337 -6.5926752
-80.519638 -227.77417 -6.5663462
-80.061821 -227.7054 -6.5008469
-85.817268 -227.69803 -6.738976
-85.738068 -227.67972 -6.6828451
-85.358292 -227.7926 -6.7008629
-84.467484 -227.7027 -6.6764998
-83.760124 -227.70045 -6.6574798
-82.913223 -227.73538 -6.6499872
-82.16436 -227.7489 -6.6048222
-99.349564 -227.68689 -6.9404869
-97.611809 -227.74059 -6.888741
-97.13472 -227.66725 -6.9237809
-87.475105 -227.64781 -6.8113532
-86.836563 -227.60457 -6.8402338
-86.611603 -227.65063 -6.8149872
-96.610443 -227.6656 -7.0151982
-87.067566 -227.78519 -7.1172581
-86.824493 -227.73781 -7.1244869
-86.791138 -227.758 -7.0953069
-87.242615 -227.73785 -7.6337829
-87.467499 -227.61971 -11.353893
-82.243866 -227.45757 -6.5983958
-80.57634 -227.41374 -6.5679231
-80.072456 -227.52655 -6.5076971
-86.155472 -227.4346 -6.7766228
-84.948914 -227.50534 -6.6858382
-84.595734 -227.46172 -6.686306
-84.242744 -227.41162 -6.6616769
-83.952164 -227.52399 -6.6706748
-82.968613 -227.41171 -6.6240468
-82.57634 -227.41463 -6.6336951
-82.290947 -227.41156 -6.6202431
-95.103592 -227.56793 -6.9558001
-87.44175 -227.4859 -6.8243051
-87.023918 -227.55743 -6.9704399
-86.890549 -227.49228 -6.8885822
-87.052109 -227.45256 -7.1514478
-86.909309 -227.43793 -7.0205479
-87.027023 -227.44711 -7.2119408
-86.915779 -227.47266 -7.2529602
-86.795219 -227.4166 -7.424314
-87.409309 -227.57164 -12.07832
-87.599174 -227.57538 -13.153091
-80.023209 -227.38503 -6.383637
-81.809914 -227.36121 -6.5981498
-81.477188 -227.29514 -6.5929961
-81.046944 -227.36391 -6.5683918
-80.098358 -227.32983 -6.5177469
-87.677109 -227.28906 -6.7628312
-87.447556 -227.24451 -6.7792282
