# .PCD v0.7 - Point Cloud Data file format
VERSION 0.7
FIELDS x y z
SIZE 4 4 4
TYPE F F F
COUNT 1 1 1
WIDTH 1471
HEIGHT 1
VIEWPOINT 0 0 0 1 0 0 0
POINTS 1471
DATA ascii
-86.582672 -93.078369 -3.4010551
-82.040466 -93.071693 -3.4382319
-85.84877 -93.018044 -3.738163
-81.891174 -93.073784 -3.6341801
-86.153885 -93.078751 -3.9049051
-85.809357 -93.07692 -4.055357
-85.790588 -93.05854 -4.2015848
-86.574646 -93.051147 -4.9110022
-90.27903 -93.163269 -5.771657
-88.404343 -93.014679 -5.6669149
-93.077316 -93.030983 -5.9842882
-80.071259 -93.039764 -7.3417921
-85.772125 -93.034805 -7.4016681
-87.493271 -93.044006 -7.63694
-82.370224 -93.141373 -7.6548109
-80.581039 -93.118607 -8.304863
-80.882477 -93.04097 -8.9608097
-80.079346 -93.029861 -9.2889957
-80.430527 -93.101013 -9.4195251
-86.698692 -93.110748 -9.8973951
-80.53434 -93.139252 -10.583302
-80.222839 -92.824852 -2.994736
-84.66111 -92.89299 -3.034503
-83.867661 -92.893616 -3.039047
-81.8797 -92.92308 -3.0606661
-86.538528 -92.910172 -3.4430549
-81.889404 -92.991837 -3.728199
-81.776604 -92.860413 -4.0874538
-86.09314 -92.967026 -5.9241352
-85.663223 -92.824837 -5.972754
-91.664467 -92.997383 -6.2159219
-88.812057 -92.826035 -7.0653281
-83.512993 -92.80999 -7.0787492
-81.243591 -92.891357 -7.144742
-88.903336 -92.983582 -7.44029
-87.110138 -92.959885 -7.8713412
-86.052116 -92.944145 -7.994041
-80.931252 -92.969124 -7.8415208
-83.221771 -92.890373 -8.3551254
-80.524017 -92.9263 -10.095303
-81.214684 -92.975204 -10.36588
-83.717232 -92.947266 -11.282731
-80.168961 -92.65387 -2.94558
-81.715927 -92.629631 -3.056617
-81.250847 -92.631462 -3.057642
-80.242325 -92.737823 -3.0439081
-85.83783 -92.674965 -3.7553861
-86.624466 -92.73185 -5.7242651
-98.217545 -92.739243 -6.1593919
-83.268356 -92.615982 -6.5116491
-85.889053 -92.607521 -7.7426629
-86.725464 -92.611221 -7.814868
-87.347427 -92.642807 -8.1340466
-85.888397 -92.747978 -8.2514982
-86.390221 -92.744827 -8.4817371
-84.360611 -92.706818 -8.5129919
-80.296097 -92.618362 -8.7095671
-80.61599 -92.670174 -8.9252367
-80.880989 -92.620018 -11.268517
-86.721436 -92.619644 -11.577758
-81.540352 -92.689484 -12.437446
-83.054993 -92.51915 -2.9715691
-80.224495 -92.583176 -2.9885421
-85.38678 -92.567146 -3.0091169
-81.74588 -92.440819 -3.3347819
-81.739822 -92.469841 -3.4370601
-86.182373 -92.489487 -3.7305739
-87.802307 -92.529068 -5.9567108
-86.143341 -92.555252 -5.9544139
-84.272591 -92.580978 -6.6766911
-82.92746 -92.477654 -7.30967
-87.580345 -92.449776 -7.5487671
-80.91124 -92.526413 -7.921463
-84.218742 -92.469093 -8.3814926
-82.287025 -92.447884 -8.2120113
-80.985306 -92.46962 -8.6656437
-87.680077 -92.52108 -11.384853
-85.440155 -92.250931 -2.999341
-82.185646 -92.222237 -2.985132
-80.21978 -92.298752 -2.946064
-81.690857 -92.302155 -3.1247151
-80.793983 -92.233643 -3.048347
-80.229828 -92.349335 -3.0251789
-86.553741 -92.311287 -3.517715
-82.370132 -92.302254 -3.5163679
-86.537537 -92.29982 -4.3062348
-88.092438 -92.240807 -5.9162369
-85.694351 -92.208321 -5.901248
-83.404503 -92.237396 -5.9325871
-98.710022 -92.324806 -6.1946602
-91.318665 -92.236839 -6.119699
-84.308411 -92.27182 -6.5592432
-84.605652 -92.352852 -6.7137098
-89.359222 -92.229034 -6.9683619
-82.65287 -92.262482 -7.142673
-83.462646 -92.285233 -7.3524861
-87.70636 -92.295044 -7.5533361
-84.396133 -92.267059 -8.6179638
-80.150452 -92.339676 -8.9438295
-86.751984 -92.260406 -9.3549652
-87.824738 -92.367432 -9.4499302
-81.071556 -92.207275 -9.7796612
-85.604843 -92.267685 -9.9616175
-81.740799 -92.220596 -12.334408
-85.265282 -92.087029 -2.9921169
-81.889771 -92.139252 -3.1037259
-86.161804 -92.181557 -3.347991
-82.004265 -92.130875 -3.4084749
-86.521469 -92.123016 -3.684242
-82.57737 -92.143921 -3.7156811
-86.527489 -92.06279 -5.1583738
-85.630569 -92.099075 -5.8763261
-89.731216 -92.094193 -6.897469
-88.967751 -92.078819 -6.992651
-88.953545 -92.038971 -7.3005109
-87.116844 -92.186676 -7.557714
-80.276505 -92.197159 -8.104599
-85.125687 -92.010208 -9.0954437
-87.060089 -92.169418 -9.4426098
-84.509827 -92.102203 -9.6246662
-86.018463 -92.009277 -10.999739
-86.717033 -92.172058 -11.25102
-87.941223 -92.08976 -12.417561
-85.514557 -91.907631 -2.992511
-83.874268 -91.888527 -2.99895
-86.431412 -91.876251 -3.103647
-81.556442 -91.880379 -3.059
-86.500824 -91.845673 -3.3880961
-81.839279 -91.901947 -3.541301
-82.247002 -91.935211 -3.8481059
-81.746086 -91.958572 -4.1768298
-81.74527 -91.919525 -4.2041688
-86.485779 -91.867058 -4.9217801
-86.507462 -91.855301 -5.062583
-86.602562 -91.822083 -5.4266448
-88.179565 -91.813591 -5.6481838
-85.584351 -91.848267 -6.030231
-84.253464 -91.847549 -6.1841679
-84.235016 -91.890305 -6.280746
-88.170425 -91.896454 -6.538187
-89.356827 -91.81295 -7.046319
-89.070343 -91.972153 -7.4003258
-80.449295 -91.964302 -7.8769689
-83.714935 -91.963425 -8.6565752
-87.125763 -91.848358 -9.1000137
-85.141235 -91.817818 -10.735457
-81.761559 -91.810692 -12.177892
-81.833969 -91.646896 -2.9791169
-80.165939 -91.686325 -2.953604
-81.885849 -91.755623 -3.108614
-81.262604 -91.600266 -3.0299809
-81.928612 -91.765053 -3.3426239
-82.313026 -91.742264 -3.4205849
-85.917358 -91.638374 -4.01298
-86.378777 -91.641815 -4.8749499
-86.642593 -91.720612 -5.337697
-86.514008 -91.710953 -5.703639
-86.374451 -91.628296 -5.6663799
-87.327972 -91.737846 -5.8987498
-84.184555 -91.604141 -5.9980822
-85.630165 -91.634186 -6.1014428
-90.680161 -91.667252 -7.4494371
-86.735008 -91.654221 -7.5732832
-90.939217 -91.697968 -7.7623019
-86.716766 -91.7006 -8.1076651
-83.676407 -91.727005 -8.020689
-84.611511 -91.722549 -11.283096
-85.368652 -91.454437 -2.9410601
-85.018494 -91.444664 -2.9677031
-82.604607 -91.544342 -3.0196741
-82.169586 -91.449661 -3.0389371
-81.5737 -91.531357 -3.057034
-81.327126 -91.555817 -3.0161729
-80.166031 -91.504669 -3.0171821
-81.742294 -91.470032 -3.7012661
-82.926712 -91.467751 -4.1658139
-86.478989 -91.445923 -4.5342841
-86.3582 -91.433914 -5.877687
-81.972595 -91.48378 -5.8414268
-84.370857 -91.502029 -6.602664
-82.653786 -91.452667 -7.1177149
-85.647057 -91.521187 -7.691288
-81.619171 -91.584335 -8.1246376
-81.764435 -91.506699 -8.4601479
-93.082962 -91.435822 -10.028772
-92.743004 -91.44445 -10.018539
-84.652527 -91.347473 -2.9756579
-80.246956 -91.249344 -2.976701
-80.142326 -91.358749 -2.910085
-85.868393 -91.290413 -3.664098
-81.715111 -91.345299 -4.1287332
-86.514175 -91.380798 -4.4849968
-86.517708 -91.377289 -5.2495379
-86.415115 -91.36763 -5.7223582
-86.394867 -91.395607 -5.6980691
-86.39518 -91.388252 -5.9092011
-84.053955 -91.313766 -5.8810482
-81.332863 -91.288139 -6.273839
-81.215561 -91.380554 -6.6172771
-82.952438 -91.283134 -6.9147711
-84.082047 -91.240677 -7.837616
-87.521072 -91.254868 -8.6838207
-87.009079 -91.343529 -8.6768579
-85.587669 -91.250259 -8.8846273
-91.888687 -91.264648 -9.3346186
-86.020561 -91.254951 -9.4776592
-81.65567 -91.308937 -9.7479782
-82.952713 -91.280571 -10.504896
-84.476112 -91.089554 -2.9618709
-83.308334 -91.065414 -2.971817
-81.381493 -91.103416 -2.974159
-85.851318 -91.004448 -3.0653269
-81.376762 -91.052925 -3.019182
-85.879936 -91.125412 -3.8089969
-81.746414 -91.077515 -4.0867138
-86.549774 -91.04882 -5.4739289
-83.942116 -91.032906 -5.597281
-81.553223 -91.091789 -6.4497852
-90.657509 -91.027588 -7.0910301
-83.840729 -91.008484 -7.0932388
-92.212456 -91.069588 -8.0119448
-93.414131 -91.041466 -8.2011757
-81.478012 -91.010971 -9.2127676
-93.49086 -91.106445 -9.4669132
-86.822159 -91.042053 -9.7142677
-93.394051 -91.039902 -9.8496208
-81.576347 -91.133064 -9.8440828
-80.757278 -91.065178 -10.852588
-80.146683 -90.930931 -2.9521561
-83.678925 -90.935738 -3.082478
-81.513382 -90.968666 -3.0222299
-81.741745 -90.908447 -3.5250399
-86.492935 -90.941605 -4.2803941
-86.510155 -90.920517 -4.6162
-86.477272 -90.965706 -4.978291
-83.12294 -90.933495 -6.576045
-84.150818 -90.876175 -7.009728
-93.085266 -90.842148 -7.6722651
-84.073593 -90.975449 -7.8271799
-98.856979 -90.93557 -8.3269396
-96.930511 -90.978081 -8.3428764
-84.901428 -90.896057 -8.2643681
-99.509491 -90.934616 -8.5404778
-95.864891 -90.988449 -8.604537
-82.677658 -90.989998 -8.646059
-86.701469 -90.857872 -9.1090603
-92.234612 -90.974762 -9.3278637
-80.745377 -90.870178 -9.3558474
-80.055809 -90.943466 -9.4164696
-80.866898 -90.966965 -9.6887779
-82.046852 -90.898605 -11.839501
-83.890915 -90.695053 -3.0791869
-81.322296 -90.704521 -3.0089951
-81.746262 -90.677185 -3.2816229
-81.813858 -90.646271 -3.4873281
-81.823555 -90.615623 -4.1488471
-80.694168 -90.623047 -5.9450679
-85.859909 -90.681381 -6.077281
-81.447342 -90.716858 -6.0435061
-83.122589 -90.673035 -6.237566
-80.900162 -90.707504 -6.2893071
-80.733948 -90.754524 -6.205749
-82.893234 -90.696106 -6.9289918
-85.677032 -90.778275 -7.7468381
-94.845413 -90.779457 -7.9438
-96.937782 -90.634857 -8.3364334
-86.925499 -90.750847 -8.7058315
-86.982697 -90.654144 -8.862175
-84.696564 -90.697906 -9.0329065
-84.775154 -90.749039 -9.3568211
-81.698334 -90.78286 -9.3845282
-85.740005 -90.601181 -9.513319
-94.619904 -90.783905 -9.6301727
-86.162239 -90.633453 -9.7154646
-82.954208 -90.654205 -9.9181538
-85.64772 -90.710403 -10.623238
-81.82016 -90.760696 -10.772398
-85.75808 -90.756065 -11.379457
-82.767998 -90.673447 -12.521804
-86.42897 -90.507996 -3.075367
-86.476852 -90.55703 -3.736829
-85.863197 -90.414703 -3.646266
-81.783096 -90.580673 -3.691119
-85.839935 -90.56041 -4.2737608
-86.46553 -90.507187 -5.072753
-83.611023 -90.414665 -5.066112
-86.557327 -90.423851 -5.3161001
-81.552734 -90.474823 -5.525229
-81.555473 -90.465286 -5.658062
-86.911186 -90.473099 -5.9153318
-85.827393 -90.570534 -5.8323779
-83.140091 -90.448105 -5.921114
-80.830315 -90.532509 -5.9952269
-85.887146 -90.53347 -6.1157622
-80.896675 -90.57959 -6.2147861
-80.726631 -90.556854 -6.2118568
-81.326538 -90.590599 -6.5014501
-83.415527 -90.553482 -6.835876
-81.916969 -90.498291 -6.95543
-83.578896 -90.460968 -7.2959299
-82.492256 -90.505951 -7.5455899
-82.496346 -90.490395 -7.6058412
-86.7668 -90.527565 -8.7674026
-80.907822 -90.543549 -8.6774578
-81.288879 -90.571075 -9.2637196
-86.546738 -90.514755 -9.8711529
-81.028244 -90.593582 -10.127004
-85.443962 -90.436279 -10.399254
-82.077271 -90.403473 -11.185331
-87.045494 -90.431145 -11.362576
-87.681961 -90.444611 -12.091526
-83.679268 -90.341965 -3.123287
-82.391441 -90.21402 -3.0040939
-85.847198 -90.291527 -4.2944808
-86.524834 -90.284691 -5.7234201
-83.174561 -90.337616 -5.702539
-87.07412 -90.228737 -5.920341
-85.740463 -90.334076 -6.0568728
-80.741898 -90.348846 -6.1559219
-81.383148 -90.257309 -6.251338
-81.140274 -90.366379 -6.298738
-81.72393 -90.315887 -6.498127
-84.025406 -90.325699 -6.7057018
-83.820183 -90.306534 -6.7420831
-90.627243 -90.233917 -7.1568451
-85.320572 -90.344574 -7.3463559
-90.619965 -90.213165 -7.49052
-90.619865 -90.206688 -7.7240372
-85.478714 -90.310265 -7.6364422
-83.131912 -90.361893 -7.648716
-82.635956 -90.215584 -7.7869949
-86.156036 -90.255447 -8.6072254
-80.572929 -90.283661 -9.0830231
-80.592369 -90.293625 -9.2812672
-81.647369 -90.228958 -10.190386
-80.182289 -90.215485 -10.136656
-81.516327 -90.240097 -10.897829
-82.44487 -90.305504 -11.756254
-82.112083 -90.081627 -2.9418011
-84.460854 -90.116547 -3.0716031
-83.488228 -90.119415 -3.102313
-81.50914 -90.138649 -3.024096
-83.501358 -90.106537 -3.273948
-81.740631 -90.081451 -3.7383161
-85.800751 -90.007149 -3.9633169
-85.840508 -90.144501 -4.2403789
-83.35479 -90.039284 -5.176147
-83.482903 -90.022888 -5.3490949
-83.321533 -90.017303 -5.3820448
-86.519142 -90.066818 -5.5054498
-83.482071 -90.042953 -5.4214439
-83.40593 -90.021805 -5.6188588
-82.884094 -90.040787 -5.8861022
-81.679245 -90.140549 -6.2428012
-87.978226 -90.02298 -6.5134659
-81.620041 -90.163193 -6.5846939
-83.351685 -90.072571 -7.0838509
-83.280884 -90.080368 -7.3929
-82.742699 -90.195511 -7.3385272
-83.169708 -90.162201 -7.441268
-84.799294 -90.049759 -7.9948401
-82.980598 -90.011841 -8.0778847
-83.892929 -90.050415 -9.2724476
-82.495483 -90.099228 -10.105679
-83.679329 -90.023178 -10.659152
-85.842667 -90.119965 -10.830325
-81.152634 -90.191063 -11.277112
-86.971313 -90.16156 -11.882851
-81.85025 -89.927406 -2.9683299
-81.191238 -89.893196 -2.999342
-85.638741 -89.937538 -3.004926
-83.759506 -89.838707 -3.084841
-83.535446 -89.932907 -3.1170721
-81.746078 -89.898148 -3.702867
-83.476776 -89.866913 -4.4953198
-86.420883 -89.906998 -5.0900168
-83.300728 -89.840279 -5.0983448
-83.042664 -89.892029 -6.062479
-81.540665 -89.940208 -6.1587749
-80.138519 -89.94664 -6.3874712
-81.683983 -89.858154 -6.5313869
-81.395874 -89.884811 -6.5668702
-80.213715 -89.92337 -6.501585
-88.147972 -89.871254 -6.8111601
-90.617386 -89.935074 -7.3831148
-84.750763 -89.983932 -7.283422
-82.656769 -89.864418 -7.6391482
-85.061745 -89.92086 -7.9366589
-82.894455 -89.800217 -8.0658035
-83.374939 -89.875244 -8.6107635
-82.308807 -89.87635 -8.6179228
-81.297714 -89.856842 -9.1152105
-80.929276 -89.980576 -9.4884338
-83.412689 -89.878159 -10.730042
-82.537354 -89.837631 -11.367704
-81.441269 -89.753601 -2.945472
-80.100601 -89.670471 -2.894722
-84.3004 -89.703339 -3.074075
-83.838463 -89.605827 -3.1131411
-86.273422 -89.651657 -4.10499
-86.275917 -89.643349 -4.868988
-82.897812 -89.706573 -5.0652132
-83.318024 -89.758987 -5.2913489
-82.805641 -89.686546 -5.2039561
-86.25914 -89.653458 -5.6996469
-87.29985 -89.649796 -5.8634958
-85.523453 -89.780334 -5.8735209
-83.276443 -89.68576 -6.1250191
-83.027069 -89.791855 -6.1915488
-83.230164 -89.724503 -6.2792592
-83.087204 -89.655228 -6.4965162
-86.231285 -89.618271 -6.7030411
-90.58477 -89.689827 -7.1714311
-81.644081 -89.688309 -7.1468582
-88.623077 -89.641624 -7.4588828
-84.2668 -89.656464 -7.7069068
-81.292397 -89.696159 -8.6148739
-85.003387 -89.792603 -8.8233051
-80.017403 -89.774078 -9.5973129
-86.256973 -89.726227 -9.8393841
-82.289444 -89.774689 -9.9040775
-81.381912 -89.713715 -10.944342
-80.183273 -89.675751 -13.678061
-80.703865 -89.59343 -2.895215
-80.595917 -89.446823 -2.9237161
-80.228722 -89.403587 -2.897162
-83.841759 -89.578667 -3.1105809
-83.756508 -89.535583 -3.067414
-86.187988 -89.475159 -3.7734129
-86.264412 -89.580002 -4.8033061
-85.883568 -89.458961 -5.8393559
-85.512619 -89.453308 -5.9022889
-83.563187 -89.548378 -5.9762459
-84.173401 -89.439377 -6.0152979
-80.965256 -89.501305 -6.1872349
-87.299286 -89.578499 -6.3733792
-83.373413 -89.555237 -6.2636828
-82.246399 -89.409103 -6.5890489
-83.322716 -89.53537 -6.6778598
-83.038246 -89.523872 -6.716002
-88.50499 -89.553207 -6.9873872
-89.466125 -89.507706 -7.048048
-88.574585 -89.503647 -7.235868
-87.341949 -89.573013 -7.3968649
-81.403717 -89.571556 -8.6403971
-82.513611 -89.419083 -8.9067841
-82.193848 -89.526672 -8.8541918
-86.211555 -89.415581 -9.725914
-82.486015 -89.558052 -9.7343845
-82.014114 -89.363007 -3.2167289
-86.016617 -89.314453 -3.471478
-86.68071 -89.240036 -4.7487092
-86.516548 -89.242264 -4.6760731
-86.714066 -89.246613 -4.8433542
-86.457886 -89.245674 -5.1318789
-86.439835 -89.218651 -5.235497
-86.247772 -89.244751 -5.85044
-81.315857 -89.308762 -5.8713908
-86.511292 -89.227966 -6.1137581
-85.462852 -89.241707 -6.0113049
-83.875595 -89.202187 -6.0059042
-86.255562 -89.227463 -6.3079619
-86.191101 -89.236069 -6.4348788
-86.283173 -89.265091 -6.668046
-86.18454 -89.276123 -6.64994
-80.878983 -89.307442 -6.9741268
-86.521515 -89.302002 -7.3978291
-86.263069 -89.202042 -7.21385
-90.237961 -89.325592 -7.4707408
-90.201546 -89.364746 -7.6404452
-82.658035 -89.370773 -7.7146611
-84.500092 -89.293167 -8.2714834
-82.445244 -89.376007 -10.27786
-85.621445 -89.331848 -13.16856
-85.038277 -89.061134 -2.9168019
-81.439949 -89.082718 -2.977689
-81.695 -89.069931 -3.0801771
-86.479065 -89.131546 -3.543433
-86.452347 -89.11451 -3.8829939
-86.807449 -89.1903 -4.6311698
-86.694 -89.034218 -4.6549072
-86.671478 -89.075226 -5.45858
-86.564613 -89.189194 -5.8711782
-86.520386 -89.139435 -6.1391168
-82.269615 -89.105057 -6.1614971
-86.303116 -89.171516 -6.2152252
-82.292191 -89.07943 -6.4704809
-86.253616 -89.173141 -6.9029679
-83.651794 -89.133797 -6.9327631
-83.687576 -89.063858 -7.518846
-82.65419 -89.175873 -7.4153972
-86.643066 -89.152405 -7.8561578
-83.576492 -89.176147 -7.8648372
-86.540451 -89.082489 -8.5289059
-83.30442 -89.036308 -9.3214808
-86.241631 -89.027275 -9.4344788
-80.655563 -89.127045 -10.620788
-81.637352 -89.138351 -11.83219
-83.77121 -89.173935 -14.095787
-86.355431 -88.995857 -3.0998781
-84.670883 -88.901512 -3.095542
-83.962296 -88.98996 -6.0694671
-80.676247 -88.911331 -6.3102498
-86.656891 -88.882309 -6.5414391
-83.829941 -88.950546 -6.9613352
-82.562378 -88.830452 -6.889112
-82.093414 -88.946655 -6.8788881
-86.640335 -88.926544 -7.4773698
-82.245644 -88.868881 -8.1754913
-83.111923 -88.946121 -9.5642357
-83.067123 -88.885925 -9.6186447
-82.11615 -88.883484 -10.308468
-81.66835 -88.65741 -2.933743
-80.561996 -88.627747 -2.8737409
-86.245209 -88.713646 -3.0880029
-84.314621 -88.608009 -3.2825689
-83.333832 -88.738449 -3.3085389
-82.528526 -88.623138 -3.3667829
-84.708893 -88.700363 -3.8444681
-85.853622 -88.666962 -5.8536162
-80.767334 -88.640274 -6.3631592
-82.191757 -88.679878 -6.525177
-81.290871 -88.621994 -6.585629
-81.290421 -88.76001 -6.642859
-82.190781 -88.634315 -6.9700341
-83.304489 -88.656128 -7.5353279
-83.28904 -88.630615 -7.71873
-83.841614 -88.699646 -8.1302624
-82.147858 -88.628319 -8.5585642
-84.485245 -88.732491 -8.9148178
-85.033432 -88.619446 -9.0971012
-86.175613 -88.630096 -9.742054
-85.536522 -88.712021 -10.972796
-81.924866 -88.671234 -12.40564
-80.682487 -88.654625 -12.410794
-82.890396 -88.494827 -3.7243991
-82.542763 -88.49173 -3.666985
-81.750923 -88.575905 -3.632369
-86.702347 -88.596344 -3.8131609
-82.801483 -88.547363 -3.849566
-84.667061 -88.506203 -4.1048789
-86.692406 -88.52066 -5.3514848
-81.447769 -88.524185 -5.75877
-84.428436 -88.424561 -6.1430202
-81.134613 -88.539482 -6.062098
-82.323341 -88.589691 -6.2574339
-80.701614 -88.558594 -6.3241048
-80.533424 -88.442223 -6.6855779
-82.217873 -88.507607 -6.858109
-80.327179 -88.522133 -10.549124
-81.911774 -88.290207 -3.059866
-81.758408 -88.264709 -3.3530271
-82.383522 -88.372925 -3.860265
-86.728004 -88.244301 -4.0952158
-86.28334 -88.26059 -4.2635698
-81.322815 -88.327209 -6.1077452
-86.734604 -88.312851 -6.5184269
-80.69928 -88.352203 -6.6282368
-86.682335 -88.214729 -8.1891699
-85.667374 -88.20993 -8.0636387
-82.273499 -88.328087 -8.0497303
-83.866348 -88.230423 -8.2683887
-85.269333 -88.23175 -8.7590084
-80.27903 -88.371788 -10.310211
-85.398598 -88.253258 -11.54199
-80.103813 -88.262711 -11.517101
-85.472809 -88.317101 -11.89905
-83.470375 -88.332001 -13.664726
-80.945953 -88.140869 -2.8895609
-84.619705 -88.090439 -3.1040211
-86.689468 -88.122795 -3.3193619
-82.039093 -88.117798 -3.327575
-81.901413 -88.10762 -3.45561
-81.982315 -88.097885 -3.642164
-85.589355 -88.036201 -3.9703341
-86.736725 -88.045685 -4.0544071
-85.588913 -88.038918 -4.0361409
-84.623184 -88.183998 -4.0090222
-84.624947 -88.179588 -4.2039628
-86.721581 -88.098221 -5.7346778
-81.773216 -88.164932 -6.3044529
-84.597839 -88.174858 -7.0110822
-86.694931 -88.128235 -7.7973399
-85.11541 -88.184349 -7.8826022
-84.233879 -88.159393 -8.6182899
-85.72242 -88.00563 -10.06363
-85.047806 -88.112289 -10.037766
-81.249557 -88.170593 -10.479712
-85.600258 -88.144356 -13.595829
-86.362122 -88.018188 -14.782302
-82.542076 -87.870262 -2.922585
-83.716995 -87.823723 -3.0108559
-82.520302 -87.935318 -3.0730519
-82.074051 -87.931923 -3.0285051
-83.849457 -87.84314 -3.357753
-85.646271 -87.855972 -3.8997581
-82.231033 -87.836823 -3.942152
-81.824066 -87.858368 -3.9442129
-86.315704 -87.891563 -4.1908212
-86.281952 -87.877182 -4.2941098
-85.786652 -87.822952 -4.24616
-86.497208 -87.923332 -4.6170869
-80.75206 -87.861145 -7.24368
-83.823578 -87.981216 -8.3402233
-84.986359 -87.894257 -8.6041145
-85.126678 -87.976807 -8.8575897
-80.286575 -87.87252 -9.3348951
-85.027649 -87.943153 -9.5962553
-83.425308 -87.926079 -10.598391
-84.477798 -87.808868 -11.762893
-85.736076 -87.916336 -15.601969
-82.7827 -87.772652 -2.854207
-84.427872 -87.765038 -3.640434
-82.457039 -87.769737 -3.926239
-86.536957 -87.736435 -4.1952248
-84.530121 -87.75676 -4.0379472
-86.307816 -87.734451 -4.324276
-86.141533 -87.751183 -4.2724099
-85.947235 -87.698174 -4.2695661
-86.222336 -87.782501 -4.4479299
-83.934967 -87.618271 -5.6155558
-83.711441 -87.600616 -5.953248
-82.4842 -87.767586 -10.176469
-85.846497 -87.656464 -10.766069
-85.356735 -87.627441 -10.763398
-81.113411 -87.769531 -11.37566
-80.921501 -87.683746 -12.015956
-82.758942 -87.791283 -12.223764
-83.589928 -87.682518 -13.54771
-86.277199 -87.755013 -14.83541
-86.318169 -87.602806 -15.360549
-81.16449 -87.523361 -2.7995491
-80.612038 -87.416901 -2.773108
-81.313126 -87.468636 -2.8758669
-86.380722 -87.491959 -4.4542031
-86.737335 -87.459381 -4.6842971
-86.744614 -87.506752 -5.4693632
-84.033432 -87.577751 -5.6378112
-86.716476 -87.490128 -5.81634
-84.457886 -87.514832 -5.9410148
-86.748245 -87.511887 -6.1899281
-86.745575 -87.514038 -6.875051
-84.088242 -87.515999 -7.1389842
-85.321869 -87.434601 -9.0699196
-84.104942 -87.536652 -9.5840569
-80.085747 -87.57515 -9.7346249
-82.762062 -87.510094 -10.228189
-85.761505 -87.530281 -10.976057
-84.988441 -87.455986 -12.848349
-83.631027 -87.446442 -13.094219
-84.619339 -87.400482 -13.457098
-83.794746 -87.539818 -13.454327
-86.172699 -87.505493 -13.690742
-80.081406 -87.207954 -2.7219141
-84.697891 -87.350883 -2.885747
-81.887573 -87.297134 -2.947823
-81.45311 -87.293823 -2.932235
-83.325333 -87.225891 -3.044229
-82.335304 -87.253242 -3.0088711
-86.845985 -87.299583 -3.742934
-85.781387 -87.367195 -4.0497522
-86.765244 -87.339035 -4.825665
-86.805069 -87.235123 -5.751925
-86.133675 -87.319153 -9.3404484
-85.048866 -87.394852 -9.3437786
-82.311951 -87.341858 -9.2713776
-82.688477 -87.386063 -9.4440308
-82.738548 -87.202126 -9.7505112
-84.983002 -87.210922 -10.88883
-80.071182 -87.201614 -11.397547
-85.010712 -87.393753 -11.585917
-81.399963 -87.365257 -11.46826
-80.10923 -87.280273 -11.830093
-85.026245 -87.318069 -12.434958
-80.334595 -87.336563 -12.820515
-84.282211 -87.021988 -2.988179
-83.667122 -87.06366 -2.957284
-81.749313 -87.141991 -2.9290161
-86.844055 -87.089462 -3.1269269
-85.356949 -87.066833 -3.106209
-85.018982 -87.002892 -3.0308781
-83.575249 -87.095383 -3.0457771
-86.833344 -87.088982 -3.3725779
-85.8293 -87.071228 -3.26408
-84.421371 -87.103844 -3.3169329
-81.771202 -87.170952 -3.284734
-83.05806 -87.171524 -3.524621
-81.767342 -87.133919 -3.465553
-85.053513 -87.080795 -3.7440071
-83.900269 -87.11171 -3.656817
-81.379135 -87.182388 -3.7008231
-84.500908 -87.095314 -3.9153919
-83.186058 -87.15316 -3.9143629
-82.295853 -87.177559 -3.80672
-84.8825 -87.094574 -4.0005908
-86.841629 -87.109421 -5.0706
-86.779305 -87.14476 -6.4675722
-86.841415 -87.00148 -6.993134
-86.88343 -87.006912 -7.4990072
-84.433563 -87.028458 -7.9456611
-81.002144 -87.012077 -7.9483442
-84.458542 -87.000786 -8.0856781
-83.686447 -87.077927 -8.5963221
-86.76564 -87.127136 -8.9348621
-80.607376 -87.179924 -9.152874
-81.770271 -87.016144 -9.9446545
-81.400986 -87.182274 -9.8198814
-81.407623 -87.148125 -10.349267
-85.460716 -87.02552 -10.598509
-80.167664 -87.057663 -12.628099
-81.022202 -86.920822 -2.766953
-82.414856 -86.960724 -2.918792
-85.907845 -86.97052 -3.0738101
-85.073654 -86.925423 -3.0421841
-84.858948 -86.965042 -3.043009
-86.506592 -86.907555 -3.9614229
-86.419556 -86.991417 -4.344193
-86.944473 -86.914093 -4.6665182
-83.762421 -86.850967 -5.5903411
-86.907234 -86.951385 -5.6298342
-83.902931 -86.931366 -5.6548119
-82.551483 -86.935822 -6.2644
-86.894791 -86.978958 -6.4589992
-84.353294 -86.822311 -6.4366651
-86.891113 -86.881241 -6.756597
-83.533653 -86.903534 -7.1296539
-86.838127 -86.836357 -8.7910461
-84.643448 -86.950912 -8.6455822
-86.826477 -86.928116 -9.1330709
-86.128479 -86.929886 -9.2848053
-83.797089 -86.949387 -9.3103905
-83.027206 -86.957169 -9.7274342
-80.167641 -86.817726 -9.9015455
-81.758492 -86.971031 -10.288979
-80.170212 -86.878693 -10.268188
-80.057678 -86.985382 -10.748637
-85.23761 -86.919128 -11.184166
-82.001228 -86.924538 -11.162139
-82.100266 -86.924637 -11.368929
-80.729218 -86.645119 -2.811079
-87.107719 -86.713448 -3.7722189
-87.135246 -86.671234 -4.185998
-87.118431 -86.69825 -4.3270268
-87.156601 -86.647476 -4.660759
-86.982697 -86.787979 -4.996213
-86.239372 -86.630211 -5.7816701
-84.364815 -86.690651 -6.2633629
-84.378708 -86.770874 -6.42698
-87.128448 -86.633377 -6.721633
-87.077255 -86.65065 -6.9096861
-84.623222 -86.602524 -8.0170021
-87.042618 -86.654343 -8.3015919
-86.903351 -86.786774 -8.8863201
-83.154472 -86.758972 -11.661396
-84.628983 -86.755783 -11.954103
-82.060387 -86.661682 -11.892221
-80.118523 -86.640244 -12.013035
-82.927376 -86.597824 -2.9093151
-86.740105 -86.494934 -3.103193
-85.316498 -86.570953 -3.056426
-87.247581 -86.544113 -4.6735082
-87.674515 -86.419327 -5.3542042
-83.517952 -86.520966 -5.5272851
-83.480881 -86.49749 -5.6945672
-87.236755 -86.486443 -5.8065372
-84.719093 -86.544533 -6.2570739
-83.666557 -86.499634 -6.3273859
-83.483459 -86.463745 -6.3104548
-82.526093 -86.544197 -6.2385459
-87.241806 -86.537033 -6.5374479
-87.150002 -86.523849 -6.7658238
-87.141083 -86.573441 -7.5716629
-85.437965 -86.475578 -8.1793652
-81.115143 -86.530884 -8.1921711
-83.911842 -86.589912 -8.238945
-83.152451 -86.431122 -8.3976784
-83.380013 -86.47583 -8.7278061
-87.254143 -86.461372 -8.8676758
-84.975204 -86.455673 -8.8472013
-87.151276 -86.489883 -9.243124
-85.044594 -86.497787 -9.6951876
-82.611496 -86.530617 -9.7259789
-84.872299 -86.418907 -11.192993
-80.406448 -86.575943 -11.173142
-80.110825 -86.416191 -11.316677
-86.370384 -86.507507 -14.277186
-80.981918 -86.300919 -2.81568
-85.324776 -86.273026 -3.0456729
-90.464256 -86.344116 -3.3123789
-89.087761 -86.368042 -4.2049718
-88.964249 -86.343079 -4.6926589
-90.445435 -86.302353 -4.8761239
-88.214897 -86.366035 -4.852221
-87.287033 -86.270821 -5.057889
-83.708176 -86.268951 -5.3222189
-90.234467 -86.283844 -5.4462509
-89.013031 -86.345062 -5.5277429
-89.81855 -86.285538 -5.762239
-83.499557 -86.337662 -5.836246
-87.416962 -86.382919 -7.165576
-87.265549 -86.372292 -7.0016079
-83.852692 -86.314735 -7.661943
-87.364693 -86.336319 -7.9080129
-84.43541 -86.363525 -7.9812441
-85.27906 -86.281921 -8.2056732
-84.864853 -86.340225 -8.5027523
-87.272842 -86.237259 -8.6078043
-80.453049 -86.280121 -8.8617783
-85.545456 -86.315033 -9.1728916
-86.127625 -86.257973 -9.4089785
-85.75753 -86.206482 -9.4968939
-83.236115 -86.211868 -9.4613686
-85.019905 -86.219208 -10.814085
-81.66349 -86.308243 -11.301271
-82.850471 -86.332581 -12.822114
-85.408234 -86.286865 -13.54402
-80.687492 -86.183365 -2.7474401
-84.081451 -86.12439 -2.9515951
-90.764977 -86.139145 -3.167357
-87.507309 -86.117538 -3.2970369
-87.273422 -86.18782 -3.7425089
-87.278984 -86.181358 -3.8889489
-90.826866 -86.195251 -4.1882739
-93.337875 -86.172935 -4.533318
-86.112823 -86.116997 -5.7380781
-85.740906 -86.101578 -5.6845951
-83.525848 -86.164139 -6.1828308
-87.251572 -86.136429 -6.320982
-82.087608 -86.016678 -7.6820402
-87.108337 -86.062263 -7.8248711
-85.950172 -86.158615 -8.2124491
-84.599602 -86.016655 -8.3548269
-87.001999 -86.121559 -9.3943291
-83.08609 -86.1287 -9.2825451
-84.837067 -86.164612 -9.4665422
-80.490204 -86.095596 -9.4688597
-85.066338 -86.059647 -9.7176676
-84.728615 -86.063309 -9.6344366
-82.569565 -86.110474 -9.9484043
-80.970215 -86.049896 -10.665965
-84.854401 -86.141113 -11.464674
-85.222015 -86.173248 -13.085684
-90.783981 -85.926842 -3.716418
-91.520447 -85.818848 -4.18468
-87.459114 -85.962738 -4.453949
-93.426163 -85.845108 -4.8842292
-87.282249 -85.840332 -5.10778
-87.296707 -85.916382 -5.280273
-87.318283 -85.961052 -5.6883059
-86.196045 -85.815659 -5.6610479
-90.629524 -85.819176 -5.8139882
-83.086441 -85.829323 -6.519774
-87.103912 -85.862495 -7.3052578
-88.189545 -85.816536 -7.5473051
-83.841003 -85.892822 -7.459578
-87.429672 -85.896103 -7.8238902
-88.28772 -85.834549 -8.0721273
-80.84964 -85.848602 -8.1780005
-84.599915 -85.94944 -8.2824192
-83.736809 -85.900406 -8.2729578
-87.337509 -85.868729 -8.6377754
-81.066971 -85.870613 -8.6014023
-87.738434 -85.869812 -8.9587231
-80.561172 -85.847076 -8.9167604
-87.112823 -85.982689 -9.278882
-85.820251 -85.920967 -9.4977007
-84.735909 -85.861694 -9.8316517
-82.821518 -85.815186 -9.9224682
-85.837685 -85.924057 -11.318102
-81.870789 -85.832657 -11.539972
-85.415085 -85.910896 -14.021093
-85.531609 -85.772224 -3.034128
-93.453125 -85.754608 -3.7386451
-87.616745 -85.721718 -4.1159501
-87.556595 -85.783897 -4.7110629
-90.80584 -85.798676 -4.8575368
-87.621819 -85.631256 -5.0438299
-86.455307 -85.666565 -5.670876
-85.27597 -85.67601 -5.880444
-82.976738 -85.663971 -6.098393
-87.098518 -85.700256 -6.2711759
-83.433472 -85.78746 -6.5438132
-87.448097 -85.632294 -6.79812
-87.082977 -85.64537 -7.019588
-84.219299 -85.677376 -7.7063498
-88.71199 -85.7314 -7.9523602
-84.607018 -85.629028 -7.841979
-90.860603 -85.616928 -8.1600428
-90.458153 -85.731186 -8.036377
-83.411072 -85.688034 -8.1970844
-84.81604 -85.661743 -8.2766418
-87.066132 -85.678833 -9.0457554
-84.915398 -85.725021 -9.3868551
-84.485207 -85.674637 -9.3731651
-85.38623 -85.611694 -9.5520849
-80.536362 -85.672379 -9.7566013
-80.751411 -85.765564 -12.44997
-85.444359 -85.456116 -3.038466
-87.512688 -85.454712 -5.099381
-86.1782 -85.528717 -5.6642151
-83.03933 -85.535461 -6.0898929
-82.962006 -85.484657 -6.133472
-87.079239 -85.493553 -6.284411
-82.750427 -85.441933 -6.245429
-87.459381 -85.530983 -6.568871
-82.912354 -85.488686 -6.5010581
-83.940704 -85.555023 -6.6657519
-87.084564 -85.530899 -6.885304
-87.222763 -85.459381 -7.00598
-83.731354 -85.416824 -7.2763748
-81.737473 -85.491913 -7.6398649
-87.067589 -85.591835 -7.8120608
-84.65126 -85.416519 -7.9050488
-84.623657 -85.513092 -8.1047096
-82.084824 -85.470345 -8.0390434
-91.307198 -85.574043 -8.3112164
-82.855759 -85.453125 -8.2716265
-82.716827 -85.495804 -8.43964
-80.467331 -85.454742 -8.6248598
-80.594238 -85.448372 -8.8318853
-84.845444 -85.420517 -9.2592201
-84.896469 -85.595337 -9.7956676
-83.301262 -85.416176 -10.528203
-82.963699 -85.298386 -2.8705161
-88.519432 -85.213943 -3.13624
-87.7314 -85.328484 -3.264029
-87.521584 -85.276642 -3.7276881
-87.484016 -85.257294 -3.9238081
-90.710098 -85.288948 -5.1707578
-83.123795 -85.369888 -6.5539818
-87.060455 -85.220108 -6.9181409
-87.059898 -85.342651 -7.377418
-87.06263 -85.318947 -7.9520459
-83.749229 -85.235336 -7.8630328
-82.104012 -85.203705 -9.1986761
-83.22197 -85.321381 -9.9008274
-84.160156 -85.286263 -11.937262
-80.209343 -85.304222 -12.267199
-80.610252 -85.001457 -2.7099431
-82.742691 -85.113243 -6.1727762
-80.633804 -85.039818 -6.1949801
-80.813438 -85.172928 -6.348876
-80.516846 -85.073166 -6.31528
-80.214851 -85.071106 -6.5977588
-87.429733 -85.041473 -6.7959962
-81.600693 -85.170662 -6.680687
-84.456085 -85.031418 -6.807282
-83.732712 -85.02932 -6.9412532
-83.782272 -85.137405 -7.0324621
-80.286263 -85.095703 -7.524312
-84.072586 -85.192474 -7.8148699
-83.358391 -85.122284 -7.821485
-87.035667 -85.048523 -8.2916145
-80.47905 -85.098999 -8.5236988
-80.605705 -85.121521 -9.3408537
-86.915016 -85.023842 -9.4825602
-81.409576 -85.089355 -9.769331
-84.68219 -85.104752 -9.9281588
-84.97271 -85.100624 -10.044822
-80.38842 -85.098198 -11.66656
-80.048431 -84.936432 -2.711314
-88.61013 -84.897705 -3.095139
-90.783852 -84.987053 -3.762876
-87.501091 -84.902649 -4.516448
-87.498299 -84.883354 -4.7515678
-86.907166 -84.954453 -5.7070971
-86.664742 -84.988037 -5.6711702
-80.915802 -84.899467 -6.3434458
-80.549416 -84.944466 -6.4749732
-84.185448 -84.964424 -6.6806378
-87.039894 -84.903625 -6.931684
-80.090225 -84.880363 -6.9540339
-84.266197 -84.921974 -7.2855468
-84.181618 -84.946503 -7.3349538
-81.575775 -84.89856 -7.4676151
-83.783241 -84.862083 -7.8315721
-89.621712 -84.852348 -8.0571871
-82.648399 -84.951645 -8.1365671
-82.167397 -84.955299 -8.3057899
-84.954193 -84.992706 -8.5052872
-83.485443 -84.920151 -8.5030022
-84.061829 -84.838165 -8.7842369
-83.318672 -84.863174 -8.7137127
-87.033409 -84.933922 -8.9236526
-82.463646 -84.998817 -9.1939468
-80.509003 -84.867966 -9.8621454
-80.280487 -84.844612 -9.8833818
-82.072441 -84.852158 -10.685973
-80.111221 -84.984802 -11.050278
-84.852585 -84.894386 -12.183258
-81.338997 -84.696312 -2.790257
-80.83445 -84.742767 -2.7460301
-83.901329 -84.637436 -2.9063959
-83.348434 -84.75119 -2.8892519
-81.077576 -84.609222 -2.8015079
-93.665886 -84.698753 -3.1906631
-85.78273 -84.621002 -5.7149382
-87.370605 -84.639 -6.5077591
-81.105728 -84.682846 -6.7470398
-80.600555 -84.670914 -7.1306839
-82.488556 -84.612862 -7.5377512
-80.076767 -84.720757 -7.4913549
-80.181534 -84.631203 -7.6613412
-87.032326 -84.723236 -7.8686881
-80.870621 -84.673126 -8.2249651
-83.572136 -84.748489 -8.4547167
-82.164757 -84.696465 -8.6197844
-83.773453 -84.606567 -9.1442251
-86.051117 -84.633316 -9.3494434
-82.18988 -84.687813 -9.2343693
-83.113663 -84.733055 -10.117303
-88.637794 -84.585388 -3.0968201
-87.411179 -84.565216 -3.6550591
-81.381653 -84.403671 -3.6690831
-87.447983 -84.517113 -4.111527
-87.393707 -84.573456 -4.2442598
-87.515106 -84.474953 -4.4065661
-87.434586 -84.538795 -5.4778199
-87.338341 -84.522217 -5.4688792
-87.395874 -84.594017 -6.3756909
-82.392731 -84.595345 -7.5704641
-80.118362 -84.562225 -7.5870371
-81.90062 -84.506454 -8.0944118
-83.52726 -84.453415 -8.3522167
-84.725227 -84.420647 -8.5349445
-84.239075 -84.516846 -8.7330122
-83.847702 -84.48423 -8.6870203
-82.515121 -84.511467 -8.6053467
-82.588463 -84.518837 -8.8952951
-83.284004 -84.503975 -9.1102238
-85.832245 -84.533066 -9.6835175
-83.447838 -84.546364 -10.212049
-81.183014 -84.476837 -10.312697
-80.718369 -84.481918 -10.751148
-84.853775 -84.521416 -11.893271
-80.339813 -84.475243 -11.991768
-81.701134 -84.202469 -2.7562621
-80.324677 -84.313797 -2.7200251
-83.340248 -84.38765 -2.9114051
-81.497681 -84.338722 -2.8653791
-87.504021 -84.331596 -3.104414
-85.428619 -84.302444 -3.0850799
-83.693108 -84.220123 -3.012121
-81.346695 -84.358238 -3.085645
-81.658501 -84.347214 -3.2896299
-83.564034 -84.225327 -3.565248
-83.893753 -84.2481 -3.629802
-87.209381 -84.353622 -3.8783231
-84.467636 -84.219261 -3.8436241
-87.210793 -84.33429 -4.3424869
-87.18119 -84.328659 -4.2509928
-87.411041 -84.353134 -5.041903
-87.225647 -84.294998 -5.0190902
-87.018501 -84.287079 -6.1608438
-87.021126 -84.380081 -6.2502189
-80.301537 -84.366837 -6.3590269
-87.36496 -84.318382 -6.6754842
-87.357925 -84.288139 -6.8480482
-80.289742 -84.305511 -7.7229619
-80.273338 -84.29348 -8.0238838
-90.857788 -84.270218 -8.2199497
-83.194481 -84.366585 -8.3560324
-84.6996 -84.262665 -8.5575428
-83.490089 -84.26239 -8.4803286
-84.648384 -84.267975 -8.9813042
-86.52964 -84.228989 -10.696663
-80.61145 -84.253777 -11.350253
-80.820923 -84.136063 -2.739346
-80.100418 -84.148178 -2.7107201
-84.559387 -84.15168 -2.874938
-86.484497 -84.095757 -3.1226299
-87.2687 -84.103806 -3.3476951
-85.880157 -84.059784 -3.567996
-85.682503 -84.181419 -3.5274849
-86.46579 -84.086342 -3.8773069
-84.993813 -84.185295 -3.8247199
-87.234428 -84.12085 -4.1177902
-87.120377 -84.06472 -4.2438688
-87.207825 -84.030785 -4.4049549
-87.453537 -84.125885 -5.0945482
-87.283264 -84.132462 -5.1241121
-87.638374 -84.000237 -5.2293992
-87.514328 -84.060997 -5.2360401
-86.622375 -84.044395 -5.7490649
-86.450905 -84.051025 -5.9983902
-86.976723 -84.03643 -6.1736922
-86.99868 -84.134941 -6.5426311
-86.475388 -84.017021 -6.9114118
-86.613312 -84.141159 -7.3303652
-81.268219 -84.088737 -7.5085659
-80.42894 -84.103737 -7.8014069
-86.43441 -84.020424 -8.1821413
-80.269142 -84.196663 -8.0091019
-82.30072 -84.147003 -8.3912201
-83.455246 -84.171249 -8.4965992
-85.268715 -84.179802 -8.9668808
-83.333244 -84.104286 -9.2320452
-84.063942 -84.181427 -9.7645187
-83.646179 -84.196472 -10.174227
-82.694839 -84.109344 -10.514748
-83.455124 -84.031784 -10.712387
-84.85202 -84.121063 -11.020635
-81.564743 -84.025238 -11.564802
-82.025711 -84.070847 -11.709813
-82.543968 -83.845619 -2.7413199
-82.212006 -83.810249 -2.7357321
-82.099487 -83.94809 -2.715481
-80.016914 -83.941811 -2.768688
-86.459358 -83.868271 -3.060446
-85.433441 -83.833359 -3.5123601
-86.442688 -83.810478 -3.759716
-90.538719 -83.890701 -4.2206521
-99.008408 -83.882187 -5.304306
-87.582138 -83.99424 -5.3311281
-86.368668 -83.858475 -5.532897
-85.23748 -83.845886 -5.8309598
-86.432739 -83.97995 -6.1619968
-86.944412 -83.995895 -6.2831259
-87.351242 -83.988823 -6.4657822
-80.263184 -83.9086 -6.7135611
-86.983391 -83.965286 -6.8552871
-86.993675 -83.976219 -7.1351008
-86.431488 -83.873962 -7.1149578
-81.877968 -83.91954 -7.5366011
-81.121994 -83.991623 -7.4639168
-81.444824 -83.913033 -7.6667709
-82.028099 -83.947578 -8.0925007
-81.963623 -83.989441 -8.104805
-81.889572 -83.947601 -8.2133846
-91.44931 -83.990654 -8.5484886
-84.986046 -83.91597 -8.5529108
-84.367584 -83.926132 -8.5983324
-86.995819 -83.903824 -8.6275301
-86.415985 -83.906525 -8.667984
-84.53006 -83.863945 -8.7444286
-84.919373 -83.901749 -9.0280895
-84.979996 -83.876465 -9.4477358
-84.158249 -83.928452 -9.7062893
-82.353394 -83.830353 -9.6775961
-85.356606 -83.803856 -9.8331137
-83.748093 -83.872635 -9.8494186
-81.699303 -83.827156 -9.8740597
-83.067497 -83.854965 -10.19589
-85.642647 -83.808762 -10.294542
-80.132828 -83.9562 -11.428865
-81.989433 -83.644073 -2.7199409
-81.481018 -83.730286 -2.739089
-80.938477 -83.770149 -2.7952771
-90.328949 -83.766434 -3.1241081
-81.209412 -83.652466 -3.2134609
-81.075027 -83.630768 -3.350889
-80.971771 -83.61586 -3.5501859
-80.704544 -83.708244 -3.4467421
-90.379395 -83.794716 -3.850601
-86.023926 -83.615479 -4.3011799
-85.952545 -83.616425 -4.6699471
-93.015495 -83.747993 -4.8590369
-86.295547 -83.795784 -4.8397002
-86.442062 -83.755264 -6.2654061
-86.464767 -83.795273 -6.502203
-90.320244 -83.753204 -7.4108071
-82.285515 -83.793365 -7.6806202
-82.190048 -83.758652 -7.6706829
-81.923477 -83.737411 -7.6490078
-81.028641 -83.728394 -7.716188
-86.420753 -83.742874 -8.5820074
-82.611763 -83.658508 -8.6307983
-86.415604 -83.687485 -9.0916786
-81.511597 -83.759697 -9.1900921
-85.988037 -83.719994 -9.3973665
-85.664658 -83.710548 -9.9548426
-81.503502 -83.741592 -9.9208813
-81.822502 -83.694221 -10.158908
-85.418716 -83.719475 -10.399951
-83.521057 -83.669785 -10.763432
-85.067154 -83.789261 -11.102839
-81.465385 -83.461349 -2.7807441
-81.015945 -83.476959 -2.708339
-84.01329 -83.492165 -2.8232591
-83.88221 -83.48658 -2.899353
-82.944534 -83.481171 -2.923265
-81.628685 -83.547203 -2.8057361
-81.429955 -83.50618 -2.9624541
-81.051483 -83.553497 -2.9347701
-85.020882 -83.411446 -3.131423
-84.993523 -83.42659 -3.10976
-82.944969 -83.460526 -3.1445429
-82.217758 -83.471405 -3.1212029
-80.968376 -83.548935 -3.078949
-85.004372 -83.404335 -3.379807
-85.781929 -83.436234 -3.587081
-83.892738 -83.482719 -3.4430771
-82.271484 -83.440445 -3.4341519
-84.059578 -83.403671 -3.694258
-82.936035 -83.454941 -3.807909
-82.569397 -83.463219 -3.8098111
-83.898941 -83.462189 -4.0236669
-86.44429 -83.540176 -4.5012479
-86.438812 -83.562714 -4.620657
-85.531952 -83.425735 -4.6410599
-88.882027 -83.596786 -6.8319888
-81.862717 -83.497375 -7.6173
-90.33847 -83.429489 -8.1956825
-82.888039 -83.561317 -8.6035414
-82.598755 -83.573318 -8.6175327
-86.405434 -83.476318 -9.2547016
-83.245232 -83.438156 -9.5279789
-85.469597 -83.560944 -9.6652231
-85.745865 -83.500374 -9.8784676
-84.025223 -83.493118 -9.9706821
-84.902084 -83.334732 -2.7562931
-81.843674 -83.266373 -2.7727251
-80.278786 -83.365257 -2.759136
-80.149384 -83.390526 -2.763324
-83.114319 -83.352234 -2.825639
-81.468323 -83.317993 -2.8311059
-81.343277 -83.2995 -2.934288
-80.671555 -83.303398 -2.8059969
-86.428589 -83.365341 -3.051404
-81.670288 -83.383286 -3.370213
-85.80925 -83.37149 -3.543839
-85.497711 -83.257172 -3.49087
-85.023315 -83.284973 -3.4554629
-86.448929 -83.256378 -3.793052
-84.964615 -83.399765 -3.6069889
-83.933014 -83.350296 -3.7549009
-83.923859 -83.370239 -3.885823
-86.047661 -83.302155 -4.1010132
-85.717804 -83.326218 -4.0951958
-86.394684 -83.341995 -6.2135792
-86.366714 -83.359955 -7.531178
-89.359863 -83.372322 -9.3271866
-82.73143 -83.288002 -9.3471661
-90.111656 -83.359543 -9.4164438
-81.353043 -83.125778 -2.7948191
-80.141357 -83.096054 -2.7638941
-86.425674 -83.071754 -3.0237191
-82.122169 -83.068504 -3.9465389
-99.99295 -83.089233 -4.0822949
-85.023621 -83.066956 -4.0607672
-86.452782 -83.058273 -4.5010619
-85.192451 -83.103928 -5.7149038
-99.662796 -83.074768 -5.9775782
-90.335503 -83.012054 -6.305387
-86.395355 -83.024109 -7.0975218
-86.40181 -83.192474 -7.345777
-86.357643 -83.038254 -7.487433
-90.331749 -83.04879 -8.9937153
-86.00341 -83.130486 -9.1134167
-82.706421 -83.153473 -10.269945
-83.329979 -83.116547 -10.484201
-86.40049 -82.862755 -2.78335
-83.109634 -82.920944 -2.7743549
-81.308899 -82.860474 -2.773885
-83.779083 -82.931335 -2.840255
-82.70723 -82.893539 -2.8304241
-81.392044 -82.970345 -2.816606
-89.451843 -82.814285 -3.2089109
-82.262466 -82.805054 -4.3064618
-86.250397 -82.92231 -5.6571808
-85.898544 -82.848785 -5.7368102
-85.731125 -82.840225 -5.6811671
-86.390869 -82.965195 -6.559463
-86.329819 -82.846825 -7.9147921
-86.353821 -82.884834 -8.1219234
-86.444946 -82.601387 -2.9342871
-83.826569 -82.751907 -2.802655
-90.327255 -82.639008 -3.3305111
-85.672256 -82.604126 -3.326869
-86.408218 -82.600929 -4.219245
-81.883377 -82.64476 -4.2699022
-86.387131 -82.608925 -6.28617
-86.365852 -82.689705 -7.3737779
-90.30629 -82.607727 -8.1434269
-86.351326 -82.735268 -8.0573978
-84.930023 -82.559349 -2.7143569
-80.217262 -82.593605 -2.7093
-85.647369 -82.567047 -2.855329
-82.132645 -82.569443 -2.9082761
-81.780365 -82.441612 -3.110492
-83.1437 -82.556183 -3.3614049
-89.716721 -82.501877 -3.403177
-81.531357 -82.54332 -3.5131691
-85.055717 -82.50116 -4.0658531
-86.392654 -82.587158 -4.4919062
-86.388489 -82.52507 -5.029458
-86.332214 -82.514511 -6.9133649
-90.301666 -82.515564 -9.0171022
-86.004738 -82.558014 -9.1011543
-82.313431 -82.20961 -2.729552
-81.757561 -82.355606 -2.744627
-81.485962 -82.331612 -2.786447
-81.479324 -82.299812 -2.9202709
-81.075256 -82.358559 -2.8108599
-80.612633 -82.200775 -2.8024249
-86.435463 -82.334236 -3.7981939
-85.10701 -82.325775 -3.7441549
-85.620842 -82.290863 -4.0108271
-86.41848 -82.233635 -4.4934521
-81.676132 -82.338432 -4.528183
-86.405594 -82.255791 -5.4521661
-86.370552 -82.211754 -5.4084239
-86.369202 -82.210968 -6.4960871
-86.097565 -82.226624 -9.0709438
-85.953354 -82.212227 -9.1517229
-85.240387 -82.031067 -2.7129359
-81.862236 -82.137024 -2.7712629
-80.15979 -82.198837 -2.7272191
-85.365227 -82.079597 -2.9087901
-81.365791 -82.085594 -2.8069911
-82.084785 -82.119621 -3.0196979
-81.72168 -82.151001 -3.0740731
-85.38887 -82.106865 -3.670614
-85.465775 -82.072433 -4.2819791
-85.33609 -82.01384 -4.283597
-86.367683 -82.051414 -5.3961849
-86.375458 -82.113388 -5.4843121
-86.36673 -82.115311 -5.6169138
-86.367233 -82.110703 -5.8469162
-86.349457 -82.117836 -6.2722621
-86.363113 -82.155029 -6.5005169
-86.316887 -82.100174 -7.9325199
-84.944405 -81.815323 -2.707346
-81.895615 -81.908966 -2.7546279
-85.405495 -81.978096 -3.5067501
-81.699219 -81.857986 -3.637845
-85.323921 -81.852966 -4.1452322
-90.29863 -81.91552 -4.2013669
-85.451485 -81.9291 -4.3478031
-86.331741 -81.925102 -6.0348272
-88.451164 -81.876381 -6.6734538
-86.321198 -81.830635 -6.8855109
-86.308594 -81.870026 -7.0786328
-86.313393 -81.947998 -7.8508658
-89.131279 -81.838799 -9.3945637
-86.350754 -81.701523 -2.746352
-85.483681 -81.738403 -2.694869
-80.362244 -81.696335 -2.741158
-81.470001 -81.683701 -2.871701
-85.932938 -81.721703 -3.6148059
-85.316345 -81.710426 -4.1583142
-90.288452 -81.737244 -4.9673858
-86.358719 -81.746994 -5.062716
-90.289337 -81.784454 -6.9574871
-90.27372 -81.781456 -8.2526894
-86.315079 -81.743546 -9.2226725
-81.856941 -81.495636 -2.7168951
-80.999481 -81.468307 -2.7136049
-80.751755 -81.597382 -2.682827
-85.357956 -81.477341 -3.7399051
-90.266914 -81.497223 -7.3394761
-90.26104 -81.404709 -7.736485
-86.269829 -81.417511 -8.0774679
-90.256454 -81.560333 -8.9329472
-86.075912 -81.399628 -2.7239151
-85.227707 -81.276703 -2.7080951
-85.057022 -81.31707 -2.71889
-84.941162 -81.355804 -2.6825161
-81.112839 -81.242668 -2.7507529
-85.442001 -81.350708 -3.533051
-85.356125 -81.299171 -3.699898
-85.30294 -81.319427 -4.0856729
-86.373077 -81.294189 -6.0692329
-86.286591 -81.257545 -6.9058371
-86.283844 -81.290817 -7.9471469
-86.314751 -81.373077 -8.5619783
-85.428085 -81.091446 -2.751641
-83.809105 -81.007599 -2.7263291
-82.718521 -81.019394 -2.6525021
-81.749451 -81.113541 -2.6977201
-80.554611 -81.098602 -2.6902931
-80.200882 -81.055443 -2.6782351
-86.413475 -81.112839 -3.019845
-85.496101 -81.044609 -3.678534
-87.749893 -81.04203 -4.181674
-86.427284 -81.167953 -6.041575
-86.296356 -81.076431 -7.719873
-90.240234 -81.041733 -8.5591841
-85.266205 -80.935539 -2.67923
-84.866524 -80.931297 -2.691448
-85.488419 -80.888023 -3.5900979
-82.078957 -80.883118 -3.4934239
-81.436401 -80.933525 -3.504488
-85.622993 -80.870903 -3.7737751
-85.55571 -80.824181 -4.0171852
-85.903389 -80.991463 -9.2572613
-85.066383 -80.736511 -2.6630199
-84.978943 -80.620987 -2.657552
-83.067604 -80.637672 -2.728343
-82.722855 -80.681335 -2.6797609
-81.69883 -80.687759 -2.6929131
-81.438736 -80.694557 -2.758276
-83.748055 -80.706635 -3.3651171
-81.385017 -80.688248 -3.2255399
-82.118843 -80.663513 -3.861825
-89.398438 -80.742813 -4.3965402
-90.216293 -80.725639 -4.8583899
-86.287109 -80.619576 -7.2875271
-86.277679 -80.785126 -7.4957161
-86.278702 -80.693886 -7.6091261
-90.239632 -80.716507 -8.1496334
-86.287682 -80.63372 -8.1222649
-86.247459 -80.75444 -8.984766
-85.157707 -80.477425 -2.6977611
-83.847046 -80.576912 -2.7499671
-81.44313 -80.547363 -2.907675
-81.460022 -80.460663 -3.61097
-82.294861 -80.464462 -3.8633289
-87.660645 -80.511284 -4.1980939
-86.31646 -80.439575 -5.2281919
-90.24424 -80.588989 -6.2031212
-86.269653 -80.460907 -7.9493141
-83.439987 -80.344093 -2.731251
-83.146698 -80.205513 -2.7531819
-82.269211 -80.211014 -2.6315811
-81.086044 -80.349762 -2.6932051
-86.327141 -80.369553 -3.336401
-81.385712 -80.269012 -3.720166
-86.328827 -80.338882 -3.938421
-86.579178 -80.207405 -4.3201289
-86.897079 -80.294907 -4.6883888
-86.320801 -80.257896 -4.6821661
-86.579208 -80.227768 -4.8534541
-86.672592 -80.227669 -5.3286338
-86.692215 -80.234108 -5.483377
-86.568436 -80.219727 -5.7694011
-86.555038 -80.220177 -6.0436358
-86.637909 -80.205383 -6.529109
-86.28672 -80.266312 -6.4552302
-81.285873 -80.156654 -2.7019451
-83.412842 -80.147354 -2.918628
-83.153259 -80.043114 -2.8351381
-88.331924 -80.060364 -3.3185279
-85.648582 -80.075607 -3.8643639
-86.606522 -80.194077 -5.3712301
-86.30687 -80.15979 -5.2157531
-90.217133 -80.106842 -5.7696419
-86.298347 -80.194763 -6.1492891
-86.567665 -80.167664 -6.4916091
-90.218544 -80.064522 -6.623136
-86.611717 -80.183449 -6.6382108
-86.664452 -80.181702 -6.8427801
-86.648819 -80.15863 -7.1465969
-86.562553 -80.119316 -7.5283952
-86.671959 -80.146896 -7.785913
-86.276611 -80.152481 -8.0885906
-86.268959 -80.169205 -8.2001905
-80.476547 -99.848877 -3.1759169
-81.553986 -99.932655 -4.353857
-82.682739 -99.971313 -4.5461168
-82.567673 -99.989777 -4.90763
-82.033691 -99.912109 -4.9612212
-81.969414 -99.822411 -4.924058
-82.629677 -99.92141 -5.0095482
-82.21936 -99.985321 -5.0079389
-82.022858 -99.929131 -5.6961069
-81.950661 -99.842941 -5.6781659
-86.409393 -99.944557 -6.0206952
-81.928055 -99.845413 -6.338408
-82.255341 -99.937523 -6.507216
-83.723839 -99.872406 -6.682652
-82.927078 -99.887756 -6.7296038
-86.401756 -99.887291 -6.8819141
-83.644241 -99.932587 -6.877893
-83.067703 -99.907562 -6.8780751
-83.521599 -99.837692 -7.0185781
-83.339996 -99.861977 -7.0528059
-82.858627 -99.901756 -7.2559381
-82.507156 -99.821648 -7.8254671
-80.568581 -99.756592 -3.1674731
-83.801376 -99.751556 -3.550483
