# .PCD v0.7 - Point Cloud Data file format
VERSION 0.7
FIELDS x y z
SIZE 4 4 4
TYPE F F F
COUNT 1 1 1
WIDTH 624
HEIGHT 1
VIEWPOINT 0 0 0 1 0 0 0
POINTS 624
DATA ascii
-95.846169 -289.03818 -13.296885
-95.039986 -289.08716 -13.275404
-92.970863 -289.15335 -13.344538
-90.893394 -292.28134 -10.61303
-90.237625 -291.59064 -10.611781
-90.841316 -290.40421 -13.437117
-90.678406 -289.82843 -13.447461
-91.22123 -289.27618 -10.424906
-93.362549 -289.15607 -13.341858
-90.722137 -283.26828 -9.785656
-84.721893 -299.82346 -8.9993038
-84.125275 -299.85727 -8.8587551
-83.958511 -299.84003 -8.9399061
-85.376221 -299.85794 -9.1224413
-85.766335 -299.8045 -15.041916
-86.121628 -299.91669 -16.115738
-83.239494 -299.92917 -17.948189
-87.147308 -299.6488 -8.7109442
-86.550323 -299.66721 -8.7911835
-86.120316 -299.6521 -8.7948141
-85.916443 -299.69568 -8.7011414
-87.000999 -299.68954 -8.9393988
-86.14473 -299.7486 -8.9347363
-85.952881 -299.74527 -8.9790077
-85.022858 -299.78488 -8.870739
-87.346848 -299.68567 -9.0447426
-86.558609 -299.7016 -9.1213303
-86.236252 -299.67645 -9.1213999
-85.939743 -299.69385 -16.283417
-84.214531 -299.20581 -15.009438
-86.226784 -298.96597 -13.100659
-85.371773 -298.93405 -14.564871
-85.588562 -298.89737 -16.15403
-85.771255 -298.81787 -16.294083
-85.701302 -298.5733 -12.578249
-85.429161 -298.34698 -12.331924
-85.500671 -298.28732 -14.894323
-85.241455 -298.32373 -15.65103
-85.754936 -298.24188 -16.427166
-82.236801 -298.19208 -13.986226
-86.186638 -298.06836 -14.109922
-84.82003 -298.0293 -14.313889
-83.194 -298.0509 -14.267757
-82.301666 -298.04846 -14.370294
-85.050529 -298.03925 -14.474895
-85.632263 -298.03616 -18.056124
-84.695526 -297.91394 -14.236598
-83.266014 -297.97083 -14.363396
-86.152443 -297.97931 -14.507175
-83.339241 -297.93176 -14.415989
-85.272675 -297.99585 -14.929331
-85.392883 -297.87079 -16.176502
-85.419205 -297.85205 -16.513277
-85.920822 -297.76401 -14.082444
-85.625587 -297.71866 -17.709385
-85.370712 -297.65359 -17.85622
-84.557686 -297.46509 -14.857773
-85.466606 -297.25848 -13.02879
-84.991463 -297.37665 -13.027648
-85.291634 -297.27539 -13.239332
-82.383987 -297.36551 -15.667055
-85.041519 -297.36957 -15.977924
-82.457924 -297.34546 -15.930599
-85.022919 -297.34512 -16.194901
-84.306488 -297.06659 -14.265387
-83.848824 -296.90436 -13.875065
-84.513397 -296.87164 -14.361417
-84.799614 -296.85306 -15.484665
-84.700058 -296.96948 -15.738395
-84.64325 -296.84253 -16.292282
-84.458076 -296.93326 -17.591362
-84.210342 -296.64111 -12.868509
-84.344261 -296.729 -15.744278
-84.498459 -296.69455 -15.916763
-84.582916 -296.7352 -16.238514
-83.873795 -296.65567 -17.28056
-85.006012 -296.64581 -17.427368
-84.250877 -296.72235 -17.607683
-84.297073 -296.51938 -17.380709
-84.954079 -296.47235 -17.603104
-82.677933 -296.25586 -17.149151
-83.528893 -296.06702 -14.643082
-82.911636 -296.16675 -15.494604
-84.149246 -295.87085 -15.528387
-83.790115 -295.67331 -15.539717
-84.031082 -295.78906 -15.712265
-83.97039 -295.79541 -15.738371
-82.957222 -295.70685 -18.996174
-82.8423 -295.56653 -15.504146
-83.73877 -295.5293 -15.725728
-82.910995 -295.45691 -15.688433
-83.84111 -295.50961 -16.124832
-83.479462 -295.31287 -15.691195
-83.15715 -295.27228 -16.141165
-83.262085 -295.11823 -15.474219
-83.359924 -295.09796 -15.731454
-83.332298 -294.3465 -20.316322
-83.06842 -294.02893 -8.7496986
-83.200439 -294.11871 -9.5920773
-83.112869 -293.94482 -8.891387
-83.321785 -293.65073 -8.7574167
-83.285141 -293.63803 -8.9440613
-83.355499 -293.57037 -8.5127754
-87.364059 -293.44434 -8.9334431
-87.168983 -293.42923 -9.0728397
-87.618713 -293.46753 -9.3342962
-87.416931 -293.44232 -9.3758926
-87.140427 -293.47284 -9.6641006
-83.393997 -293.53046 -9.9217167
-83.396606 -293.50964 -10.190187
-83.263855 -293.5892 -10.483741
-87.43972 -293.40579 -10.920438
-87.038757 -293.54401 -10.881948
-83.61042 -293.50357 -11.095092
-83.428963 -293.4693 -11.095538
-87.407585 -293.32397 -8.6649303
-83.672226 -293.23706 -9.5240765
-87.441765 -293.3367 -9.6721535
-87.67775 -293.30316 -10.122427
-87.694412 -293.37744 -10.48713
-87.43618 -293.3931 -10.531704
-87.67907 -293.34894 -11.003461
-82.860962 -293.04755 -17.018433
-82.250603 -293.01239 -20.047325
-81.136261 -293.04291 -24.803278
-81.377998 -292.84473 -16.949692
-84.906586 -292.90234 -17.377102
-84.7229 -292.92969 -17.351019
-84.21299 -292.98169 -17.389294
-83.632286 -292.90973 -18.391315
-83.700684 -292.90646 -18.561632
-83.02243 -292.67389 -14.163383
-82.564774 -292.75653 -14.003857
-84.562355 -292.65146 -17.355366
-84.573242 -292.73041 -18.588537
-83.517868 -292.74152 -18.516859
-83.529449 -292.67517 -20.040792
-82.000038 -292.71283 -20.001453
-83.494408 -292.41754 -8.7387638
-83.475418 -292.42114 -8.9403677
-82.927727 -292.45557 -13.574395
-82.720474 -292.57758 -13.576427
-82.96196 -292.53253 -13.846779
-82.741554 -292.57489 -13.860989
-82.159637 -292.44519 -13.826264
-81.875137 -292.51984 -13.819777
-82.531708 -292.55762 -16.951862
-82.82901 -292.52573 -17.266376
-84.185524 -292.59509 -18.512297
-83.540375 -292.3812 -8.5359354
-87.162857 -292.258 -8.9211655
-83.496536 -292.33063 -9.9808922
-83.462181 -292.35577 -10.767635
-80.957039 -292.33893 -15.083115
-81.514297 -292.20816 -15.394551
-82.329544 -292.2215 -16.895458
-84.214966 -292.31415 -18.819637
-87.239014 -292.19327 -9.0631561
-87.265091 -292.18427 -9.645668
-87.141418 -292.18045 -10.560978
-83.1502 -292.01389 -16.911098
-83.840393 -292.17102 -18.813675
-80.971603 -292.18768 -24.585213
-88.272964 -291.93994 -9.6860008
-88.318283 -291.96924 -10.441886
-88.695023 -291.80231 -10.847959
-83.217262 -291.89609 -16.782343
-83.184814 -291.9158 -16.920506
-83.2752 -291.89465 -17.221359
-81.710968 -291.97815 -18.363012
-82.514709 -291.83102 -18.570492
-88.934425 -291.71542 -9.3963737
-88.000519 -291.78125 -9.3746004
-89.310829 -291.62738 -9.8061466
-88.996033 -291.62885 -10.545412
-87.870369 -291.63477 -10.508133
-88.935005 -291.63876 -10.903473
-87.846184 -291.66306 -10.876641
-87.906685 -291.60675 -11.799299
-81.473145 -291.79291 -15.569043
-83.446808 -291.74139 -17.172462
-82.32872 -291.75348 -18.336329
-81.774689 -291.67914 -24.466541
-88.031296 -291.59158 -9.8773146
-89.873245 -291.52042 -10.090267
-89.335388 -291.53995 -10.099993
-89.224373 -291.58871 -10.426608
-89.031799 -291.5658 -11.058886
-88.537231 -291.56061 -11.189051
-88.206436 -291.552 -11.175339
-89.973289 -291.46445 -11.448009
-88.460701 -291.59811 -11.79869
-82.11409 -291.57617 -18.317554
-80.974174 -291.24213 -13.413889
-82.735123 -291.263 -20.183277
-80.72422 -291.18539 -13.444887
-81.862366 -291.06717 -16.719906
-82.081802 -290.79263 -14.943187
-81.906921 -290.64362 -14.982018
-80.269188 -290.52988 -13.560251
-81.923035 -290.50998 -15.223543
-81.703903 -290.57208 -22.883339
-81.689323 -290.36636 -23.097446
-81.528824 -289.95001 -22.598995
-87.341309 -289.69977 -8.9235134
-92.08847 -289.36578 -10.380399
-95.403557 -289.0791 -13.273298
-94.190231 -289.12079 -13.332078
-93.806763 -289.1297 -13.335789
-91.282593 -288.67175 -10.390674
-87.306091 -287.09396 -12.81958
-88.217361 -283.73267 -9.0164165
-87.052155 -282.61786 -8.4418049
-87.106842 -281.7706 -8.6108408
-88.187271 -281.78351 -8.9478025
-86.367813 -281.22876 -8.2843046
-87.637329 -280.51266 -8.7128887
-87.447418 -280.38513 -8.4976568
-85.030502 -299.8338 -8.77073
-84.192169 -299.88635 -8.7552795
-85.250793 -299.8497 -8.9574661
-85.012283 -299.81906 -8.8948956
-84.747963 -299.84772 -8.9264202
-84.055939 -299.85535 -8.9010048
-87.507805 -299.93878 -14.289446
-86.120758 -299.96539 -16.148962
-87.536469 -299.61716 -8.7813988
-86.144157 -299.76462 -8.7710934
-87.339035 -299.68454 -8.9994507
-87.056076 -299.71423 -8.9090786
-86.582397 -299.72424 -8.9603691
-86.123184 -299.77872 -8.8801117
-85.866959 -299.78851 -8.8800135
-83.029137 -299.49142 -17.883465
-86.554451 -298.96945 -13.111496
-86.250954 -298.88824 -13.372616
-85.47995 -298.42084 -12.437859
-84.91674 -298.20795 -12.328852
-84.914246 -298.21426 -12.539911
-85.46666 -298.19492 -12.976785
-84.673996 -298.10745 -13.043344
-84.453033 -298.08569 -13.299835
-82.231972 -298.16205 -13.973959
-86.13031 -298.03613 -14.152952
-85.968697 -298.03601 -14.050636
-83.280273 -298.0603 -14.041205
-83.188469 -298.03308 -14.178173
-84.830765 -298.03094 -14.229656
-85.197433 -298.01038 -14.861708
-84.928268 -297.88849 -14.06612
-84.713058 -297.90399 -14.191036
-84.900635 -297.9324 -14.574809
-84.895096 -297.9325 -14.879651
-85.320618 -297.86835 -16.225483
-85.012077 -297.48529 -13.296719
-85.233353 -297.50119 -16.292938
-85.437073 -297.53168 -17.735617
-84.513954 -297.32947 -14.782906
-83.586517 -297.30338 -17.575003
-83.962448 -297.0285 -13.193355
-84.478729 -296.83548 -13.896372
-84.05117 -296.97449 -13.888939
-84.637085 -296.966 -15.807198
-84.313675 -296.84631 -15.893302
-84.691406 -296.89374 -16.357765
-84.518661 -296.89676 -16.519548
-84.984261 -296.82657 -16.795097
-82.638741 -296.93442 -19.082428
-84.460289 -296.73666 -15.875946
-84.757874 -296.69092 -17.359123
-85.029846 -296.69028 -17.50758
-84.198196 -296.74106 -17.618515
-83.866272 -296.74646 -17.877192
-84.411812 -296.39026 -17.514641
-83.389275 -295.99347 -14.684494
-84.015884 -295.83054 -15.69918
-83.842606 -295.7265 -15.547977
-83.324966 -295.6178 -15.455164
-83.913635 -295.68231 -15.833246
-82.747978 -295.65729 -16.110855
-83.689629 -295.58603 -15.52976
-82.982414 -295.40497 -15.667204
-84.049461 -295.50467 -15.88265
-82.769463 -295.5744 -19.006193
-83.508446 -295.29025 -15.773009
-83.254723 -295.21164 -16.006702
-82.234146 -294.73718 -21.249605
-81.630775 -294.42615 -20.267433
-83.062836 -294.23355 -10.354731
-83.01799 -294.05518 -8.7193937
-82.941879 -294.02582 -8.9351511
-83.150909 -293.80984 -8.6896324
-83.375458 -293.659 -8.6239433
-83.654495 -293.76468 -8.9596348
-83.305801 -293.64777 -8.8898134
-83.705681 -293.71625 -9.2747126
-83.268311 -293.64053 -9.3409729
-83.381744 -293.61581 -10.371363
-83.319809 -293.63165 -10.407938
-83.682838 -293.66299 -10.624005
-87.344025 -293.50601 -8.6455631
-87.446518 -293.4978 -8.8815355
-83.383423 -293.59372 -8.881443
-87.182137 -293.45642 -9.0863819
-83.190117 -293.59003 -10.459661
-91.056488 -293.41422 -10.660206
-87.427338 -293.44543 -10.642097
-87.389305 -293.4201 -10.905066
-87.653053 -293.38199 -9.1785879
-87.697662 -293.37598 -9.7436371
-87.426323 -293.33377 -10.101858
-87.413605 -293.30658 -11.232853
-87.197868 -293.35138 -11.233426
-82.578308 -293.34109 -20.104927
-87.281303 -293.12067 -9.8980122
-84.129295 -293.05539 -17.485006
-82.740692 -293.05328 -19.66045
-90.949844 -292.93503 -13.520547
-82.684921 -292.96619 -16.945021
-84.573341 -292.90295 -17.420307
-83.519119 -292.83612 -20.048048
-82.745407 -292.60895 -13.918581
-82.949875 -292.72089 -14.128639
-82.272079 -292.63065 -14.134288
-84.51416 -292.73752 -17.43132
-84.5867 -292.7012 -18.590248
-83.381027 -292.71356 -18.607643
-83.147438 -292.74646 -20.041611
-81.805206 -292.69168 -21.859243
-83.479897 -292.44907 -8.653203
-83.45163 -292.44019 -8.9109945
-83.494026 -292.43188 -10.325995
-83.450287 -292.43896 -10.73098
-83.212982 -292.5694 -14.013525
-82.284607 -292.5975 -16.861633
-84.230682 -292.55774 -18.610798
-83.865738 -292.50397 -18.692783
-83.982971 -292.51157 -18.819632
-83.641167 -292.45908 -21.554317
-87.239807 -292.23523 -8.8981237
-87.136261 -292.26483 -8.9049416
-87.157196 -292.23929 -10.589628
-87.100044 -292.23349 -10.836012
-82.682327 -292.35648 -16.963024
-82.913864 -292.25427 -17.002186
-83.622093 -292.20764 -18.747398
-83.540329 -292.24918 -18.81576
-83.76474 -292.32111 -21.558846
-83.548325 -292.28497 -21.514452
-87.198456 -292.15289 -9.7098169
-87.085075 -292.16541 -10.060817
-83.028122 -292.10785 -18.273594
-88.185043 -291.91235 -10.088675
-88.65657 -291.82193 -10.436181
-88.157669 -291.89331 -10.917801
-83.323975 -291.87299 -17.020351
-82.434906 -291.93823 -18.226294
-84.124863 -291.95358 -19.892473
-83.749397 -291.80603 -21.789131
-87.792618 -291.69354 -9.379447
-89.738914 -291.65753 -9.4713812
-89.396706 -291.66629 -9.4672775
-88.929634 -291.67023 -9.6981697
-87.896812 -291.64044 -9.7080812
-89.734421 -291.62262 -9.8088789
-89.638405 -291.60385 -10.425076
-88.073212 -291.6713 -10.648727
-87.808632 -291.70679 -10.615969
-89.634956 -291.64243 -10.856917
-87.812805 -291.68573 -10.86286
-87.707367 -291.66183 -11.168215
-82.351181 -291.78821 -18.362167
-83.921066 -291.74573 -19.848368
-83.331627 -291.75861 -21.508604
-89.276794 -291.5517 -9.8310719
-87.854187 -291.59933 -9.8750153
-87.789017 -291.57257 -10.080077
-90.231529 -291.55746 -10.515528
-88.95916 -291.58023 -10.744772
-89.319839 -291.51501 -11.135872
-90.300919 -291.48322 -11.445601
-88.5644 -291.53168 -11.483208
-88.195557 -291.53558 -11.46465
-87.804146 -291.55029 -11.456944
-89.890205 -291.54697 -11.793895
-89.558578 -291.56525 -11.795567
-81.176117 -291.49432 -15.00482
-81.394531 -291.41748 -15.257565
-83.11937 -291.52182 -21.472042
-83.049843 -291.56607 -21.641336
-81.909912 -291.55457 -24.392054
-80.758286 -291.25076 -13.390157
-80.603729 -291.30591 -13.725008
-82.469574 -291.22543 -19.723328
-82.906647 -291.21283 -20.179836
-82.679672 -291.30344 -20.22718
-82.112236 -291.38919 -20.260727
-82.572739 -291.0867 -19.868011
-81.970276 -290.86737 -14.96759
-81.889633 -290.90961 -22.965176
-82.147873 -290.66666 -15.229765
-80.224167 -290.40341 -13.64805
-80.631859 -290.41003 -13.885365
-82.373474 -290.59274 -24.192835
-88.517166 -290.35629 -9.1174822
-88.282532 -290.31729 -9.1082678
-81.51088 -290.29019 -23.074436
-87.297714 -289.73022 -8.8663979
-92.50882 -289.34619 -10.35561
-92.561569 -289.14709 -13.422121
-90.688942 -286.71097 -9.1081963
-88.507767 -285.6019 -12.159143
-88.802658 -285.18817 -11.848459
-87.371292 -284.45752 -8.7314901
-86.358604 -283.48242 -8.2735147
-86.47361 -283.35654 -8.4344759
-90.813065 -283.20959 -10.139213
-95.943619 -282.83673 -21.137304
-87.294479 -281.73795 -8.4925632
-95.479286 -281.75461 -20.484188
-88.033714 -280.98364 -8.9440012
-87.477615 -280.58823 -8.6453037
-89.229332 -280.19678 -9.0137434
-85.312759 -299.83289 -8.795496
-85.052757 -299.83716 -8.7229042
-84.235825 -299.89816 -8.7639256
-83.885712 -299.87836 -8.7735767
-85.327103 -299.82416 -8.9017153
-85.050392 -299.85251 -8.8748627
-84.122826 -299.87378 -8.8855324
-83.913216 -299.84085 -8.8599405
-82.006935 -299.84937 -14.129145
-87.580444 -299.979 -15.098583
-87.107262 -299.73914 -8.746562
-86.075439 -299.79486 -8.7773609
-85.897766 -299.73898 -8.7398949
-87.133171 -299.77551 -8.9379749
-86.529907 -299.73129 -8.938015
-86.234329 -299.7934 -8.9407654
-85.71624 -299.78784 -15.965603
-82.940872 -299.60455 -17.803463
-85.687187 -298.86023 -16.168228
-85.286728 -298.60037 -12.995458
-85.540085 -298.73993 -16.197987
-85.850861 -298.55197 -13.030947
-85.729858 -298.3233 -13.322042
-82.423492 -298.04242 -14.129305
-82.280472 -298.11078 -14.146755
-84.622574 -298.01129 -14.306581
-86.0933 -298.00336 -14.435318
-85.336929 -298.0473 -14.672405
-85.016228 -298.08447 -14.680512
-84.913063 -297.81271 -13.989136
-83.295731 -297.95691 -14.258267
-85.449547 -297.91797 -16.593662
-85.885284 -297.76376 -14.129187
-86.533981 -297.61249 -14.487537
-85.087639 -297.43243 -16.23909
-85.125282 -297.53296 -16.466715
-85.382339 -297.48755 -17.482136
-82.434601 -297.37543 -15.797453
-84.872772 -296.8826 -15.768593
-84.244324 -296.83615 -17.854198
-84.16539 -296.71344 -13.916368
-84.360977 -296.75592 -15.790041
-84.465263 -296.79895 -17.62672
-85.235657 -296.42944 -17.609024
-84.983131 -296.54974 -17.624117
-83.775734 -295.76398 -14.675043
-82.870468 -295.62256 -15.824729
-83.874962 -295.60974 -16.130672
-83.737175 -295.41983 -15.694769
-82.75145 -295.54974 -15.643932
-83.779396 -295.52039 -16.150732
-82.988541 -295.38879 -15.547667
-83.33696 -295.10901 -15.68119
-83.15789 -295.18372 -15.617046
-83.429893 -295.13977 -16.03545
-83.357056 -294.43024 -20.264854
-83.292709 -294.21182 -20.440273
-83.113091 -294.31412 -20.456165
-83.0569 -294.09131 -9.4624043
-82.957794 -294.18155 -10.480506
-83.019379 -293.99051 -9.4114819
-82.760422 -293.81494 -19.037018
-82.158722 -293.96362 -20.229517
-83.715668 -293.67944 -8.7278366
-83.411224 -293.67075 -8.618948
-83.685287 -293.72012 -8.884737
-83.171753 -293.78119 -8.9114609
-83.411942 -293.62891 -10.352593
-83.386223 -293.63605 -10.426163
-83.172394 -293.64709 -10.443645
-83.713211 -293.64697 -10.705505
-83.65921 -293.60794 -10.912378
-87.396255 -293.51926 -8.6233339
-87.396851 -293.51175 -8.9963799
-87.623642 -293.43695 -9.1428127
-87.470383 -293.49182 -9.4285088
-83.373772 -293.55484 -9.5387993
-83.750023 -293.40009 -9.723134
-87.522644 -293.44852 -9.8635759
-87.420074 -293.40643 -10.052763
-83.682556 -293.57846 -10.015347
-87.70195 -293.41876 -10.547995
-83.456802 -293.58759 -10.507541
-87.383675 -293.46066 -10.664819
-83.648323 -293.57227 -10.777548
-87.349571 -293.43585 -10.902895
-87.081146 -293.48218 -10.881274
-83.698265 -293.42709 -20.285858
-83.45565 -293.43634 -20.221241
-87.655258 -293.38763 -10.157572
-87.639725 -293.3847 -10.904529
-82.852524 -293.24338 -17.059433
-84.606812 -293.1055 -18.499937
-82.91983 -293.04254 -19.539595
-82.77063 -293.10806 -19.585514
-87.193932 -292.89969 -9.5842056
-83.593475 -292.88544 -18.433723
-83.411217 -292.87082 -19.661766
-83.058891 -292.98813 -20.021698
-80.475487 -292.77887 -13.418419
-83.094917 -292.61142 -13.918859
-81.830627 -292.61078 -14.200039
-83.450439 -292.47787 -8.9683313
-82.728729 -292.54349 -13.565949
-81.92662 -292.52722 -13.725206
-82.208031 -292.48431 -13.834883
-82.576859 -292.56854 -17.036947
-82.682785 -292.55817 -17.280804
-81.819199 -292.46219 -18.312151
-84.409172 -292.44565 -18.825253
-87.240326 -292.26764 -8.7469759
-83.521011 -292.3797 -8.6368332
-87.269981 -292.27347 -8.9406319
-87.126495 -292.27145 -9.3528671
-83.560722 -292.37985 -9.5773859
-83.036957 -292.39929 -13.875959
-80.904999 -292.33127 -15.290784
-81.854538 -292.26328 -15.691881
-82.961372 -292.38092 -17.265636
-82.095894 -292.22278 -18.246141
-83.580437 -292.32556 -18.77792
-82.014267 -292.28821 -18.77116
-83.346611 -292.28183 -21.98941
-87.1157 -292.19128 -8.6241798
-88.148407 -292.03168 -9.3753777
-87.240929 -292.16663 -10.450302
-84.02327 -292.06638 -19.415426
-83.857376 -292.034 -19.554672
-84.135254 -292.00043 -20.076769
-82.170891 -292.06226 -21.846268
-88.647217 -291.82114 -9.7401724
-88.140167 -291.85419 -10.135033
-83.213287 -291.9093 -16.787498
-82.129723 -291.81448 -18.410583
-81.814156 -291.97601 -18.715332
-83.181519 -291.86115 -21.470598
-81.08828 -291.9519 -23.444847
-88.984863 -291.64468 -9.1160278
-87.850342 -291.74811 -9.1250792
-88.740891 -291.77304 -9.3924036
-87.802895 -291.72916 -9.323822
-87.794472 -291.71271 -9.9014988
-88.563446 -291.7774 -10.096006
-87.778015 -291.69315 -10.231927
-89.383514 -291.62421 -10.426985
-89.029388 -291.6933 -10.571659
-87.883072 -291.67654 -10.573951
-88.082718 -291.78265 -10.969162
-87.804947 -291.71783 -10.943298
-88.215393 -291.6904 -11.386276
-89.121292 -291.57227 -9.756937
-90.124893 -291.59897 -9.8107872
-89.684151 -291.55206 -9.8976688
-90.28566 -291.49777 -10.083967
-89.119301 -291.52621 -10.100097
-88.949165 -291.58731 -10.096935
-89.975754 -291.58176 -10.422556
-89.840004 -291.43866 -11.181244
-88.188454 -291.54694 -11.189993
-87.869583 -291.56882 -11.134527
-88.979286 -291.52625 -11.30726
-89.323288 -291.5047 -11.485081
-90.158958 -291.54459 -11.793101
-89.051064 -291.57693 -11.797006
-81.608139 -291.5592 -13.543929
-81.912582 -291.45416 -13.850153
-81.357056 -291.46817 -15.052436
-80.955887 -291.25769 -13.406057
-81.909111 -291.28745 -16.741238
-81.628128 -291.05206 -13.431723
-82.096916 -290.89587 -24.263172
-81.910614 -290.63049 -14.978853
-83.597519 -290.7243 -22.71977
-82.470573 -290.57056 -22.907814
-88.595764 -290.30182 -9.0126848
-80.953346 -290.25385 -13.802296
-87.500099 -289.70148 -8.7818794
-87.442467 -289.76215 -8.9029617
-92.600662 -289.28418 -9.9636049
-91.651749 -289.33096 -10.403338
-92.252792 -289.30228 -11.654718
-94.522461 -289.10474 -13.328039
-92.181885 -289.13522 -13.423791
-96.249687 -288.41638 -14.897417
-87.58223 -287.44992 -8.7393827
-87.504265 -287.02521 -12.380413
-88.089432 -286.43951 -12.615457
-88.088348 -286.29004 -12.165814
-88.3564 -286.1499 -13.014982
-89.020592 -285.42419 -12.299724
-87.458511 -283.95493 -8.7284555
-87.970757 -283.90173 -8.9943552
-88.160492 -283.75342 -8.9710226
-90.717598 -283.37302 -10.152937
-88.190125 -281.815 -8.9034615
-87.590134 -281.81644 -8.8715134
-87.927177 -281.75812 -8.947197
-87.902596 -280.96851 -8.7707453
-87.366196 -280.90979 -8.6786919
-87.811989 -280.93851 -8.8021812
-99.007767 -280.26709 -20.765949
