# .PCD v0.7 - Point Cloud Data file format
VERSION 0.7
FIELDS x y z
SIZE 4 4 4
TYPE F F F
COUNT 1 1 1
WIDTH 1470
HEIGHT 1
VIEWPOINT 0 0 0 1 0 0 0
POINTS 1470
DATA ascii
-83.761131 -157.24829 -6.0581131
-83.847069 -157.31013 -6.3393402
-84.310593 -157.2617 -6.4888101
-83.831322 -157.36462 -6.6903172
-83.749405 -157.23596 -6.668797
-83.813545 -157.30588 -6.8617568
-83.765205 -157.25299 -6.8618312
-83.839027 -157.3317 -7.068542
-83.7407 -157.20357 -7.0396371
-84.305962 -157.20972 -7.2570682
-84.329262 -157.39359 -7.4173222
-83.816284 -157.28049 -7.4439669
-83.790039 -157.31424 -7.4589658
-83.813858 -157.33397 -7.7053161
-83.756409 -157.20819 -7.6604042
-92.808029 -157.37411 -7.892292
-83.821976 -157.30637 -7.8312578
-83.803238 -157.34084 -8.1084576
-83.803246 -157.33276 -8.56563
-90.786072 -157.36609 -9.7574368
-84.287689 -157.29065 -10.57146
-83.935646 -157.0746 -4.7798271
-83.391945 -157.02379 -4.7766981
-82.608124 -157.1871 -4.786335
-82.524117 -157.06235 -4.7213302
-80.609131 -157.01259 -4.723938
-80.271942 -157.03703 -4.7148719
-84.30722 -157.0549 -4.9564228
-84.161072 -157.08586 -4.807663
-83.894867 -157.09789 -4.909853
-83.750481 -157.11296 -4.9059401
-83.374405 -157.03818 -4.8056622
-84.342972 -157.08302 -5.1119118
-83.763672 -157.15039 -5.1521878
-84.340164 -157.07004 -5.2357678
-83.75914 -157.11786 -5.3162942
-84.336739 -157.07439 -5.5055008
-83.836945 -157.12497 -5.454525
-83.755203 -157.10422 -5.5479822
-84.33046 -157.06091 -5.7681451
-84.049355 -157.18802 -5.6488752
-83.867233 -157.12271 -5.769361
-83.760971 -157.12242 -5.6914792
-84.2789 -157.04388 -5.8707242
-83.753944 -157.09633 -5.946198
-84.326202 -157.06866 -6.1017871
-83.753693 -157.10101 -6.0997109
-84.322433 -157.05832 -6.2680511
-83.843468 -157.17407 -6.2978339
-83.747223 -157.09047 -6.2943692
-84.324486 -157.06079 -6.490315
-84.044212 -157.18854 -6.5336919
-83.75116 -157.10278 -6.5343938
-84.266396 -157.03909 -6.6661501
-83.867798 -157.16315 -6.6903272
-83.744125 -157.0867 -6.7400031
-84.313568 -157.04839 -6.9170718
-83.832886 -157.15344 -6.9239302
-83.741051 -157.10492 -6.8825922
-84.322929 -157.04799 -7.1526151
-83.81398 -157.13574 -7.0584111
-83.743469 -157.07991 -7.0717301
-84.311989 -157.03801 -7.292161
-84.055061 -157.158 -7.302969
-83.740028 -157.0672 -7.305614
-84.313568 -157.03497 -7.4887161
-83.817017 -157.13715 -7.430716
-83.744446 -157.06161 -7.444417
-84.316917 -157.03575 -7.6877308
-83.82489 -157.14423 -7.6694942
-83.745605 -157.1144 -7.6896062
-84.311951 -157.03302 -7.8462219
-83.747902 -157.04578 -7.8521438
-83.755325 -157.15283 -8.129282
-83.771591 -157.12849 -8.2697029
-83.758965 -157.08633 -8.5212784
-83.747345 -157.13115 -8.6114674
-83.748505 -157.11198 -9.0964165
-83.741531 -157.11087 -9.2535543
-84.260223 -157.02951 -12.662809
-84.186302 -156.93246 -4.7890649
-83.921448 -156.91135 -4.7847519
-82.956619 -156.95459 -4.7845979
-82.541862 -156.93748 -4.740056
-82.158066 -156.94774 -4.7096329
-81.74559 -156.98079 -4.7184248
-81.371674 -156.93335 -4.7231722
-81.022354 -156.8208 -4.6811218
-80.975494 -156.99402 -4.726656
-80.199127 -156.93558 -4.7099552
-84.33596 -156.84247 -4.8976989
-83.733673 -156.85599 -4.814105
-84.327713 -156.83209 -5.1649661
-84.327232 -156.83073 -5.3593149
-84.275238 -156.9863 -5.4465008
-84.31926 -156.8228 -5.8032141
-84.311729 -156.81982 -6.1756992
-84.263763 -156.88303 -6.3107252
-84.319969 -156.82819 -6.4838161
-84.268021 -156.90321 -7.1200752
-84.215973 -156.99643 -7.4699092
-84.193481 -156.96323 -7.7589588
-84.106712 -156.60585 -4.7952399
-83.849777 -156.72342 -4.7682791
-83.670746 -156.68457 -4.7864461
-82.879669 -156.66122 -4.7825589
-82.544548 -156.70184 -4.7682171
-82.125542 -156.61052 -4.7044668
-80.930191 -156.68051 -4.7346878
-80.057999 -156.61122 -4.6871738
-84.320236 -156.7403 -4.9130569
-84.12706 -156.65509 -4.8346891
-83.71611 -156.69995 -4.8203211
-83.510406 -156.70355 -4.828969
-83.352821 -156.7356 -4.8067679
-84.134766 -156.64418 -5.1324768
-81.727745 -156.76241 -5.132432
-81.445839 -156.71913 -5.0845098
-81.298874 -156.7298 -5.1102409
-84.120773 -156.64565 -5.3368821
-81.675705 -156.76778 -5.2946048
-84.123703 -156.63327 -5.5211148
-81.287094 -156.65736 -5.41786
-84.119194 -156.64374 -5.7117848
-84.105278 -156.63242 -5.8920188
-84.14402 -156.63239 -6.1211138
-84.307632 -156.72653 -6.2808409
-84.093147 -156.62758 -6.3074622
-84.100189 -156.63272 -6.4713292
-84.135605 -156.64633 -6.6762471
-84.087631 -156.61707 -6.8351521
-84.128677 -156.62216 -7.0585818
-84.124878 -156.61276 -7.4997182
-83.802872 -156.53583 -4.7442079
-83.727959 -156.48053 -4.775897
-83.268036 -156.5296 -4.7912378
-82.666824 -156.55421 -4.7671342
-82.513252 -156.51549 -4.7194419
-81.663239 -156.59253 -4.6951852
-81.269402 -156.54951 -4.7029309
-80.488007 -156.59442 -4.7015448
-84.155807 -156.59692 -5.048224
-84.139587 -156.59007 -5.2714772
-84.329262 -156.59782 -5.4506631
-84.165466 -156.56476 -5.4419761
-84.315453 -156.59557 -5.6754642
-84.326248 -156.58957 -5.8926058
-84.154396 -156.55602 -5.8655791
-84.123901 -156.58977 -6.0824418
-84.124146 -156.57697 -6.299078
-84.084503 -156.58206 -6.683301
-84.08374 -156.58255 -6.84478
-84.08107 -156.56294 -7.090641
-84.297935 -156.54247 -7.281672
-84.080826 -156.57266 -7.3190122
-84.096153 -156.55949 -7.4250102
-84.12252 -156.58896 -7.73803
-84.252922 -156.58092 -9.9021425
-84.211868 -156.50328 -10.147486
-84.230515 -156.47046 -10.957596
-84.09816 -156.47003 -13.393585
-83.88089 -156.28741 -4.7505741
-83.780197 -156.37009 -4.7440348
-83.370422 -156.33841 -4.7555232
-82.505173 -156.32988 -4.7357121
-82.221344 -156.31073 -4.698245
-82.055687 -156.21365 -4.7029638
-84.151588 -156.29886 -4.9073172
-83.06282 -156.39017 -4.8004632
-84.100334 -156.28995 -5.1238489
-84.255524 -156.28406 -5.3359308
-84.101974 -156.29161 -5.3032422
-84.139008 -156.26416 -5.7204752
-80.555054 -156.34445 -5.648746
-84.087067 -156.28012 -5.9195051
-84.123749 -156.26221 -6.2395978
-84.280296 -156.27898 -6.4801722
-84.134392 -156.27443 -6.5455971
-84.074432 -156.26337 -6.7320518
-84.093948 -156.2301 -6.950336
-84.076157 -156.25287 -7.0966949
-84.127403 -156.23595 -7.4709482
-84.11264 -156.22227 -7.7166352
-84.065674 -156.27441 -10.086226
-84.104256 -156.35033 -10.954555
-84.483223 -156.34312 -12.486077
-84.31144 -156.38351 -12.856989
-80.952225 -156.28601 -13.379799
-84.107819 -156.11299 -4.7648859
-83.874863 -156.00911 -4.7431378
-83.680031 -156.03375 -4.786427
-83.343353 -156.10379 -4.7908239
-82.921204 -156.18912 -4.7804489
-82.506462 -156.15565 -4.7151208
-81.676285 -156.1413 -4.6966739
-81.26944 -156.16991 -4.6856718
-80.874077 -156.17026 -4.6863499
-80.492538 -156.14606 -4.6835599
-80.098953 -156.19058 -4.6724219
-84.295074 -156.05289 -4.8508768
-84.295364 -156.15558 -5.5223112
-84.292404 -156.15417 -5.7364759
-80.526154 -156.10721 -6.280714
-84.086021 -156.19977 -6.7198992
-91.173515 -156.01425 -7.6198158
-90.792351 -156.02818 -8.2725067
-84.244812 -155.84451 -4.7742081
-83.670502 -155.94046 -4.7790661
-82.500832 -155.92175 -4.701129
-81.280968 -155.80428 -4.6953111
-80.881142 -155.82196 -4.6952829
-83.697083 -155.89944 -4.9018378
-83.698128 -155.89226 -5.0686202
-83.711456 -155.89432 -5.275414
-84.273674 -155.82123 -5.4736109
-83.703506 -155.88367 -5.4914942
-83.697693 -155.87337 -5.6890869
-84.174149 -155.81999 -5.8305111
-83.700783 -155.87108 -5.8792601
-83.70195 -155.8746 -6.0741591
-83.724022 -155.83878 -6.24894
-83.548569 -155.81195 -6.3650799
-83.695511 -155.86661 -6.4797578
-83.685791 -155.86223 -6.683887
-83.690979 -155.85709 -6.875793
-83.694077 -155.86203 -7.079874
-83.681168 -155.84143 -7.280581
-84.277939 -155.89432 -7.4774518
-83.682533 -155.842 -7.484128
-84.238007 -155.85728 -7.6999612
-83.691757 -155.81476 -7.7283678
-83.682129 -155.8042 -7.854269
-83.705734 -155.80046 -8.0438414
-83.70134 -155.80356 -8.2456913
-80.531311 -155.85475 -11.558964
-83.651711 -155.6163 -4.760375
-83.257217 -155.77573 -4.7695231
-82.850655 -155.67316 -4.7582908
-82.526978 -155.71619 -4.7203951
-82.062958 -155.75349 -4.6821761
-81.710899 -155.70723 -4.6827192
-80.481041 -155.77654 -4.6861649
-80.167152 -155.78894 -4.6798611
-84.226135 -155.79938 -4.9768338
-83.721741 -155.7363 -4.9273129
-83.759415 -155.64859 -5.0645061
-84.211227 -155.72783 -5.3699999
-83.720146 -155.69586 -5.3132029
-83.897842 -155.72348 -5.4670539
-83.767204 -155.74265 -5.477396
-83.959351 -155.72821 -5.6459718
-83.740509 -155.6987 -5.7298679
-83.862167 -155.71674 -5.8378501
-83.738251 -155.70262 -5.8690672
-83.72065 -155.68718 -6.055737
-84.197411 -155.79102 -6.243433
-83.936401 -155.70621 -6.2746439
-83.745781 -155.67508 -6.3206139
-84.25708 -155.78946 -6.500936
-84.039597 -155.64027 -6.539669
-83.732323 -155.72527 -6.5359859
-84.27623 -155.78177 -6.6907558
-83.736221 -155.6908 -6.7104979
-84.258209 -155.77232 -6.9257932
-83.737831 -155.72079 -6.9276452
-83.875778 -155.65559 -7.045125
-83.731644 -155.71423 -7.083827
-83.725037 -155.7236 -7.3562331
-84.281525 -155.74794 -7.4848981
-83.995056 -155.68704 -7.455626
-83.735291 -155.70715 -7.4489369
-83.805779 -155.70871 -7.6587701
-83.678795 -155.75523 -7.6466331
-83.684052 -155.7695 -7.861104
-83.733459 -155.75545 -8.1323175
-83.692642 -155.75044 -8.3255749
-83.902664 -155.74753 -8.5511456
-83.687347 -155.74069 -8.4994173
-83.678482 -155.71103 -8.7246675
-83.836678 -155.72545 -8.932847
-83.679512 -155.7157 -8.8656778
-83.778099 -155.69984 -9.3282185
-93.471848 -155.72156 -9.7606392
-83.663689 -155.4503 -4.7607732
-83.346207 -155.43864 -4.7621078
-82.512375 -155.43954 -4.7161212
-83.694244 -155.53542 -5.1017051
-83.810692 -155.51434 -5.3716021
-83.735321 -155.53709 -5.3094001
-83.736923 -155.52295 -5.4652672
-84.226723 -155.4348 -5.7529631
-83.740685 -155.54257 -5.67625
-83.742752 -155.51743 -5.8828549
-83.763535 -155.45755 -6.134274
-83.720795 -155.47609 -6.3177438
-84.2547 -155.45105 -6.5831108
-83.755936 -155.47249 -6.5312839
-83.742798 -155.48207 -6.68889
-83.749405 -155.47519 -6.9244828
-84.294456 -155.41154 -7.0720801
-83.717865 -155.46613 -7.0610738
-84.219032 -155.42438 -7.377388
-83.733505 -155.47311 -7.3336172
-83.756973 -155.50143 -7.500411
-84.263962 -155.50526 -7.6265769
-83.718681 -155.42947 -8.1363697
-93.463669 -155.41321 -8.6205444
-83.556595 -155.50609 -9.3055649
-83.662666 -155.34663 -4.7646718
-82.935486 -155.38535 -4.7499542
-82.497185 -155.28397 -4.6717448
-82.10041 -155.28365 -4.6638808
-81.675446 -155.33592 -4.6699662
-81.305222 -155.32364 -4.6732049
-80.934967 -155.28006 -4.671649
-80.536049 -155.29474 -4.6713681
-80.066956 -155.32974 -4.6606979
-83.736771 -155.37433 -4.9642191
-84.22683 -155.33934 -5.0755548
-83.725853 -155.33661 -5.0822291
-83.812752 -155.35175 -5.3582559
-83.746452 -155.29785 -5.2569332
-84.234375 -155.34802 -5.4075041
-83.712547 -155.26207 -5.5541701
-83.763763 -155.33669 -5.7567658
-83.744873 -155.31676 -5.880887
-84.263695 -155.39496 -6.1687722
-83.728134 -155.27332 -6.0824742
-84.511688 -155.28391 -6.2915878
-83.713188 -155.32426 -6.2853651
-83.733955 -155.33569 -6.499547
-83.727905 -155.24667 -6.7522111
-83.710236 -155.26685 -6.955523
-83.702759 -155.2999 -7.135325
-83.712105 -155.27939 -7.2952142
-83.740082 -155.26123 -7.4701319
-83.722748 -155.35808 -7.7245898
-83.717415 -155.32867 -7.861732
-83.724892 -155.35265 -8.147542
-83.707794 -155.38013 -8.5602884
-93.454514 -155.35445 -9.0088205
-80.08548 -155.26707 -9.8809299
-80.465942 -155.30936 -11.188986
-83.686432 -155.11302 -4.7685361
-82.849213 -155.0864 -4.734643
-82.497696 -155.0641 -4.7054381
-81.707298 -155.00705 -4.6632318
-81.225304 -155.14267 -4.6581402
-84.053513 -155.0592 -4.9609218
-83.731262 -155.10114 -4.9901381
-84.206696 -155.00162 -5.050477
-83.806114 -155.14597 -5.0085139
-83.71904 -155.07082 -5.0983682
-83.727386 -155.14343 -5.3287368
-83.710205 -155.02351 -5.517489
-83.71315 -155.09406 -5.710228
-83.710548 -155.13889 -6.2860842
-84.415359 -155.145 -6.5624108
-84.309906 -155.01332 -6.5558672
-83.731201 -155.07748 -6.5527902
-83.69072 -155.08884 -6.694345
-83.729546 -155.08176 -6.8960352
-83.714012 -155.04591 -7.1239452
-86.871048 -155.0976 -7.3175411
-83.698906 -155.09735 -7.278316
-84.286949 -155.00612 -7.4437828
-83.716614 -155.05145 -7.5007749
-83.710785 -155.02206 -7.649518
-83.702934 -155.05623 -8.1727095
-83.698235 -155.03516 -8.5873003
-80.114555 -155.14088 -9.7901964
-83.634888 -154.91687 -4.7628188
-83.26165 -154.99142 -4.750175
-82.981323 -154.83347 -4.7114372
-82.758514 -154.9261 -4.7268372
-82.507477 -154.85999 -4.6962938
-82.080521 -154.96953 -4.652452
-81.35376 -154.90729 -4.658143
-80.950836 -154.97859 -4.6577878
-80.500351 -154.93765 -4.655117
-80.162613 -154.9216 -4.655674
-83.708389 -154.94415 -4.972682
-83.72998 -154.90771 -5.1122341
-84.213516 -154.98595 -5.3854198
-83.801529 -154.97729 -5.331233
-83.71405 -154.944 -5.300374
-83.721779 -154.8848 -5.491889
-84.192841 -154.95844 -5.760623
-83.731613 -154.91776 -5.703279
-83.700073 -154.94447 -5.8974571
-84.355431 -154.92935 -6.0796008
-83.716721 -154.90204 -6.1308622
-84.447174 -154.9691 -6.3296008
-83.703049 -154.9241 -6.3150811
-83.705841 -154.89001 -6.4568501
-83.724548 -154.89781 -6.7148638
-84.323006 -154.98073 -6.9442439
-83.683975 -154.909 -7.0422678
-83.687271 -154.85492 -7.2560692
-83.714149 -154.84489 -7.5135312
-92.843155 -154.96515 -7.8452439
-93.457443 -154.81497 -8.5758572
-83.695541 -154.97214 -8.897769
-80.712891 -154.95738 -11.809591
-83.660103 -154.69464 -4.7315302
-82.525742 -154.67133 -4.7076559
-82.056854 -154.62517 -4.6405001
-81.711113 -154.61038 -4.642942
-81.387749 -154.69707 -4.636312
-80.93779 -154.69724 -4.6392331
-80.521156 -154.67957 -4.644486
-83.725891 -154.70604 -4.99266
-83.708374 -154.71994 -5.09828
-83.704887 -154.67827 -5.219326
-83.705048 -154.70494 -5.5202012
-83.704765 -154.73747 -5.7043099
-83.700409 -154.70676 -5.9290361
-83.691238 -154.69733 -6.1577382
-83.727921 -154.68854 -6.3593669
-84.744995 -154.75861 -6.481555
-83.713699 -154.74574 -6.4814281
-83.704453 -154.67232 -6.6945281
-83.708664 -154.69131 -6.8607512
-84.339584 -154.73538 -7.1809978
-83.689072 -154.66771 -7.0714059
-83.689445 -154.7037 -7.3082032
-83.695641 -154.71167 -7.4502649
-83.679474 -154.6116 -7.6564541
-83.686493 -154.72983 -8.5168695
-93.424553 -154.62921 -8.7325392
-80.882751 -154.72977 -10.872236
-83.630959 -154.54251 -4.7585602
-83.317757 -154.59282 -4.7344761
-82.887482 -154.59943 -4.7235198
-82.44696 -154.52884 -4.6529579
-82.213356 -154.4088 -4.6180458
-81.289398 -154.57027 -4.6460028
-80.973724 -154.57225 -4.6353321
-80.111298 -154.54788 -4.6399059
-83.745384 -154.53593 -4.9794831
-84.176163 -154.57555 -5.0011029
-83.695282 -154.50337 -5.1244812
-84.20903 -154.56696 -5.3615432
-83.739441 -154.50784 -5.3047562
-83.692078 -154.51891 -5.5425258
-83.747864 -154.4938 -5.7355871
-84.243309 -154.51459 -5.850359
-83.689461 -154.58525 -5.9568958
-84.609505 -154.55444 -6.1976109
-83.74012 -154.49588 -6.1350598
-83.697884 -154.52499 -6.3160758
-83.701057 -154.52632 -6.50109
-83.676422 -154.48911 -6.7526631
-83.691185 -154.50188 -6.931694
-83.686684 -154.53419 -7.079875
-83.722534 -154.45773 -7.244565
-83.704636 -154.46832 -7.5034981
-83.687706 -154.4494 -7.7188101
-83.696175 -154.55905 -8.0786018
-83.671951 -154.48103 -8.4938068
-83.679199 -154.53448 -8.6081715
-83.678421 -154.58444 -8.9235668
-93.414345 -154.4939 -9.2332067
-83.661011 -154.50989 -9.2511024
-80.042145 -154.43195 -10.122395
-84.205109 -154.53905 -10.466721
-83.638641 -154.22456 -4.7546868
-83.387238 -154.34387 -4.701901
-82.929016 -154.29617 -4.7255478
-82.455307 -154.24469 -4.6489849
-82.387573 -154.27159 -4.6029429
-81.320343 -154.20909 -4.627481
-80.893173 -154.29956 -4.637774
-80.507446 -154.21097 -4.6366382
-83.667183 -154.27148 -4.9711342
-83.671967 -154.30264 -5.0955739
-84.191139 -154.20541 -5.320694
-83.678085 -154.29782 -5.2665062
-83.670166 -154.30417 -5.5385818
-83.671341 -154.30762 -5.6990571
-83.66922 -154.32559 -5.8713799
-84.583702 -154.29222 -6.0521402
-83.701401 -154.23628 -6.0610051
-84.948204 -154.37541 -6.222959
-83.672134 -154.3031 -6.3212619
-83.66877 -154.28137 -6.4842401
-83.669189 -154.27811 -6.7335482
-83.665405 -154.2663 -6.928556
-83.654694 -154.29906 -7.1038241
-84.255554 -154.21094 -7.351511
-83.669632 -154.25208 -7.2851748
-83.667023 -154.20526 -7.6833448
-83.614166 -154.23576 -9.3010912
-84.202209 -154.31599 -10.183752
-83.60585 -154.14749 -4.7262039
-83.589279 -154.10698 -4.7105942
-83.399178 -154.09764 -4.7303662
-82.476151 -154.13101 -4.704093
-82.045822 -154.18828 -4.6234221
-81.67627 -154.12914 -4.6247959
-81.338531 -154.16148 -4.612864
-80.116562 -154.15948 -4.6252971
-83.889236 -154.12546 -4.9543762
-83.716293 -154.10147 -4.9423032
-84.16555 -154.15346 -5.0239072
-83.663399 -154.09753 -5.0636439
-83.701324 -154.14203 -5.3310299
-83.678322 -154.0977 -5.5593748
-84.195084 -154.14854 -5.7356682
-83.705673 -154.13222 -5.700016
-83.663712 -154.04884 -5.8489251
-83.66098 -154.08679 -6.0667348
-83.67012 -154.10416 -6.3011508
-83.675865 -154.1366 -6.4878149
-83.650246 -154.07896 -6.6875682
-83.683411 -154.1062 -6.9281998
-83.657562 -154.06323 -7.1666842
-86.876053 -154.17685 -7.2652311
-83.586037 -154.1424 -7.2337542
-83.677872 -154.11685 -7.4781461
-83.657814 -154.01468 -7.7046542
-83.66938 -154.19759 -8.1690807
-83.664841 -154.1591 -8.4763279
-83.666367 -154.19487 -8.9649906
-80.159035 -154.17032 -8.9300299
-80.126595 -154.19589 -10.057234
-82.303162 -153.92999 -4.5821629
-83.517639 -153.86232 -4.7156639
-82.957886 -153.81313 -4.689744
-82.458969 -153.8678 -4.6841722
-81.720116 -153.83281 -4.6204052
-81.292877 -153.86789 -4.6242118
-80.857269 -153.82416 -4.625525
-80.131424 -153.86365 -4.6223722
-83.630836 -153.82132 -4.9319429
-83.580681 -153.87753 -4.8698101
-84.217499 -153.98264 -5.0454578
-83.723373 -153.92842 -5.0863309
-83.580292 -153.849 -5.0829492
-83.6689 -153.95078 -5.298234
-84.156548 -153.93774 -5.407752
-83.706596 -153.89598 -5.4783049
-83.666962 -153.9339 -5.658402
-84.142044 -153.93021 -5.859869
-83.724548 -153.90314 -5.9467878
-83.579384 -153.90471 -5.8436751
-83.709198 -153.93585 -6.1358609
-83.711609 -153.93613 -6.308054
-83.582085 -153.84831 -6.3059711
-83.690811 -153.89459 -6.5428209
-83.593307 -153.90262 -6.5879731
-84.120605 -153.96455 -6.6015458
-83.738861 -153.9256 -6.7328382
-83.595695 -153.85748 -6.6816678
-83.658325 -153.90991 -6.930367
-83.697983 -153.89774 -7.1049409
-83.590836 -153.82619 -7.0233831
-84.066994 -153.95329 -7.232183
-83.668747 -153.88318 -7.2602549
-83.656128 -153.84869 -7.4103389
-83.650909 -153.8779 -7.7538981
-83.660255 -153.92712 -7.893981
-83.657394 -153.93881 -8.0737534
-83.647522 -153.91344 -8.5098057
-93.353119 -153.95261 -8.9238529
-83.639641 -153.84033 -9.0057945
-80.055191 -153.92203 -9.0886879
-83.660278 -153.90421 -9.2117519
-84.208794 -153.81973 -11.085632
-83.668259 -153.69839 -4.7196102
-83.58712 -153.65742 -4.7148638
-83.012451 -153.75864 -4.7005281
-82.662567 -153.73634 -4.6736512
-82.467194 -153.74393 -4.6854749
-82.097702 -153.73196 -4.608007
-80.476326 -153.76727 -4.6264639
-83.620461 -153.74673 -4.9025979
-83.590271 -153.72449 -4.835763
-83.608994 -153.74747 -5.0916281
-81.06031 -153.66119 -5.0313749
-83.613068 -153.75195 -5.2985659
-83.597046 -153.75586 -5.3055792
-83.613403 -153.72772 -5.5330691
-83.584229 -153.74042 -5.469449
-83.614037 -153.72444 -5.731041
-83.590897 -153.70656 -5.6780548
-83.630173 -153.72423 -5.9137082
-83.593925 -153.73062 -5.8452468
-83.640945 -153.74915 -6.1384678
-83.586624 -153.72479 -6.0613151
-83.613213 -153.70079 -6.3348341
-83.57962 -153.68922 -6.271697
-83.617348 -153.73224 -6.520391
-83.576286 -153.68552 -6.4644861
-83.609917 -153.69009 -6.6969972
-83.577019 -153.7337 -6.6748018
-83.615005 -153.69603 -6.9132218
-83.579674 -153.69017 -6.870584
-83.607483 -153.71101 -7.1121478
-83.575104 -153.65152 -7.076098
-83.607536 -153.70026 -7.291286
-83.578186 -153.73477 -7.2976408
-83.616745 -153.71957 -7.4759369
-83.591911 -153.66005 -7.5053082
-83.60392 -153.68045 -7.6929388
-83.590363 -153.7359 -7.7129931
-83.608475 -153.7094 -7.8512311
-83.589401 -153.67952 -7.8877182
-83.603935 -153.63683 -8.0939178
-83.590729 -153.69507 -8.0537891
-83.589485 -153.73659 -8.2400589
-83.589951 -153.66515 -8.4757881
-83.586197 -153.68958 -8.6233501
-83.590462 -153.76329 -8.8200235
-83.580368 -153.71863 -9.0683804
-84.173347 -153.64618 -9.911356
-84.019821 -153.45198 -4.7536979
-83.878624 -153.52074 -4.6682382
-83.728989 -153.42836 -4.6820302
-83.24884 -153.4194 -4.6901231
-82.463829 -153.5067 -4.663465
-82.154724 -153.47708 -4.6034989
-81.320992 -153.5325 -4.6018872
-80.91082 -153.51869 -4.6139808
-80.531815 -153.41968 -4.61517
-80.096664 -153.48056 -4.602973
-83.976044 -153.43927 -4.8494239
-81.104065 -153.55782 -4.80125
-84.004784 -153.51897 -5.0902529
-84.005783 -153.51694 -5.2459269
-83.996536 -153.48813 -5.4973612
-83.995941 -153.50119 -5.6486721
-83.906967 -153.46506 -5.8471732
-83.992805 -153.49744 -6.0360761
-83.98513 -153.48766 -6.2264109
-83.988098 -153.47955 -6.4622569
-83.965942 -153.43779 -6.7252402
-83.984306 -153.46396 -6.90905
-87.902985 -153.45839 -7.1989269
-83.971657 -153.45204 -7.1274772
-83.935753 -153.44147 -7.2685928
-93.339706 -153.5332 -8.8898144
-83.926163 -153.41437 -10.211748
-84.07032 -153.33145 -4.7659569
-83.971756 -153.25113 -4.7671461
-82.86528 -153.34579 -4.6780491
-82.460815 -153.3416 -4.6521802
-81.828156 -153.34885 -4.6002212
-81.374008 -153.32111 -4.6076512
-84.147781 -153.31429 -4.9282212
-83.980637 -153.256 -4.9306712
-84.178322 -153.2693 -5.0539541
-83.989784 -153.24147 -5.131968
-84.203247 -153.32796 -5.367527
-84.177345 -153.30638 -5.2905269
-83.974075 -153.24071 -5.2640252
-84.169746 -153.33064 -5.4894152
-83.970612 -153.23376 -5.4854031
-84.178825 -153.29677 -5.6697178
-83.968918 -153.22592 -5.6985478
-84.163216 -153.28354 -5.8784661
-83.977638 -153.2269 -5.869607
-84.163986 -153.25481 -6.092083
-83.968773 -153.22098 -6.06078
-84.145401 -153.3017 -6.3180208
-83.949402 -153.30075 -6.285028
-84.148697 -153.26376 -6.521749
-83.967926 -153.21931 -6.5085139
-84.158463 -153.25034 -6.7042532
-83.986 -153.21442 -6.6872349
-84.155922 -153.24643 -6.915452
-83.976013 -153.21806 -6.9168329
-84.14827 -153.22612 -7.1149268
-83.962227 -153.28174 -7.089138
-84.153801 -153.22043 -7.296247
-83.931107 -153.34848 -9.7985134
-83.936493 -153.3416 -10.442792
-84.930061 -153.37103 -10.831305
-83.916046 -153.29544 -12.924816
-84.043358 -153.35071 -13.057952
-82.265198 -153.03531 -4.598989
-81.867241 -153.01743 -4.589736
-81.381142 -153.00989 -4.5963092
-83.696869 -153.12225 -4.6419792
-82.443161 -153.05205 -4.6355648
-80.860123 -153.00891 -4.6054549
-84.072128 -153.10905 -5.7252731
-83.961067 -153.03905 -5.8026462
-84.113258 -153.16916 -6.2766218
-83.96035 -153.02362 -6.221096
-80.452049 -153.19022 -6.2030001
-83.937157 -153.17784 -6.482954
-84.11882 -153.17381 -6.6880722
-83.953964 -153.10199 -6.6846352
-84.138329 -153.16269 -6.890182
-83.960167 -153.1855 -6.908113
-83.936432 -153.09619 -7.0525742
-84.138535 -153.17915 -7.351635
-83.960999 -153.09143 -7.283721
-80.090179 -153.00546 -8.732542
-80.005585 -153.04279 -8.8898659
-83.919632 -153.02164 -11.311455
-83.87262 -153.11246 -11.77794
-83.876083 -153.05328 -12.32931
-83.794174 -153.13269 -13.711788
-80.07988 -152.98378 -4.59831
-84.056183 -152.84258 -4.6817188
-83.931328 -152.9375 -4.7411551
-83.701347 -152.95004 -4.6383748
-83.276733 -152.98904 -4.6754551
-82.871414 -152.98322 -4.6667228
-82.450203 -152.91678 -4.6551318
-80.448692 -152.99689 -4.6066241
-84.151596 -152.84003 -4.8623762
-83.973602 -152.91252 -4.8538241
-84.186539 -152.85284 -5.0606098
-83.971359 -152.93687 -5.0755248
-84.174034 -152.85178 -5.2237539
-83.9561 -152.89316 -5.3016949
-84.171654 -152.84081 -5.4821
-83.959114 -152.93999 -5.4838848
-84.149712 -152.82935 -5.786212
-83.967316 -152.89224 -5.6824722
-83.959564 -152.87668 -5.9235001
-84.152809 -152.82819 -6.1292892
-83.952087 -152.87314 -6.0598149
-83.963799 -152.8716 -6.2947998
-84.154053 -152.81856 -6.5167289
-83.939972 -152.84518 -6.4907808
-84.149452 -152.813 -6.661406
-83.951225 -152.84952 -6.7491379
-84.156464 -152.80659 -6.8571239
-83.95137 -152.85394 -6.9177942
-83.941933 -152.84805 -7.0457778
-83.942825 -152.84158 -7.2425432
-83.937286 -152.87009 -7.4766011
-83.941544 -152.88976 -7.7720318
-93.354767 -152.82829 -8.1522417
-82.483154 -152.70493 -4.598165
-81.662567 -152.63811 -4.575604
-81.275986 -152.65468 -4.5859971
-80.860672 -152.66344 -4.5938172
-80.509827 -152.62112 -4.5927691
-80.082916 -152.62909 -4.582798
-83.705009 -152.76245 -4.6228328
-83.42984 -152.62469 -4.6545148
-83.097153 -152.68362 -4.6573248
-82.443832 -152.71704 -4.6470332
-81.376877 -152.74666 -5.3269811
-90.697655 -152.74532 -6.184814
-84.143425 -152.70743 -6.4989061
-84.129013 -152.68268 -7.1020651
-84.133865 -152.67513 -7.3303909
-93.347305 -152.62228 -8.7158813
-90.564995 -152.7328 -9.0559368
-82.067047 -152.58205 -4.5687709
-81.3965 -152.59106 -4.5372381
-80.822533 -152.53331 -4.5655189
-83.711334 -152.54794 -4.739347
-83.568542 -152.48306 -4.706964
-82.633865 -152.58389 -4.636209
-82.496307 -152.49954 -4.6198339
-83.642838 -152.52397 -4.88234
-83.575363 -152.47098 -4.953743
-83.857086 -152.47037 -5.0609808
-83.660789 -152.47369 -5.1544399
-83.565231 -152.48465 -5.086442
-84.1446 -152.47131 -5.3094192
-83.567116 -152.49127 -5.2860532
-83.754585 -152.46759 -5.4141212
-83.569717 -152.47533 -5.4795308
-83.641724 -152.47362 -5.6947289
-83.566368 -152.48701 -5.7018838
-83.828201 -152.4451 -5.843997
-83.569611 -152.4501 -5.9018521
-83.55191 -152.4646 -6.1382308
-83.830704 -152.45099 -6.2847772
-83.570808 -152.45634 -6.2509689
-83.544678 -152.459 -6.450902
-84.131149 -152.48862 -6.6978912
-83.829239 -152.43694 -6.6887679
-83.564957 -152.44357 -6.661685
-83.848602 -152.44501 -6.9413509
-83.542358 -152.44235 -6.8789678
-83.550156 -152.4301 -7.0779781
-84.119019 -152.48247 -7.3027749
-83.567101 -152.43481 -7.2762809
-83.545395 -152.43311 -7.5216379
-83.542336 -152.43597 -7.655858
-83.548622 -152.44022 -7.8534832
-83.564583 -152.43915 -8.1017609
-83.545898 -152.42868 -8.2691565
-83.763832 -152.42096 -8.4857006
-83.557961 -152.43347 -8.4889116
-83.565727 -152.4201 -8.8651829
-83.533417 -152.41954 -9.2691154
-82.241211 -152.23822 -4.575685
-82.157753 -152.2737 -4.5564852
-81.829437 -152.2077 -4.5621958
-81.303879 -152.20557 -4.568799
-80.430687 -152.34418 -4.5597281
-80.113441 -152.24045 -4.5692849
-83.538498 -152.29358 -4.6977429
-83.005951 -152.29369 -4.6442642
-82.589554 -152.23245 -4.6263542
-83.575844 -152.26334 -4.9778051
-83.630867 -152.25644 -5.0971818
-83.578873 -152.3454 -5.0646701
-83.638893 -152.27467 -5.3336091
-83.553764 -152.35797 -5.359448
-83.649025 -152.2128 -5.4360151
-83.590439 -152.2332 -5.4855938
-83.641525 -152.24677 -5.6185508
-83.578354 -152.26936 -5.713253
-83.565002 -152.32434 -5.8970861
-83.619293 -152.23384 -6.016314
-83.54493 -152.34004 -6.1974678
-83.630615 -152.25049 -6.2967019
-83.574394 -152.21861 -6.2711172
-83.601608 -152.22997 -6.4011412
-83.54509 -152.31136 -6.4775062
-83.636719 -152.22466 -6.6311078
-83.56002 -152.29259 -6.687263
-83.554138 -152.29175 -6.9223242
-83.682587 -152.27237 -7.0396481
-83.559647 -152.25772 -7.0976868
-84.081734 -152.28917 -7.340302
-83.846344 -152.2253 -7.2662811
-83.602043 -152.22804 -7.2472792
-83.542023 -152.3819 -7.3456731
-83.536652 -152.3479 -7.485734
-83.536758 -152.3907 -7.660213
-83.753479 -152.39093 -7.8087211
-83.536301 -152.37308 -7.8960829
-83.566742 -152.21234 -8.1215572
-83.545914 -152.37781 -8.2360477
-83.64949 -152.36871 -8.5020752
-93.340157 -152.39874 -8.6371784
-83.534103 -152.39766 -8.6735783
-83.550148 -152.36395 -8.8910484
-83.506668 -152.30597 -9.3012791
-82.361969 -152.01981 -4.568099
-80.965172 -152.18245 -4.5750079
-80.496613 -152.18039 -4.574235
-83.556702 -152.11308 -4.6463628
-82.40963 -152.09514 -4.6236768
-83.615822 -152.07944 -4.987721
-83.58503 -152.05112 -4.9780312
-84.139259 -152.02452 -5.085597
-83.656647 -152.12122 -5.0648532
-83.572433 -152.1955 -5.129755
-83.615883 -152.14325 -5.2792182
-84.131142 -152.02626 -5.5177932
-83.691261 -152.11484 -5.497324
-83.571732 -152.00932 -5.5091929
-83.627182 -152.10825 -5.6735449
-83.62645 -152.12271 -5.8591471
-83.594673 -152.16385 -5.9553318
-83.705307 -152.14999 -6.1438441
-83.595291 -152.06839 -6.158124
-83.619125 -152.1293 -6.3115578
-83.59729 -152.03677 -6.38445
-83.629486 -152.10564 -6.4874072
-83.593513 -152.02747 -6.4228268
-84.157936 -152.00677 -6.7000442
-83.666794 -152.10123 -6.6576338
-83.617004 -152.16006 -6.88697
-83.592323 -152.07666 -6.9379082
-83.61731 -152.16046 -7.1439681
-83.585182 -152.10895 -7.0877509
-83.603699 -152.18144 -7.3076692
-83.587418 -152.07755 -7.311029
-83.578018 -152.092 -7.6969428
-83.565315 -152.1729 -8.5147762
-80.588409 -152.13397 -12.256454
-82.2789 -151.86389 -4.555315
-81.906631 -151.91553 -4.5287709
-81.434937 -151.8457 -4.5629892
-80.64563 -151.8768 -4.577837
-80.276276 -151.81293 -4.5688109
-83.04451 -151.87457 -4.6334138
-83.883484 -151.91063 -4.9805121
-83.615784 -151.93054 -4.9975438
-83.608711 -151.89685 -5.0911069
-83.581558 -151.80899 -5.0413899
-83.658447 -151.82489 -5.3585019
-83.591866 -151.93282 -5.2674618
-83.6614 -151.97385 -5.50525
-83.59024 -151.90712 -5.5032511
-83.620743 -151.95773 -5.7757502
-84.14769 -151.8369 -5.8496442
-83.83815 -151.80847 -5.8126202
-83.640244 -151.88591 -5.9720912
-83.581505 -151.91469 -5.9559898
-83.61058 -151.86255 -6.0960989
-84.219757 -151.87044 -6.22685
-83.621841 -151.93378 -6.3067679
-83.599319 -151.91605 -6.313086
-83.608505 -151.86078 -6.5505061
-83.623169 -151.92639 -6.7098942
-83.581253 -151.89464 -6.6402411
-83.602554 -151.87292 -6.8869829
-83.5961 -151.85855 -6.9019942
-84.185234 -151.95335 -7.0453281
-83.619377 -151.94458 -7.0992651
-83.570076 -151.89302 -7.015913
-83.628708 -151.97653 -7.2199292
-83.579437 -151.87616 -7.2695441
-83.588882 -151.91414 -7.4772048
-83.571106 -151.83835 -7.7047701
-83.576401 -151.82387 -8.1361752
-83.571922 -151.86942 -8.5633516
-83.506989 -151.81354 -9.2745295
-82.467041 -151.75642 -4.5909538
-82.394989 -151.76793 -4.5508609
-81.002243 -151.76468 -4.570262
-80.057182 -151.79219 -4.5682368
-83.514626 -151.70325 -4.6791568
-83.127777 -151.74004 -4.6629038
-82.910881 -151.71684 -4.638391
-82.67691 -151.71858 -4.6271548
-82.411926 -151.63858 -4.6056652
-83.619804 -151.68806 -4.9486499
-83.546844 -151.65897 -4.9414859
-84.130989 -151.68288 -5.086545
-83.894653 -151.75763 -5.045732
-83.622879 -151.72083 -5.0785742
-83.592018 -151.66377 -5.0032039
-83.619118 -151.7334 -5.272253
-84.118614 -151.65451 -5.4777799
-83.900314 -151.75842 -5.4280581
-83.590927 -151.75995 -5.5055518
-83.58065 -151.75735 -5.7187462
-83.627563 -151.62471 -5.8116498
-83.577843 -151.74632 -5.874022
-83.589851 -151.65939 -6.0607982
-83.61116 -151.65149 -6.3637319
-83.584084 -151.72586 -6.2963252
-84.232605 -151.67914 -6.5414729
-83.636841 -151.74988 -6.5294371
-83.615562 -151.70474 -6.6628389
-83.592072 -151.73364 -6.6072769
-83.615479 -151.76195 -6.9102759
-83.562881 -151.67892 -6.9378791
-83.615921 -151.78539 -7.1954398
-83.569214 -151.70949 -7.1243892
-84.162422 -151.62683 -7.3166728
-83.613144 -151.74071 -7.3064351
-83.584045 -151.69757 -7.2643242
-83.594933 -151.7719 -7.9869332
-83.587906 -151.71233 -8.2901316
-83.572235 -151.74265 -8.9719105
-82.447723 -151.5175 -4.5742979
-82.3741 -151.49368 -4.5488892
-82.132561 -151.59259 -4.5139961
-81.834999 -151.40761 -4.5333591
-81.407547 -151.47472 -4.52918
-81.132095 -151.44084 -4.5122828
-80.716362 -151.47493 -4.5599809
-80.263214 -151.46904 -4.5581508
-83.497223 -151.43771 -4.6662879
-83.089058 -151.44533 -4.6441398
-82.614426 -151.44005 -4.623558
-82.399307 -151.40514 -4.6226301
-83.628929 -151.47946 -4.9451218
-83.562759 -151.52383 -4.8910031
-84.051758 -151.42146 -5.0403409
-83.628319 -151.5188 -5.0904388
-83.595428 -151.49751 -5.111445
-83.650475 -151.43465 -5.263844
-83.585739 -151.52377 -5.3376231
-83.644676 -151.48393 -5.4982891
-83.572075 -151.53114 -5.5174279
-83.618217 -151.55316 -5.763341
-83.627159 -151.56842 -5.9647489
-83.590477 -151.58174 -5.9621201
-83.554932 -151.50163 -6.0799861
-84.199242 -151.42523 -6.2293839
-83.776421 -151.448 -6.2033868
-83.592278 -151.48772 -6.325984
-83.565933 -151.51013 -6.5309901
-83.581429 -151.47578 -6.6968341
-84.225037 -151.43546 -6.9961848
-83.585289 -151.42453 -6.8095288
-83.680695 -151.45526 -7.134779
-83.558136 -151.43582 -7.081645
-84.18074 -151.47957 -7.241477
-83.598625 -151.43779 -7.35636
-83.563019 -151.43649 -7.7997489
-83.554626 -151.42554 -8.5688953
-83.560326 -151.44525 -8.9547729
-82.302658 -151.38133 -4.572382
-82.107979 -151.28761 -4.5481229
-81.048798 -151.38995 -4.549767
-83.21814 -151.30399 -4.6897869
-83.174042 -151.22705 -4.646894
-83.647041 -151.20781 -4.9373479
-83.577026 -151.32751 -4.953918
-83.622818 -151.37013 -5.14396
-83.578079 -151.36212 -5.0825381
-83.582321 -151.35175 -5.343307
-83.935242 -151.3266 -5.4012289
-83.570015 -151.29829 -5.4351592
-83.876526 -151.33514 -5.7670722
-83.606697 -151.38924 -5.6562071
-83.577812 -151.33388 -5.7245908
-84.167793 -151.25511 -5.8269391
-83.628662 -151.38052 -5.964829
-83.571579 -151.30449 -5.8227501
-83.582489 -151.30769 -6.115262
-83.605293 -151.3811 -6.2812839
-83.592995 -151.26236 -6.3501558
-83.604126 -151.31873 -6.5037098
-83.585342 -151.23697 -6.545342
-84.224586 -151.39497 -6.6015
-83.5718 -151.24939 -6.786293
-83.591866 -151.36095 -6.9100828
-87.994652 -151.32751 -7.0269899
-83.582321 -151.28552 -7.1557932
-83.569275 -151.35924 -7.295712
-83.556969 -151.37158 -8.1476307
-82.36969 -151.08224 -4.5855832
-81.892204 -151.04704 -4.5361691
-81.149269 -151.12132 -4.5347052
-83.475937 -151.0408 -4.6558461
-83.226822 -151.1469 -4.6536412
-83.150391 -151.09973 -4.6618671
-83.618729 -151.17607 -4.9608979
-83.557281 -151.14328 -4.9466758
-83.618866 -151.10684 -5.1111302
-83.58313 -151.01935 -5.1366649
-84.119576 -151.18878 -5.3269548
-83.575089 -151.14615 -5.2609181
-83.587814 -151.05363 -5.426096
-84.061394 -151.02296 -5.6642008
-83.611061 -151.10812 -5.7297988
-83.596466 -151.11612 -5.6499109
-83.567627 -151.13992 -5.8251958
-83.581444 -151.09222 -6.1203089
-83.555367 -151.12621 -6.2992148
-83.571693 -151.07402 -6.5654058
-83.556267 -151.07095 -6.7866621
-83.565048 -151.12828 -6.8942742
-84.225937 -151.13089 -7.1005759
-83.564453 -151.06509 -7.069437
-84.207176 -151.11189 -7.2528172
-83.545197 -151.09093 -7.7921228
-83.537323 -151.00867 -8.5962725
-83.535164 -151.01846 -8.8719521
-82.427444 -150.96407 -4.5925741
-82.31427 -150.94971 -4.552916
-81.481964 -150.978 -4.5380421
-81.107468 -150.91083 -4.5281091
-80.741776 -150.91214 -4.5501771
-80.288559 -150.9552 -4.5518451
-80.04921 -150.81514 -4.548347
-83.540039 -150.97142 -4.6438241
-83.091057 -150.91959 -4.6169682
-82.622574 -150.99695 -4.6000371
-83.606766 -150.95389 -4.9148521
-83.536942 -150.98129 -4.9243112
-83.855591 -150.96049 -5.0400949
-83.598694 -150.9174 -5.042809
-83.878311 -150.98395 -5.3991179
-83.611099 -150.99544 -5.2439508
-83.570992 -150.92087 -5.3689132
-83.600136 -150.88507 -5.5595822
-83.548187 -150.89935 -5.5095921
-83.785065 -150.88551 -5.7120829
-83.570572 -150.93883 -5.7110968
-83.606346 -150.98007 -5.861928
-83.580063 -150.87968 -5.9186258
-83.568924 -150.94452 -6.1535349
-84.199051 -150.94208 -6.2549329
-83.737381 -150.99225 -6.2223859
-83.58503 -150.98068 -6.3189058
-83.774155 -150.80171 -6.5916309
-83.596359 -150.97656 -6.514658
-83.629402 -150.80966 -6.6460748
-83.555954 -150.93848 -6.6421752
-83.553757 -150.84575 -6.8742309
-83.530075 -150.85315 -7.0501719
-83.55497 -150.94748 -7.2813649
-83.553009 -150.84706 -7.503242
-83.551392 -150.85168 -7.8181949
-83.531235 -150.88719 -8.1118803
-83.490578 -150.97572 -9.243022
-82.709122 -150.61095 -4.5992441
-82.352386 -150.6433 -4.5690951
-81.476295 -150.70499 -4.5173969
-83.500748 -150.70343 -4.6447091
-83.315849 -150.64119 -4.6410241
-83.560959 -150.65253 -4.8938928
-83.577141 -150.71875 -5.0399861
-83.630356 -150.74539 -5.3215871
-83.557404 -150.71687 -5.2762632
-83.577225 -150.70859 -5.5043588
-83.56041 -150.7247 -5.7042542
-83.592659 -150.69516 -5.8931022
-83.552353 -150.68777 -6.0843878
-83.558014 -150.69072 -6.272716
-83.551819 -150.74179 -6.4597702
-84.128899 -150.63608 -6.7301731
-83.556335 -150.67648 -6.695714
-83.548393 -150.68596 -6.871624
-84.078758 -150.61121 -7.0319862
-83.792145 -150.61397 -7.0157242
-83.53125 -150.62881 -7.050139
-83.518379 -150.70493 -7.9869809
-83.505516 -150.62573 -8.0493641
-83.518936 -150.68829 -8.7654076
-80.063499 -150.60475 -9.7399673
-82.334747 -150.54843 -4.564549
-81.872253 -150.59868 -4.5136328
-81.51046 -150.59261 -4.520195
-81.131927 -150.57271 -4.529038
-80.69339 -150.59109 -4.540072
-80.284348 -150.57599 -4.5367179
-83.479858 -150.5181 -4.6821342
-83.101395 -150.56915 -4.611886
-83.894913 -150.56808 -4.9936981
-83.519981 -150.51376 -4.945642
-83.562729 -150.54794 -5.084022
-83.9151 -150.58041 -5.3571339
-83.6436 -150.50783 -5.2473221
-83.516556 -150.49944 -5.3083701
-83.624969 -150.56287 -5.5059528
-83.536942 -150.53033 -5.4991651
-83.879967 -150.56073 -5.749361
-83.546776 -150.54559 -5.7066069
-83.542297 -150.51556 -5.876317
-83.824844 -150.53079 -6.1499681
-83.668991 -150.45935 -6.1523671
-83.538208 -150.50024 -6.120245
-83.541519 -150.50836 -6.291122
-83.531616 -150.48843 -6.5022979
-83.802643 -150.47073 -6.616632
-83.576149 -150.50134 -6.661891
-83.560822 -150.48155 -6.9075842
-83.748276 -150.47169 -7.0173898
-83.50045 -150.47029 -7.04984
-83.880554 -150.51044 -7.3357272
-83.521172 -150.50119 -7.2839999
-83.539368 -150.50117 -7.461535
-83.502319 -150.50574 -7.7083712
-83.496544 -150.49695 -8.1327057
-83.517029 -150.56012 -8.4531956
-93.256821 -150.56877 -8.6193981
-83.508461 -150.55176 -8.9236937
-83.452934 -150.53122 -9.2659779
-84.068604 -150.52414 -10.942226
-83.608215 -150.25972 -4.5780921
-83.490082 -150.31607 -4.586597
-82.321991 -150.2782 -4.5411258
-81.836136 -150.25897 -4.4954128
-81.461136 -150.20734 -4.5085478
-80.851295 -150.38448 -4.4974709
-80.540321 -150.37555 -4.5054808
-83.476685 -150.31747 -4.6874342
-83.488716 -150.3743 -4.8502898
-83.48555 -150.36713 -5.0658731
-83.48423 -150.3623 -5.2499609
-83.496735 -150.34113 -5.4426889
-83.492188 -150.36423 -5.6879802
-83.479156 -150.34354 -5.898437
-83.483124 -150.34337 -6.0647559
-83.485687 -150.36365 -6.2597952
-83.469627 -150.31647 -6.5083351
-83.481041 -150.31094 -6.6917248
-83.45697 -150.31039 -6.8728852
-83.459831 -150.34015 -7.0934348
-83.477783 -150.26778 -7.2927361
-83.458359 -150.29474 -7.4726629
-83.457504 -150.30414 -7.6777611
-83.456367 -150.34769 -7.8859859
-83.459679 -150.35025 -8.0539265
-83.461517 -150.34975 -8.2895212
-83.457726 -150.30286 -8.4372511
-83.445236 -150.33496 -8.6203442
-83.452705 -150.36646 -8.8923359
-80.208916 -150.32651 -10.655287
-83.942924 -150.29111 -12.582108
-83.75103 -150.00204 -4.593596
-83.444496 -150.11888 -4.571785
-83.111847 -150.15871 -4.5992069
-82.715805 -150.16589 -4.5838799
-82.269409 -150.16083 -4.5421829
-82.156807 -150.01337 -4.4803782
-81.03688 -150.16733 -4.5166159
-80.667252 -150.17256 -4.524261
-80.260597 -150.18994 -4.5181942
-83.667908 -150.1064 -4.7896829
-83.678238 -150.0495 -6.0249362
-93.241531 -150.15909 -8.6087284
-84.04171 -150.15028 -9.7711334
-83.449242 -149.84802 -4.5867128
-82.641197 -149.81538 -4.5652781
-82.424423 -149.9548 -4.5414791
-82.300751 -149.81161 -4.522943
-80.694153 -149.80511 -4.515944
-83.80912 -149.83342 -4.61624
-83.458488 -149.90781 -4.6175799
-83.860298 -149.80531 -4.9821701
-83.91523 -149.92111 -5.9489322
-83.911125 -149.84825 -10.080234
-81.473068 -149.84369 -11.417992
-81.493217 -149.87538 -11.618879
-83.100861 -149.72836 -4.5883799
-82.266045 -149.68535 -4.4790902
-81.896622 -149.76984 -4.4864602
-81.494385 -149.77525 -4.4930758
-81.121368 -149.77711 -4.503551
-80.479385 -149.7865 -4.5191288
-80.269958 -149.7305 -4.5077372
-83.428375 -149.64459 -4.605011
-83.835533 -149.60887 -4.818325
-83.848709 -149.70026 -5.280015
-83.847023 -149.77264 -5.728631
-83.834221 -149.77336 -6.1615181
-90.623787 -149.64267 -6.291965
-83.824722 -149.76054 -6.5462971
-83.814812 -149.7303 -6.932992
-83.806381 -149.78195 -7.2740269
-93.226784 -149.77988 -8.5416117
-93.225822 -149.65155 -8.8818197
-82.058258 -149.65076 -11.323786
-83.913338 -149.4081 -4.5509052
-83.697601 -149.47633 -4.53088
-83.424011 -149.54272 -4.565866
-82.964325 -149.42638 -4.565856
-82.310623 -149.46457 -4.5442042
-80.313797 -149.43188 -4.5005698
-83.827148 -149.58441 -4.7794209
-83.839767 -149.57217 -4.970283
-83.822128 -149.57451 -5.1691861
-83.831367 -149.57063 -5.3780351
-83.820282 -149.57169 -5.549242
-83.819229 -149.5704 -5.755321
-83.831879 -149.54567 -5.922236
-83.816086 -149.55705 -6.1545949
-83.824081 -149.56168 -6.3225908
-83.81881 -149.53313 -6.4989429
-83.821022 -149.55327 -6.7174358
-83.794647 -149.51587 -6.964417
-83.805779 -149.5416 -7.1241159
-83.793182 -149.50519 -7.1327982
-83.852394 -149.48184 -7.3347669
-83.791824 -149.49869 -7.3078909
-83.808952 -149.5258 -7.4576941
-90.144676 -149.50642 -10.667522
-89.414452 -149.49628 -10.688877
-91.384491 -149.42133 -11.061132
-81.927963 -149.43143 -11.453639
-83.767174 -149.30673 -4.5917368
-83.514793 -149.31662 -4.5552711
-83.290871 -149.34332 -4.5792508
-82.678345 -149.36908 -4.5615888
-82.305771 -149.32359 -4.5234389
-81.929184 -149.38731 -4.4742508
-81.506104 -149.32797 -4.4813228
-81.054596 -149.39078 -4.493619
-80.65284 -149.34152 -4.496974
-83.461609 -149.21175 -4.789093
-84.00589 -149.2448 -4.8205781
-83.516479 -149.20929 -4.8904548
-84.00753 -149.28659 -5.115839
-84.038185 -149.33067 -5.3953919
-83.955368 -149.21964 -5.4202328
-83.480377 -149.21368 -5.4442668
-84.025146 -149.33638 -5.7377262
-83.94239 -149.21732 -5.7450628
-84.018936 -149.20152 -5.9118028
-84.016838 -149.33452 -6.0052061
-84.016945 -149.29381 -6.6696181
-83.954445 -149.31894 -7.0312119
-83.995567 -149.25259 -7.3440938
-81.169464 -149.32368 -10.960263
-82.276947 -149.0809 -4.4870129
-82.141029 -149.03767 -4.4582171
-81.919952 -149.04886 -4.4647861
-81.505051 -149.01477 -4.4719601
-84.010933 -149.1763 -4.6968622
-83.894897 -149.17662 -4.7304168
-83.455826 -149.12445 -4.6949182
-84.022675 -149.1618 -4.9360099
-83.895004 -149.18178 -4.895298
-83.475876 -149.10939 -4.9408369
-84.007423 -149.16281 -5.152463
-83.437271 -149.11821 -5.1227789
-84.024017 -149.15372 -5.3617401
-83.451561 -149.10493 -5.2989159
-84.014671 -149.14909 -5.5705228
-83.871613 -149.15088 -5.4108729
-83.47599 -149.10315 -5.4554191
-84.026123 -149.17267 -5.6893768
-83.437843 -149.15103 -5.7055082
-83.893555 -149.14835 -5.8980742
-83.439178 -149.1001 -5.8814449
-84.002388 -149.13046 -6.186604
-83.919205 -149.16397 -6.147697
-83.46402 -149.07742 -6.1182208
-83.986229 -149.12125 -6.3888731
-83.425224 -149.09781 -6.3373389
-83.887489 -149.14232 -6.5403681
-83.428833 -149.12065 -6.5234642
-83.982269 -149.08617 -6.7008381
-83.425407 -149.11533 -6.7273641
-83.93042 -149.13557 -6.9342961
-83.419975 -149.12343 -6.9239602
-83.987892 -149.09303 -7.1422229
-83.444527 -149.06787 -7.0704679
-83.931381 -149.09573 -7.3169088
-83.416359 -149.0883 -7.2752652
-83.417488 -149.09331 -7.4692311
-83.801979 -149.09279 -7.7017641
-83.440041 -149.06033 -7.6958671
-83.422546 -149.0701 -7.910944
-83.433472 -149.05452 -8.1377611
-83.415596 -149.06931 -8.2971601
-83.456474 -149.04977 -8.5022879
-83.501175 -149.07803 -8.9920979
-83.465408 -149.04698 -9.2281532
-83.359222 -148.83136 -4.568222
-83.032196 -148.94778 -4.5626998
-82.676338 -148.95261 -4.5508142
-82.296501 -148.93607 -4.541966
-81.028755 -148.96275 -4.4810748
-80.658447 -148.99609 -4.487803
-80.287094 -148.92769 -4.4838738
-83.490402 -148.88785 -4.899394
-83.497238 -148.84131 -5.1680808
-83.499634 -148.81558 -5.3633838
-83.491898 -148.92296 -5.5453811
-83.490364 -148.89273 -5.706903
-83.516953 -148.83313 -5.9374938
-83.494682 -148.83534 -6.13973
-83.487495 -148.98076 -6.5467048
-83.476578 -148.85408 -6.7402158
-83.475739 -148.82637 -6.9422078
-83.460693 -148.87291 -7.1402769
-83.460114 -148.91046 -7.3225951
-83.430389 -148.92926 -7.4378781
-83.427292 -148.90091 -7.9044361
-81.383667 -148.88272 -12.628542
-81.45919 -148.80659 -12.811073
-83.41951 -148.6985 -4.5602698
-82.916183 -148.6254 -4.5480809
-82.282059 -148.74074 -4.4826188
-81.776711 -148.60123 -4.4548569
-81.098099 -148.63617 -4.470922
-80.761139 -148.62827 -4.4758101
-80.330856 -148.62621 -4.479322
-83.505585 -148.69818 -4.8990588
-83.506409 -148.78958 -5.0638909
-83.503456 -148.77438 -5.2651091
-83.488052 -148.71344 -5.4794898
-83.496666 -148.78275 -5.6963181
-83.497444 -148.758 -5.8489642
-83.491684 -148.74146 -6.1312962
-83.478111 -148.76196 -6.277
-83.491722 -148.76279 -6.5045838
-83.486076 -148.74554 -6.7789068
-83.453331 -148.69093 -6.992578
-83.457092 -148.75053 -7.0673528
-83.477066 -148.661 -7.333302
-83.461533 -148.73386 -7.491353
-83.444931 -148.65166 -8.0690012
-80.429443 -148.67097 -9.6605892
-81.376442 -148.67471 -11.399958
-81.324333 -148.75204 -12.674131
-83.416725 -148.50381 -4.5596809
-82.635841 -148.5596 -4.5359268
-82.274757 -148.54092 -4.4786639
-81.390045 -148.59938 -4.4630132
-83.425072 -148.57315 -4.7271371
-83.503815 -148.59731 -4.909811
-83.48848 -148.58813 -5.101171
-83.474167 -148.53358 -5.487926
-83.490784 -148.54915 -5.6908689
-83.475632 -148.55074 -5.878664
-83.463249 -148.52516 -6.1439161
-93.187744 -148.51843 -6.3016171
-83.477303 -148.4678 -6.2681189
-83.486305 -148.47939 -6.500813
-83.470795 -148.49448 -6.6691051
-83.467743 -148.51567 -6.9017358
-83.465355 -148.5497 -7.0902081
-83.456947 -148.48654 -7.2632942
-83.448036 -148.58194 -7.4132128
-83.446327 -148.54651 -7.7152462
-83.444412 -148.57162 -8.5083361
-83.424881 -148.58078 -8.9197865
-80.17131 -148.54698 -9.5332432
-83.422081 -148.32434 -4.572927
-82.993843 -148.27264 -4.540761
-82.61232 -148.23856 -4.5269489
-82.27504 -148.31757 -4.486392
-80.720558 -148.20102 -4.4633451
-80.308502 -148.24716 -4.469172
-83.422089 -148.33693 -4.6933751
-83.365929 -148.25032 -4.6693969
-83.454315 -148.32916 -4.9124041
-83.475471 -148.27199 -5.119657
-83.492424 -148.30591 -5.287272
-83.473564 -148.28867 -6.1407952
-83.458649 -148.20862 -6.6366701
-83.432114 -148.23633 -8.094305
-83.42868 -148.2225 -8.5198593
-80.128632 -148.29517 -8.8986874
-80.268173 -148.21953 -10.582527
-82.208603 -148.12505 -4.3861341
-83.401039 -148.10368 -4.5132771
-83.373344 -148.0257 -4.5395188
-82.260071 -148.12173 -4.4826331
-81.896645 -148.14772 -4.437079
-81.486931 -148.15833 -4.4430518
-81.112068 -148.15332 -4.4548202
-83.459869 -148.18718 -5.0666642
-83.469391 -148.11679 -5.470037
-83.463074 -148.14316 -5.945076
-83.46373 -148.12994 -6.3066759
-83.489883 -148.1373 -6.5182872
-83.434692 -148.1461 -7.1203341
-83.430283 -148.15216 -7.4278421
-83.429008 -148.17381 -7.6855311
-83.41185 -148.19339 -8.9444656
-80.539017 -148.19534 -9.238863
-83.616051 -148.14517 -11.581365
-83.616295 -148.12303 -11.633526
-83.393814 -148.10625 -13.835238
-82.898849 -147.80176 -4.5134468
-82.255844 -147.86165 -4.4578052
-81.900063 -147.87794 -4.424263
-81.473839 -147.82462 -4.4336262
-80.210014 -147.81737 -4.4683151
-83.409286 -147.85959 -4.7746811
-83.464188 -147.85309 -5.0443149
-83.480942 -147.89603 -5.3607259
-83.45224 -147.85663 -5.4482141
-83.482361 -147.88223 -5.6687708
-83.490311 -147.9875 -5.8351202
-83.470123 -147.97107 -6.140101
-83.469711 -147.85457 -6.4310341
-83.438522 -147.89478 -6.682106
-83.445541 -147.90256 -6.9627419
-83.41597 -147.82198 -8.1717453
-83.410995 -147.87231 -8.6140127
-81.351128 -147.91672 -10.828228
-83.436089 -147.86487 -13.787348
-82.167336 -147.64929 -4.3815269
-83.400055 -147.74007 -4.526896
-82.605316 -147.70123 -4.50947
-82.260056 -147.67841 -4.4869928
-82.179291 -147.72894 -4.4367652
-81.924751 -147.79538 -4.437552
-81.780243 -147.79355 -4.4314928
-81.097687 -147.7619 -4.4396181
-80.636932 -147.7457 -4.450314
-83.416962 -147.64169 -4.758657
-83.317451 -147.79369 -4.6391768
-83.428261 -147.65398 -4.8295288
-83.469971 -147.79268 -5.1838088
-83.441757 -147.70724 -5.4396081
-83.456223 -147.7702 -5.8513622
-83.441147 -147.71301 -6.2834721
-83.456909 -147.67944 -6.5002279
-83.427269 -147.75003 -7.1176329
-83.4151 -147.77164 -7.35676
-83.429947 -147.73071 -7.5347848
-83.424225 -147.79053 -7.6815448
