# .PCD v0.7 - Point Cloud Data file format
VERSION 0.7
FIELDS x y z
SIZE 4 4 4
TYPE F F F
COUNT 1 1 1
WIDTH 1467
HEIGHT 1
VIEWPOINT 0 0 0 1 0 0 0
POINTS 1467
DATA ascii
-104.30859 -204.55948 -6.3220429
-103.98048 -204.46692 -6.2651358
-104.20132 -204.48341 -6.6510639
-103.34192 -204.20345 -6.1517391
-101.06987 -204.23651 -6.049376
-100.00111 -204.38107 -6.0634022
-104.00655 -204.22218 -6.3212619
-106.91796 -204.29234 -6.529923
-112.17402 -204.13516 -6.3139749
-103.7655 -204.16135 -6.2883811
-103.55014 -204.09274 -6.29392
-106.55183 -204.14395 -6.5294142
-104.6382 -204.1472 -6.6635432
-103.0148 -203.80887 -6.1289172
-102.1794 -203.939 -6.08988
-100.83542 -203.82246 -6.0251222
-103.49708 -203.80319 -6.2679591
-104.63422 -203.81659 -6.7340188
-102.49764 -203.7545 -6.153522
-100.81715 -203.71843 -6.0155931
-100.63913 -203.62468 -6.0196848
-104.3275 -203.79282 -6.6809392
-103.53168 -203.4493 -6.1862311
-101.77971 -203.49437 -6.0615082
-101.3021 -203.41573 -6.0799661
-111.89912 -203.56731 -6.2709322
-103.85345 -203.5135 -6.4653311
-104.1608 -203.40277 -6.690042
-102.91158 -203.38101 -6.0879931
-102.64064 -203.28885 -6.093554
-101.99802 -203.24466 -6.1258631
-101.01568 -203.34027 -6.0874481
-100.60609 -203.2562 -6.1007628
-100.47015 -203.37485 -6.0059052
-103.73688 -203.38388 -6.2554941
-104.09538 -203.25899 -6.4289789
-104.91096 -203.23483 -6.6267881
-103.45404 -203.08763 -6.1519942
-100.03331 -203.02141 -6.10428
-104.2159 -203.01035 -6.3975658
-104.48729 -203.07843 -6.562212
-104.81158 -203.14737 -6.9328728
-102.24403 -203.00221 -9.1427984
-102.44727 -202.89368 -6.1869798
-103.83673 -202.98871 -6.2102451
-102.98515 -202.84531 -6.2435079
-102.54994 -202.80962 -6.264164
-102.10455 -202.87827 -6.224472
-101.72812 -202.86737 -6.2385688
-101.29744 -202.90398 -6.25139
-100.99326 -202.87244 -6.3059559
-100.47597 -202.89392 -6.278769
-100.42395 -202.817 -6.510983
-104.1394 -202.99124 -6.6401248
-106.13691 -202.85007 -9.1783466
-105.10085 -202.85933 -9.1871319
-104.72475 -202.83652 -9.1570396
-103.09166 -202.81139 -9.131712
-102.85251 -202.94841 -9.1223745
-102.56794 -202.9762 -9.1670208
-101.75229 -202.9962 -9.1028614
-100.4186 -202.72083 -6.3727732
-104.87105 -202.65466 -6.4413819
-104.62827 -202.62473 -6.4469419
-104.20152 -202.61926 -6.52528
-102.20853 -202.62946 -6.5965772
-100.42565 -202.67502 -6.5986791
-101.63335 -202.6015 -6.6716442
-101.27284 -202.64163 -6.6449242
-104.45985 -202.50653 -6.3334908
-101.81683 -202.53923 -6.7468972
-100.95477 -202.59888 -6.7078552
-100.44934 -202.54053 -6.7037811
-109.9517 -202.59721 -6.907094
-102.56752 -202.47974 -6.8964629
-102.19812 -202.4886 -6.9023151
-100.9449 -202.52397 -6.9223218
-100.51987 -202.53203 -6.9285221
-109.934 -202.47595 -7.0428772
-109.9612 -202.49844 -7.5546422
-109.94506 -202.49554 -7.73066
-109.95741 -202.51083 -8.2831945
-100.28741 -202.43179 -8.8827085
-100.05163 -202.4527 -8.8655109
-106.452 -202.52441 -9.1782951
-104.9581 -202.50009 -9.1512794
-103.33289 -202.53595 -9.1314554
-100.0058 -202.57529 -9.1509657
-113.90305 -202.51385 -9.2279615
-113.44819 -202.51846 -9.2792959
-106.44189 -202.53488 -9.3787613
-101.60461 -202.27054 -6.035089
-101.30328 -202.28745 -6.1174402
-100.99811 -202.29549 -6.2417579
-100.44382 -202.31575 -6.2474532
-100.15903 -202.3297 -6.2400951
-104.47932 -202.21066 -6.4729671
-100.86399 -202.32578 -6.4390922
-100.49156 -202.34213 -6.5765929
-100.06574 -202.34244 -6.6946039
-102.45441 -202.37112 -6.9879251
-100.59657 -202.27524 -6.9504719
-103.12242 -202.21976 -7.0842161
-100.07428 -202.32661 -7.0273652
-100.15238 -202.31456 -7.3010802
-103.16322 -202.20123 -7.4695191
-100.13 -202.30164 -7.7414908
-100.44267 -202.24583 -7.8089938
-100.07186 -202.29233 -8.1756487
-100.17003 -202.27069 -8.6951056
-103.63354 -202.20764 -8.9471607
-100.08946 -202.26259 -8.9189835
-119.78671 -202.25256 -9.3784065
-117.21351 -202.38882 -9.4070435
-117.03252 -202.27344 -9.4674244
-105.07333 -202.09497 -6.3752751
-104.70142 -202.11327 -6.3903131
-106.51658 -202.05856 -6.4999819
-106.12135 -202.05629 -6.512836
-105.64076 -202.07385 -6.530426
-105.32477 -202.08298 -6.5417442
-104.8606 -202.10802 -6.5594821
-108.78444 -202.02271 -6.7609439
-107.74287 -202.06888 -6.7810798
-107.36819 -202.07094 -6.786808
-107.12439 -202.04588 -6.6555028
-106.51756 -202.05542 -6.903677
-109.90539 -202.13129 -7.0118661
-106.50681 -202.07915 -7.0147972
-105.28185 -202.0257 -7.0418811
-104.92546 -202.01666 -7.04496
-104.46278 -202.06422 -7.0546479
-102.9324 -202.19794 -7.1409779
-102.42369 -202.15248 -7.0978508
-101.78961 -202.16791 -7.129858
-101.46465 -202.17416 -7.0379801
-100.97126 -202.19817 -7.1472301
-105.26991 -202.05515 -7.3751159
-109.89105 -202.17464 -7.490417
-106.57489 -202.03731 -7.4513559
-104.61003 -202.02704 -7.5019002
-103.61354 -202.14604 -7.4686151
-103.58972 -202.16216 -7.5858641
-103.01491 -202.18839 -7.499866
-102.59867 -202.12859 -7.516614
-102.09909 -202.14632 -7.4060469
-101.97632 -202.16054 -7.5656462
-101.77211 -202.15775 -7.4835901
-101.41531 -202.17325 -7.4812441
-100.95489 -202.19128 -7.5035968
-109.87097 -202.07751 -7.6939421
-106.50826 -202.03912 -7.7118139
-104.47463 -202.03564 -7.7483759
-103.62806 -202.15309 -7.6663432
-103.0687 -202.17795 -7.794466
-102.63453 -202.11121 -7.7369909
-101.82835 -202.15227 -7.742136
-101.49478 -202.15141 -7.7584009
-100.96655 -202.18391 -7.7169971
-106.43745 -202.03445 -7.97156
-105.23688 -202.01291 -7.9337859
-104.91 -202.01508 -7.9241662
-102.0923 -202.13583 -7.89537
-101.9342 -202.16406 -7.8929601
-106.44035 -202.01392 -8.1273088
-103.53163 -202.13318 -8.1349068
-103.0688 -202.17941 -8.141716
-102.79665 -202.16631 -8.0740681
-102.56819 -202.11722 -8.1749582
-101.80154 -202.13684 -8.1291714
-101.00217 -202.16185 -8.095952
-109.88216 -202.14157 -8.2250671
-102.28795 -202.10863 -8.3469105
-102.17374 -202.12367 -8.2324972
-101.42697 -202.14262 -8.2224808
-103.08772 -202.16388 -8.5415173
-102.68767 -202.08145 -8.5474443
-102.28398 -202.09402 -8.5257025
-101.89178 -202.12231 -8.5234108
-101.05914 -202.1503 -8.5504169
-106.65598 -202.01067 -8.776186
-106.26498 -202.01706 -8.6504002
-101.51079 -202.13257 -8.6001644
-108.24641 -202.00166 -8.9408112
-101.89246 -202.12198 -8.9871473
-101.47879 -202.12175 -8.9646988
-100.59003 -202.1653 -8.9523792
-106.58675 -202.04214 -9.0011921
-106.16593 -202.01654 -9.1207275
-103.47583 -202.13148 -9.0640574
-103.0935 -202.16823 -9.0163469
-102.55645 -202.19638 -9.0780745
-102.18669 -202.09148 -9.0422745
-114.58386 -202.09946 -9.2349072
-111.3149 -201.87083 -6.7073741
-110.48544 -201.92662 -6.7256212
-109.92807 -201.92633 -6.734086
-109.54597 -201.95479 -6.7427039
-109.15474 -201.98834 -6.7519479
-109.79376 -201.85199 -6.987432
-109.3193 -201.8999 -6.8500671
-109.01544 -201.85309 -6.9966311
-106.06089 -201.97876 -6.9023108
-108.18704 -201.87003 -7.019001
-107.68521 -201.91362 -7.0174499
-105.81631 -201.98209 -7.045013
-110.19774 -201.91039 -7.398263
-109.82684 -201.84822 -7.442904
-108.98449 -201.83746 -7.4353361
-108.51353 -201.87933 -7.4355502
-108.11182 -201.86772 -7.4832311
-106.06708 -201.9785 -7.5120721
-109.36331 -201.80072 -7.6224179
-108.35841 -201.85619 -7.6569982
-107.7555 -201.8813 -7.7299771
-107.53395 -201.88124 -7.608098
-105.17266 -201.99042 -7.6712852
-106.00731 -201.95918 -7.952199
-105.78461 -201.96817 -7.809958
-105.85556 -201.95294 -8.1031256
-105.33561 -201.96513 -8.1839237
-104.9052 -201.97641 -8.1410856
-109.76548 -201.85631 -8.3143148
-109.08687 -201.80107 -8.2557707
-108.21977 -201.83673 -8.2442541
-107.67822 -201.86911 -8.2263432
-106.00159 -201.94427 -8.2442188
-110.53754 -201.86145 -8.7556744
-109.89696 -201.83415 -8.7202778
-108.22631 -201.81999 -8.6964684
-107.99753 -201.84509 -8.6225567
-106.22948 -201.98486 -8.6345196
-106.01405 -201.91403 -8.6517258
-105.76768 -201.92433 -8.7272568
-105.28824 -201.97371 -8.630312
-104.99143 -201.9507 -8.7066889
-110.20386 -201.8493 -8.9660168
-109.89367 -201.80292 -8.9506903
-108.26029 -201.80629 -8.8519249
-107.89214 -201.88232 -8.8740969
-107.54326 -201.88817 -8.8545218
-106.3979 -201.98479 -8.833025
-105.9419 -201.90614 -9.0962868
-105.50079 -201.95244 -9.0669689
-105.11806 -201.97952 -9.0406075
-104.71101 -201.98203 -9.0107193
-115.99947 -201.66393 -6.187356
-116.92317 -201.63637 -6.7148871
-116.2077 -201.64015 -6.7259011
-115.22812 -201.6777 -6.7438941
-114.15997 -201.73636 -6.765079
-113.62214 -201.7771 -6.7767611
-117.35709 -201.64618 -6.918499
-113.71202 -201.73425 -7.5175219
-109.30524 -201.79997 -7.4872899
-117.14476 -201.61418 -7.7378778
-109.80289 -201.75952 -7.679646
-113.71516 -201.71234 -8.2670412
-109.43829 -201.7679 -8.7401638
-108.98416 -201.79773 -8.7185507
-112.66742 -201.63733 -8.9515495
-115.08856 -201.69476 -9.0851307
-113.63172 -201.66695 -9.00527
-113.472 -201.66104 -9.1378288
-117.88042 -201.57161 -6.694603
-118.73672 -201.52332 -6.9367552
-115.90958 -201.548 -7.5186181
-116.68748 -201.55011 -7.7272472
-116.78665 -201.52324 -8.3458366
-115.04863 -201.58253 -8.29737
-117.03954 -201.56274 -8.5559149
-116.67906 -201.53014 -8.5408897
-115.03642 -201.57539 -8.4466248
-117.0473 -201.54115 -9.1779165
-116.64265 -201.48494 -9.1520338
-104.02161 -200.21501 -9.0248585
-101.73158 -218.58217 -9.3722391
-101.05073 -218.59007 -9.7538528
-102.71496 -218.27092 -8.9324589
-104.90071 -217.2244 -9.9783592
-101.93713 -217.11757 -10.149812
-104.89906 -216.72278 -9.9406824
-104.82709 -216.41562 -6.320765
-101.83125 -216.5844 -6.4861541
-102.95292 -216.49763 -8.7281771
-100.96606 -216.42932 -8.6472855
-102.18185 -216.45888 -9.2189131
-102.76836 -216.44824 -9.6450396
-101.61523 -216.48718 -9.9880142
-100.98055 -209.47501 -9.0569134
-100.87683 -208.85913 -7.0440788
-100.56239 -208.85098 -7.0426221
-100.86229 -208.9028 -8.1701946
-100.69916 -208.80905 -8.0675135
-100.89142 -208.69646 -7.1194329
-100.87332 -208.68417 -8.1288719
-100.87927 -208.67683 -8.6216297
-103.02408 -208.42346 -6.3934579
-103.81384 -208.41342 -6.9309158
-103.4453 -208.42723 -6.9539299
-106.67618 -208.48607 -7.958313
-104.07898 -208.40327 -7.8807621
-103.19569 -208.58322 -7.9657001
-106.43504 -208.5287 -8.1467991
-103.77738 -208.48853 -9.0478048
-103.34899 -208.58842 -9.0275984
-100.01678 -208.53967 -9.5939178
-103.07936 -208.40082 -9.6012068
-102.50101 -208.40787 -10.089504
-101.36945 -208.42982 -10.072414
-105.05676 -208.25719 -6.3856382
-109.40131 -208.20334 -6.6378741
-107.44625 -208.22296 -6.704102
-106.5913 -208.30576 -6.7468662
-100.4305 -208.37209 -6.654099
-108.64581 -208.23729 -6.80234
-104.2821 -208.38834 -6.905241
-106.16666 -208.32178 -7.4650588
-103.78499 -208.3945 -7.4465551
-101.52067 -208.30261 -7.6123528
-101.29301 -208.31773 -7.618279
-101.69818 -208.25885 -8.4968414
-109.12276 -208.36554 -8.6312494
-101.53292 -208.314 -8.957695
-105.37561 -208.23218 -9.082159
-103.05232 -208.36855 -9.5803699
-101.54472 -208.22734 -9.4712391
-104.22614 -208.32825 -9.7786388
-105.62399 -208.28127 -9.9255981
-102.91183 -208.34476 -9.9987898
-101.55952 -208.31203 -9.9233303
-101.62021 -208.24135 -10.165195
-100.27696 -208.22914 -10.256681
-101.5313 -208.37166 -10.884602
-103.08766 -208.33276 -11.077255
-101.42763 -208.39435 -11.174109
-101.4248 -208.20677 -11.316966
-106.25875 -208.29031 -12.079953
-103.14586 -208.36307 -12.101063
-100.3083 -208.07953 -6.3077731
-112.15753 -208.07797 -6.4908171
-111.51936 -208.1581 -6.5099602
-110.27905 -208.15169 -6.5980749
-113.00689 -208.0457 -6.6004729
-109.81039 -208.18457 -6.616766
-104.65994 -208.18744 -7.0051408
-101.73755 -208.17065 -7.0726962
-111.56551 -208.12967 -7.2263718
-110.46542 -208.0919 -7.2604752
-109.41496 -208.18427 -7.2991691
-104.67137 -208.15805 -7.9506621
-101.81754 -208.08876 -8.9347067
-100.57797 -208.02364 -9.3382311
-106.91042 -208.19601 -9.7748966
-101.68727 -208.09647 -9.740036
-106.51289 -208.0065 -10.226036
-101.67281 -208.12347 -10.458664
-111.59181 -208.02872 -10.807462
-109.72926 -208.12953 -11.906968
-109.99533 -208.03746 -12.021244
-104.47974 -208.1788 -12.628309
-101.51308 -208.16873 -13.294619
-105.68932 -208.03854 -13.536795
-106.69439 -208.1183 -13.989716
-106.23016 -208.12804 -14.265776
-105.48516 -207.84425 -6.3046031
-103.94592 -207.83852 -6.221262
-113.5069 -207.81456 -6.5648298
-107.62673 -207.95554 -6.8711648
-116.34366 -207.87843 -7.049644
-115.19895 -207.92615 -7.0643711
-110.43584 -207.88342 -7.270916
-107.64459 -207.89568 -7.327724
-118.68776 -207.96965 -7.8790302
-115.79924 -207.88354 -8.0381832
-107.64328 -207.93967 -8.1034412
-118.70953 -207.86295 -8.7296228
-116.17511 -207.87767 -8.6834116
-115.49541 -207.87396 -8.6468372
-112.87144 -207.97157 -8.6503744
-112.76793 -207.98064 -8.7044315
-105.85329 -207.82069 -9.0709677
-102.21254 -207.95944 -9.0737019
-106.46555 -207.82748 -9.3300591
-103.39529 -207.93384 -9.2083817
-103.11937 -207.94284 -9.3087654
-118.20839 -207.81085 -9.6053543
-112.83793 -207.94083 -10.107456
-107.48752 -207.96278 -10.178594
-107.62959 -207.93845 -10.244192
-107.63763 -207.84636 -10.494348
-109.94148 -207.97733 -11.310925
-107.53326 -207.97519 -11.483904
-115.49057 -207.85056 -11.820338
-107.52244 -207.80852 -12.637447
-103.82579 -207.82617 -12.696099
-100.46832 -207.95578 -12.698157
-112.4389 -207.90163 -12.964633
-103.02172 -207.83267 -12.956854
-101.07768 -207.92712 -12.851154
-107.46152 -207.87369 -13.480255
-105.87866 -207.94981 -13.571655
-110.34207 -207.9184 -14.090771
-107.50708 -207.87163 -14.136036
-104.79224 -207.93771 -14.10317
-112.29693 -207.84117 -14.519426
-112.69083 -207.85732 -16.107819
-101.2551 -207.74069 -5.9868612
-111.69828 -207.64317 -6.277317
-105.73322 -207.71025 -6.3132081
-104.2942 -207.69424 -6.3163471
-119.3857 -207.71149 -6.9875779
-119.37218 -207.62186 -7.4234638
-113.61946 -207.64656 -7.8466692
-118.96931 -207.72079 -8.8823643
-111.31713 -207.62518 -9.1340971
-108.29505 -207.67937 -9.1582422
-109.68345 -207.67728 -9.2661228
-108.95703 -207.71112 -9.2689114
-108.56412 -207.72514 -9.2533207
-108.11067 -207.7402 -9.2354612
-118.58195 -207.75439 -9.6751041
-113.50819 -207.68207 -10.107561
-114.99038 -207.64851 -10.323326
-119.18318 -207.6189 -11.331588
-115.96198 -207.78661 -11.210605
-116.26406 -207.70213 -11.892811
-118.95254 -207.62651 -12.188727
-115.51546 -207.78487 -12.629128
-109.60034 -207.76093 -12.786448
-115.88441 -207.76639 -12.810066
-107.82824 -207.61107 -12.876175
-110.83824 -207.65607 -13.469299
-115.91724 -207.71489 -13.619642
-109.45428 -207.76851 -13.852547
-106.37084 -207.62714 -14.286722
-110.39545 -207.78146 -14.98135
-113.16756 -207.77602 -16.241901
-106.14317 -207.4281 -6.280211
-112.69398 -207.42004 -6.428854
-119.52658 -207.49692 -7.020195
-119.50433 -207.487 -7.469399
-119.44766 -207.52777 -7.8057828
-112.35843 -207.547 -9.3426304
-115.43731 -207.4639 -9.4448948
-114.58976 -207.49644 -9.4281254
-119.44405 -207.44328 -10.260224
-119.42938 -207.42523 -11.106593
-119.02903 -207.48987 -11.3852
-116.51003 -207.55737 -11.241739
-116.42044 -207.55739 -12.70056
-111.17976 -207.48674 -12.79095
-110.67685 -207.55554 -12.745703
-119.28403 -207.51065 -12.92042
-112.50262 -207.42131 -12.983795
-108.60913 -207.5755 -12.971712
-108.26343 -207.58771 -12.941866
-112.29288 -207.51004 -13.793147
-113.4898 -207.50452 -13.894913
-109.38304 -207.53944 -13.815924
-116.34045 -207.53661 -14.2653
-119.13875 -207.58479 -14.668676
-113.50348 -207.55377 -14.900131
-118.65169 -207.55186 -15.767388
-116.34621 -207.51492 -15.89006
-108.48551 -207.35815 -6.3255539
-101.97325 -207.26056 -6.2493572
-112.12869 -207.36316 -6.4049339
-118.17986 -207.29895 -9.2278147
-117.2869 -207.37473 -9.3582401
-117.0206 -207.35152 -9.4657745
-116.5818 -207.36375 -9.4500294
-114.9816 -207.36378 -12.755026
-114.39402 -207.33575 -12.844492
-113.62358 -207.39296 -12.890355
-113.32304 -207.37022 -13.051607
-112.23592 -207.37106 -15.347929
-119.35739 -207.37929 -15.494658
-117.85275 -207.38799 -16.318405
-117.44064 -207.34576 -17.093071
-118.31136 -207.29514 -17.313847
-115.87637 -207.16039 -6.155592
-114.21619 -207.17613 -6.1029501
-113.46831 -207.06171 -6.3569059
-106.16999 -207.06989 -6.2855101
-119.17699 -207.14717 -13.044596
-118.42777 -207.15431 -13.086456
-117.79717 -207.19568 -13.012703
-119.44875 -207.1929 -15.402587
-119.42462 -207.1586 -17.211157
-119.9086 -207.19629 -17.92601
-114.79568 -206.8157 -6.3254638
-116.17595 -206.75137 -6.3653202
-105.89757 -206.79762 -6.2157421
-106.15858 -206.54413 -6.177568
-101.9213 -206.58267 -6.1982741
-119.7328 -206.57773 -6.3999891
-108.03241 -206.17496 -6.1876712
-105.04322 -206.06729 -6.1638751
-101.73174 -206.12605 -6.1746912
-113.11299 -206.14394 -6.2230611
-111.7376 -205.81836 -6.1373782
-105.42386 -205.92593 -6.1976538
-105.13699 -205.85968 -6.1612968
-105.62066 -205.65335 -6.146493
-101.47005 -205.73981 -6.1617751
-101.38791 -205.58868 -6.1547499
-104.4909 -205.25452 -6.196084
-115.45034 -205.26263 -6.2909122
-105.38164 -205.16422 -6.3275161
-102.67432 -204.88388 -6.0892091
-101.04526 -204.95302 -6.0915542
-119.05518 -204.99725 -6.2912302
-104.91925 -204.82936 -6.246119
-104.02661 -204.64456 -6.177515
-112.69154 -204.45602 -6.3237629
-109.87788 -204.42793 -6.2523961
-112.31623 -204.38388 -6.3316269
-105.08793 -204.38142 -6.3867669
-104.01363 -204.26834 -6.297523
-104.75631 -204.22391 -6.7391791
-115.68681 -204.00621 -6.4063869
-103.38165 -203.84802 -6.1965289
-100.83003 -203.90173 -6.0349269
-104.44345 -203.82278 -6.6922188
-102.97253 -203.79344 -6.093318
-100.81285 -203.75688 -6.0239921
-100.66839 -203.65161 -6.0268731
-103.9118 -203.63693 -6.3840628
-100.13686 -203.45735 -6.0094929
-112.02982 -203.5647 -6.265718
-103.86825 -203.45352 -6.5253782
-106.31979 -203.26477 -6.785275
-104.24952 -203.03998 -6.3541098
-104.82207 -203.10519 -6.8731532
-106.41579 -202.84044 -9.1983557
-104.63812 -202.85838 -9.1667719
-103.52937 -202.95148 -9.1764469
-107.15593 -202.80641 -9.2508755
-104.75451 -202.89737 -9.2701521
-103.0554 -202.95885 -9.2050028
-102.52435 -202.70932 -6.4779649
-100.44016 -202.68552 -6.5456109
-108.07205 -202.7339 -9.1017838
-106.61052 -202.65819 -9.3101349
-105.30367 -202.54445 -6.7514992
-102.31598 -202.52594 -6.729322
-109.95451 -202.58267 -6.945169
-101.93798 -202.42232 -6.8420658
-101.75467 -202.50085 -6.9094458
-113.32455 -202.53177 -9.1963634
-115.05959 -202.45105 -9.3280392
-101.59495 -202.26181 -5.9134851
-100.9445 -202.30128 -6.4223809
-100.25937 -202.32062 -7.1213231
-103.26431 -202.22766 -7.3753638
-100.78931 -202.23897 -7.3961382
-109.89858 -202.29163 -7.4163942
-100.00651 -202.31102 -7.5543022
-100.07864 -202.29932 -8.2070942
-101.72022 -202.26961 -8.8909845
-100.1538 -202.25439 -8.9659243
-107.21827 -202.26086 -9.1221962
-103.47766 -202.27863 -9.0525274
-119.09817 -202.28091 -9.3438339
-104.46623 -202.13132 -6.6020999
-105.03687 -202.02866 -6.9324841
-101.92458 -202.18581 -6.9757438
-106.82384 -202.05812 -7.0305161
-105.27795 -202.02626 -7.006753
-101.84862 -202.16995 -7.0548558
-104.84541 -202.00757 -7.4172091
-106.46284 -202.03387 -7.8928442
-104.95016 -202.01181 -7.9061909
-104.4536 -202.02707 -7.8705702
-103.34475 -202.16608 -7.936604
-101.88744 -202.15158 -7.8783708
-101.82219 -202.17471 -8.3279371
-100.78976 -202.15891 -8.6285839
-110.10171 -201.91232 -6.2552152
-107.90838 -201.97281 -6.2426891
-110.20988 -201.94417 -6.7863269
-109.16389 -201.94414 -6.662672
-109.857 -201.92679 -7.4709911
-105.2816 -201.99655 -7.4701142
-106.23759 -201.9718 -8.6442623
-104.62419 -201.97403 -8.6937122
-104.68123 -201.9695 -8.9227247
-113.31465 -201.80615 -9.2181797
-113.68417 -201.78285 -6.5480518
-115.71617 -201.66402 -6.735404
-115.28287 -201.6835 -6.6218071
-115.63585 -201.68706 -6.897429
-109.36959 -201.77119 -8.9124584
-111.79003 -201.67062 -9.01367
-118.72119 -201.59804 -6.0878582
-117.10394 -201.59245 -6.7178621
-119.44092 -201.53204 -6.88414
-117.49525 -201.58481 -7.5341749
-117.53818 -201.56657 -8.5313711
-116.25204 -201.51117 -8.5664082
-117.06103 -201.55795 -8.6521177
-117.58481 -201.52596 -9.2054377
-104.94032 -217.01248 -9.9570808
-103.64468 -216.49963 -6.4190879
-101.42942 -216.59715 -6.518549
-100.97562 -216.45064 -8.2294512
-101.38568 -216.49277 -9.6141243
-101.28148 -216.34392 -9.9424219
-107.83964 -216.26659 -10.143802
-100.70403 -208.80063 -7.5121069
-100.91211 -208.93494 -7.6686921
-100.79382 -208.80093 -7.9853692
-100.62021 -208.7466 -7.46632
-100.91843 -208.62595 -7.777154
-100.67868 -208.7178 -7.9042568
-100.13091 -208.68883 -8.9468803
-101.50597 -208.47664 -6.7010059
-103.96312 -208.42595 -7.3790841
-102.98106 -208.44449 -7.4700198
-103.11224 -208.5986 -8.0119247
-100.21891 -208.51306 -9.7310333
-101.50407 -208.42123 -9.89361
-102.77988 -208.41394 -10.648321
-101.45667 -208.4167 -10.861709
-100.94264 -208.41299 -11.311211
-100.26365 -208.49512 -12.528628
-101.46211 -208.30576 -6.5184121
-100.58572 -208.38029 -6.5727859
-109.0259 -208.22118 -6.7122569
-106.99158 -208.31276 -6.8816261
-106.22935 -208.33202 -6.8964272
-101.69965 -208.27419 -6.998589
-108.98067 -208.20462 -7.3761911
-107.20885 -208.25357 -7.3604679
-105.78246 -208.33896 -7.4755611
-101.7048 -208.26736 -7.4952898
-112.16957 -208.26428 -7.944109
-109.78926 -208.27429 -7.941093
-104.23781 -208.35205 -7.9661021
-106.85428 -208.30527 -8.1249876
-104.18488 -208.3262 -9.0203571
-103.88573 -208.33163 -9.0313482
-106.58611 -208.23421 -9.9008865
-104.13124 -208.28769 -10.104185
-103.49609 -208.27005 -10.083092
-100.96671 -208.23598 -10.290701
-100.07472 -208.29308 -10.209926
-106.12639 -208.20438 -10.882856
-104.11116 -208.30237 -11.135242
-106.76466 -208.23035 -12.130777
-103.24796 -208.39098 -12.167563
-104.19294 -208.24506 -12.235073
-101.10965 -208.37193 -12.212024
-104.14901 -208.23883 -12.68945
-103.89984 -208.32771 -12.82073
-105.90793 -208.18857 -6.3854308
-104.45255 -208.1232 -6.3088179
-101.79693 -208.00481 -6.3207698
-112.57919 -208.06064 -6.538815
-101.74625 -208.18234 -6.6768589
-101.73122 -208.17809 -6.969934
-112.99382 -208.04221 -7.1606731
-111.95355 -208.04861 -7.173069
-111.8954 -208.08755 -7.2158108
-110.20415 -208.15009 -7.2583909
-109.81618 -208.16345 -7.2869658
-110.20444 -208.11316 -8.0589724
-101.72028 -208.15347 -8.2721968
-111.40986 -208.10063 -8.6508179
-110.44289 -208.07919 -8.632967
-100.95111 -208.00444 -9.174633
-100.71178 -208.03848 -9.1051455
-100.07335 -208.04129 -9.3066311
-101.69709 -208.08121 -10.017614
-105.11521 -208.05829 -10.226342
-107.48561 -208.02763 -10.480495
-104.53175 -208.18359 -10.497036
-110.13944 -208.05995 -10.663842
-104.73553 -208.03554 -10.739666
-109.5238 -208.05278 -11.199163
-105.13621 -208.04893 -11.306091
-106.86189 -208.16092 -11.538841
-104.74524 -208.01488 -11.78283
-101.64395 -208.07925 -11.707599
-101.66111 -208.01904 -12.118008
-101.63268 -208.11269 -12.252708
-104.76252 -208.00412 -12.404423
-102.63842 -208.12619 -13.575834
-104.54724 -208.09183 -14.059452
-106.97108 -208.04495 -14.600581
-110.4278 -207.96071 -6.370656
-101.8011 -207.86983 -6.3104162
-110.4593 -207.84073 -6.5263209
-110.39956 -207.84268 -6.7184658
-118.587 -207.82242 -7.0194092
-115.44868 -207.92165 -7.05831
-107.64868 -207.92043 -7.4624438
-115.89429 -207.82944 -7.850275
-110.36612 -207.85184 -8.1213312
-107.62881 -207.92825 -8.5441751
-110.33545 -207.85849 -8.6295166
-110.39201 -207.94038 -8.8604794
-106.14172 -207.80386 -9.0865936
-104.56154 -207.90436 -9.053936
-103.79774 -207.91731 -9.0869122
-103.54737 -207.91914 -9.0457592
-103.0303 -207.95621 -9.0488977
-102.9616 -207.94383 -9.0203447
-103.63771 -207.93156 -9.2208023
-115.67776 -207.8575 -9.6124315
-110.43738 -207.88412 -9.9078856
-112.57774 -207.92773 -10.78186
-112.10097 -207.94373 -10.744981
-107.56947 -207.91116 -11.040834
-109.55988 -207.96408 -11.298117
-106.01048 -207.99997 -11.306599
-110.53205 -207.83591 -11.832694
-110.35976 -207.89755 -11.890312
-112.72661 -207.96924 -12.326344
-104.77333 -207.9877 -12.34776
-102.0928 -207.86853 -12.723083
-101.76929 -207.89001 -12.733915
-101.49434 -207.90666 -12.710259
-101.04508 -207.96059 -12.66287
-113.20419 -207.84264 -12.862329
-111.77371 -207.80548 -12.918055
-101.85252 -207.88278 -12.82729
-109.02734 -207.80603 -13.637704
-105.46075 -207.97466 -13.686577
-103.4713 -207.86049 -13.710555
-109.92655 -207.98062 -14.037899
-100.90833 -207.7348 -5.943069
-108.26392 -207.67905 -6.363225
-103.82824 -207.72328 -6.275866
-113.60852 -207.73666 -6.5620589
-119.32434 -207.7177 -7.8792691
-117.8647 -207.62614 -7.8139482
-116.464 -207.74529 -7.864171
-119.34052 -207.69734 -8.0235577
-119.3774 -207.65492 -8.7018776
-110.98022 -207.60631 -8.9786882
-109.33939 -207.66266 -9.1895008
-107.6976 -207.74643 -9.1031179
-115.71956 -207.74635 -10.28574
-118.13905 -207.67683 -11.24884
-116.35886 -207.6862 -11.238567
-111.48493 -207.77219 -11.38709
-113.36639 -207.79225 -11.581553
-115.62989 -207.78549 -11.870489
-110.42288 -207.77013 -12.574926
-108.80132 -207.61957 -12.631618
-108.08124 -207.6684 -12.728206
-106.97971 -207.68387 -12.747326
-105.03941 -207.76857 -12.659147
-104.18726 -207.78355 -12.749802
-116.35327 -207.67409 -12.85405
-108.0431 -207.61447 -12.970444
-104.56509 -207.73755 -12.856258
-111.77045 -207.69406 -13.647237
-116.31213 -207.62524 -14.4893
-111.75068 -207.79959 -14.49792
-111.39062 -207.71747 -14.675587
-116.32263 -207.65401 -15.344791
-106.72849 -207.53627 -6.2557678
-112.20174 -207.57037 -9.0940437
-111.89961 -207.56046 -9.3047104
-118.61075 -207.50894 -10.404476
-113.60381 -207.52939 -10.857872
-117.78445 -207.51131 -11.354433
-111.63913 -207.48329 -12.733696
-117.95366 -207.43156 -13.749564
-116.63412 -207.47755 -13.699169
-117.18179 -207.46716 -13.801583
-106.41093 -207.59833 -13.826616
-112.27501 -207.45493 -14.20531
-109.41827 -207.56906 -14.202574
-109.37135 -207.51157 -15.051912
-116.26827 -207.42619 -17.006252
-114.81925 -207.26334 -6.3588338
-114.16251 -207.25648 -6.3296781
-113.83561 -207.28186 -6.3482561
-104.49236 -207.33081 -6.2884612
-104.18107 -207.27019 -6.2347188
-119.8259 -207.38367 -6.4966898
-116.39764 -207.36882 -9.1656981
-118.0481 -207.29881 -12.73624
-118.12161 -207.35094 -12.916928
-112.95032 -207.39896 -13.000732
-119.36707 -207.33406 -15.924523
-114.52039 -207.23051 -16.479786
-117.00484 -207.34821 -17.141613
-117.79321 -207.30042 -17.365494
-119.35301 -207.23561 -17.578144
-118.53081 -207.26796 -17.554369
-119.3134 -207.19586 -12.898367
-118.28654 -207.16479 -16.035645
-117.0017 -207.16621 -16.19669
-117.98434 -207.07376 -16.477655
-113.10358 -206.93176 -6.2844501
-112.17801 -206.98958 -6.3246832
-115.92659 -206.6013 -6.3714809
-113.24484 -206.61652 -6.2528682
-104.92341 -206.74487 -6.224299
-104.31089 -206.59058 -6.1013689
-106.94526 -206.433 -6.2072659
-114.89745 -206.33757 -6.2827468
-112.17036 -206.17278 -6.1409922
-106.94207 -206.11086 -6.1872659
-100.95021 -206.18576 -6.1747441
-119.72241 -206.14935 -6.3649101
-107.68403 -205.89255 -6.1831169
-116.21376 -205.83975 -6.3003559
-112.79417 -205.92393 -6.2224498
-111.57771 -205.69559 -6.1365242
-100.68073 -205.72577 -6.1516929
-115.69359 -205.65129 -6.3100061
-103.42081 -205.35632 -6.0716872
-112.12213 -205.26489 -6.2045479
-102.2481 -205.0703 -6.139174
-113.74736 -204.9942 -6.2296362
-103.90301 -204.90871 -6.221725
-104.29885 -204.62036 -6.2532248
-103.4407 -204.52902 -6.1070161
-117.63116 -204.59895 -6.3478599
-104.35413 -204.58182 -6.3347521
-106.9249 -204.25848 -6.5159249
-107.76882 -204.19295 -6.48806
-104.75115 -204.19409 -6.6582532
-104.5452 -204.07697 -6.6477699
-102.18112 -203.91634 -6.087182
-101.97147 -203.66988 -6.0709262
-117.63068 -203.73218 -6.7559862
-115.04936 -203.50793 -6.301487
-117.50149 -203.58896 -6.6052041
-100.48913 -203.37581 -6.0172248
-103.68811 -203.35779 -6.2246718
-105.04723 -203.25865 -6.6185579
-101.93736 -203.01498 -9.1190414
-101.40114 -203.02948 -9.1666651
-100.60381 -203.10086 -9.2401733
-100.23381 -203.0731 -9.2746563
-101.10886 -202.94632 -6.1965771
-100.14694 -202.98984 -6.0693269
-112.60252 -202.98796 -6.2352509
-104.75894 -202.80876 -6.3727322
-102.08009 -202.89523 -6.2062039
-100.67113 -202.83296 -6.3708949
-105.99748 -202.81784 -9.1656752
-102.52428 -202.93208 -9.1532183
-104.30128 -202.90933 -9.2349062
-102.61684 -202.70169 -6.2260799
-108.76121 -202.69398 -9.1409121
-107.73077 -202.63544 -9.073575
-103.38517 -202.61389 -9.1439886
-116.25001 -202.42751 -6.1590118
-115.54029 -202.46886 -6.1876178
-104.25311 -202.5631 -6.59273
-100.7202 -202.54967 -6.7833738
-100.39439 -202.47418 -6.7542868
-100.47086 -202.50784 -6.870235
-109.96175 -202.54388 -7.5264292
-109.97941 -202.56607 -8.1414099
-100.28076 -202.47659 -8.9357357
-107.06971 -202.52023 -9.1331358
-103.33693 -202.55281 -9.1329613
-100.41201 -202.46881 -9.044507
-115.79768 -202.43945 -9.3302345
-102.65106 -202.26001 -5.9452701
-100.76375 -202.29521 -5.9795599
-100.08318 -202.33258 -6.1265802
-100.14716 -202.33197 -6.2479081
-100.71243 -202.31439 -6.5123491
-100.40281 -202.30458 -6.7685142
-101.44235 -202.20209 -6.9856238
-103.12677 -202.20496 -7.4872818
-103.12952 -202.22919 -7.8892221
-100.16666 -202.28249 -8.4271574
-104.27528 -202.13373 -6.5811939
-109.89163 -202.16808 -6.882205
-102.1713 -202.15433 -6.9695568
-102.61365 -202.15967 -7.052886
-102.23743 -202.15179 -7.362195
-106.52148 -202.05968 -7.4883742
-102.61397 -202.14041 -7.4311552
-101.90739 -202.16699 -7.540514
-102.73879 -202.15158 -8.1202831
-101.82727 -202.14302 -8.1376419
-102.28886 -202.11395 -8.3124666
-103.48576 -202.1427 -8.5000687
-106.55685 -202.02515 -8.6136322
-108.218 -202.0343 -8.9999771
-101.85971 -202.11789 -8.9374771
-104.50247 -202.06294 -9.1346235
-109.51807 -201.91135 -6.756608
-110.1496 -201.92743 -6.9104462
-108.51875 -201.88324 -7.0050611
-107.65665 -201.90289 -7.4307799
-108.27718 -201.83444 -8.1434307
-106.0533 -201.9726 -8.1237869
-108.27766 -201.82397 -8.5558968
-105.26749 -201.97043 -8.5869522
-107.57747 -201.85503 -8.6490707
-110.54539 -201.85083 -8.9910488
-104.3448 -201.97751 -9.0260525
-113.70744 -201.79922 -6.278183
-117.00894 -201.64627 -6.5807481
-113.38971 -201.75143 -6.5608072
-113.57252 -201.71358 -7.1548219
-113.67967 -201.73149 -7.4722152
-115.08134 -201.63457 -7.6732359
-113.6412 -201.69022 -7.8873901
-117.10045 -201.61853 -8.0706539
-109.51544 -201.75174 -8.6087399
-113.39494 -201.63431 -8.9947338
-116.89874 -201.60815 -9.0145187
-112.37633 -201.62589 -9.0429058
-118.37729 -201.71907 -9.2528496
-118.89847 -201.51663 -6.3098369
-119.8231 -201.46754 -6.6558008
-119.14957 -201.51302 -6.6701341
-118.52451 -201.5383 -6.68187
-115.92329 -201.55026 -7.718554
-115.85538 -201.55246 -8.4727478
-116.63293 -201.49135 -8.9973993
-116.99284 -201.52515 -9.0881577
-104.37641 -201.3031 -7.2957921
-118.81122 -201.35971 -9.2581797
-101.45104 -216.5434 -8.6747856
-101.28873 -216.35341 -9.5135508
-100.90823 -208.65074 -7.5238481
-100.10689 -208.70517 -8.5580177
-103.93738 -208.42618 -6.5160651
-100.92896 -208.55118 -6.7432332
-101.43663 -208.50143 -7.0929589
-101.01611 -208.53513 -7.1131692
-100.9418 -208.50346 -7.5240178
-106.23096 -208.47198 -7.9443841
-106.16595 -208.54614 -8.1482582
-103.85635 -208.49275 -8.0860033
-102.56422 -208.47527 -8.1481857
-101.64825 -208.40308 -8.0077333
-103.20824 -208.56126 -8.4900007
-100.86476 -208.51947 -8.4743452
-100.88654 -208.53407 -8.960536
-101.57368 -208.45476 -9.0129833
-101.50385 -208.46841 -9.5111599
-101.38069 -208.4623 -9.5121727
-100.60164 -208.51352 -9.4600925
-102.55749 -208.42453 -9.7443304
-101.31175 -208.44176 -10.510633
-100.30318 -208.49049 -10.569377
-100.72919 -208.41711 -11.209241
-104.57726 -208.25937 -6.4687562
-104.38783 -208.38759 -6.508348
-108.72161 -208.25186 -6.6567421
-107.13474 -208.2735 -6.763587
-105.42982 -208.38213 -6.955492
-104.89073 -208.23007 -6.9740472
-108.7216 -208.21986 -7.3878331
-107.2886 -208.28992 -7.5020299
-102.99454 -208.24496 -7.5767961
-100.9316 -208.37401 -7.6299129
-109.36685 -208.3889 -7.9691839
-106.8772 -208.28842 -7.9384661
-104.60794 -208.26668 -8.1334925
-104.17709 -208.37067 -8.1555309
-106.85601 -208.27415 -8.704361
-104.59744 -208.24146 -8.6457596
-103.89574 -208.37491 -8.9467735
-102.61842 -208.33292 -10.051455
-102.20506 -208.22858 -10.23205
-101.42464 -208.27625 -10.315397
-102.77861 -208.35461 -10.550569
-101.6242 -208.23784 -10.496583
-106.73282 -208.21194 -10.711548
-103.0822 -208.37772 -10.619802
-100.70903 -208.26427 -11.224041
-101.32679 -208.39388 -11.740772
-106.77571 -208.20972 -11.876312
-106.74164 -208.21484 -12.725852
-107.46144 -208.04733 -6.3796148
-103.80579 -208.19229 -6.2561879
-100.50497 -208.08597 -6.3134198
-101.59956 -208.00333 -6.4827628
-104.76555 -208.18393 -6.849793
-113.01968 -208.01273 -7.3029842
-112.27299 -208.07156 -7.239789
-112.75973 -208.12785 -7.9211512
-107.43208 -208.14392 -7.9448299
-112.75894 -208.04498 -8.0530529
-104.68175 -208.13538 -8.5164938
-101.72113 -208.17116 -8.4639797
-112.66975 -208.17479 -8.6647339
-107.48518 -208.12041 -8.9503059
-104.589 -208.19603 -9.0474815
-101.71382 -208.11224 -9.0684013
-104.70782 -208.03156 -9.6663542
-110.20786 -208.03133 -9.9139433
-109.80026 -208.08981 -9.9412355
-112.56647 -208.01216 -10.145086
-110.42246 -208.04364 -10.027434
-108.81006 -208.15121 -10.115537
-107.36806 -208.08206 -10.109394
-111.89456 -208.01495 -10.831435
-107.01791 -208.15903 -10.979893
-106.59367 -208.18086 -10.920059
-109.1204 -208.07251 -11.158293
-107.40833 -208.11336 -11.000589
-109.80425 -208.04041 -11.228977
-104.49449 -208.13235 -11.245162
-107.3266 -208.10709 -11.544722
-104.71275 -208.02893 -11.8412
-107.03289 -208.11169 -12.834624
-101.65162 -208.11513 -13.322878
-103.90943 -208.10626 -13.523446
-107.40732 -208.06238 -14.198465
-107.40974 -208.05022 -14.489845
-104.62953 -207.80301 -6.2740169
-100.35507 -207.83459 -6.2207222
-112.30805 -207.85329 -6.451509
-117.90672 -207.84442 -6.9997072
-117.16521 -207.82887 -7.043839
-110.41071 -207.93684 -7.743454
-110.32759 -207.92642 -7.913538
-106.50476 -207.80223 -9.1946716
-105.72972 -207.82596 -9.0825481
-104.94598 -207.87881 -9.0601416
-104.17697 -207.90746 -9.0621405
-102.55299 -207.97166 -9.0231647
-101.25652 -207.98582 -9.1927376
-105.42889 -207.86865 -9.2903624
-105.09235 -207.8786 -9.2771969
-104.81463 -207.84024 -9.2629242
-101.28339 -207.99294 -9.334341
-104.65901 -207.8759 -9.5284214
-101.76645 -207.96608 -9.4117222
-110.34358 -207.85892 -10.658854
-112.17412 -207.94995 -10.867092
-110.43549 -207.92773 -10.992975
-110.42863 -207.89186 -11.281757
-110.31255 -207.93079 -11.29775
-112.69463 -207.96274 -11.643959
-110.41076 -207.95772 -12.071201
-110.33114 -207.87411 -12.102686
-107.61124 -207.84988 -12.249735
-102.60306 -207.84134 -12.844795
-102.26172 -207.85843 -12.881023
-101.36892 -207.9032 -12.92316
-105.68941 -207.95642 -13.662897
-107.51559 -207.90137 -13.872478
-109.36581 -207.99681 -14.597633
-110.11983 -207.82121 -14.687606
-109.79489 -207.91974 -14.668438
-112.67835 -207.87021 -15.329649
-101.11491 -207.77612 -6.216939
-113.60627 -207.68137 -7.2953229
-118.7218 -207.79524 -8.0311308
-116.46962 -207.70247 -8.8260326
-106.96597 -207.79073 -9.14254
-111.26683 -207.64934 -9.3311071
-110.85132 -207.62823 -9.3140116
-107.68474 -207.76932 -9.3050241
-113.51628 -207.65163 -9.4994583
-119.06004 -207.72821 -9.6919947
-116.77121 -207.6322 -10.370348
-116.15405 -207.67387 -10.304223
-118.72145 -207.68492 -10.593752
-107.60804 -207.77251 -10.970034
-118.56985 -207.65808 -11.283387
-111.15003 -207.79077 -11.35253
-118.66755 -207.7148 -12.321987
-113.40212 -207.74611 -12.313869
-106.72572 -207.6862 -12.733864
-106.54825 -207.73639 -12.700329
-104.97797 -207.73016 -12.95078
-106.25793 -207.66818 -13.073036
-116.35701 -207.63864 -13.653755
-106.35262 -207.64436 -14.468759
-113.35566 -207.70934 -14.608387
-113.43789 -207.66869 -15.144258
-112.99699 -207.79272 -15.396337
-113.40591 -207.69009 -15.47839
-110.40274 -207.76271 -15.460154
-107.21545 -207.49797 -6.2585759
-100.67207 -207.46892 -6.2755198
-100.54243 -207.49776 -6.2762742
-114.1657 -207.4642 -9.364398
-113.3424 -207.49719 -9.3504038
-111.40673 -207.57777 -9.2799177
-111.01184 -207.5943 -9.2499866
-116.12788 -207.43629 -9.4384937
-115.74734 -207.40213 -9.4211254
-119.45798 -207.50803 -9.6919479
-117.97269 -207.5851 -10.439419
-118.20541 -207.49213 -11.38475
-116.43528 -207.59459 -11.738598
-113.50377 -207.53964 -12.500133
-112.89843 -207.474 -12.7024
-111.41292 -207.56525 -12.738399
-110.99155 -207.49796 -12.839693
-113.52142 -207.5074 -13.341057
-118.79414 -207.42467 -13.71302
-112.26857 -207.41504 -14.515411
-116.35464 -207.49619 -15.316032
-117.15506 -207.42575 -16.315901
-105.84367 -207.30453 -6.2541819
-103.89461 -207.30844 -6.299017
-101.34998 -207.34807 -6.2472191
-100.27952 -207.26451 -6.236517
-119.38168 -207.27748 -14.992369
-118.52815 -207.31978 -16.289837
-114.20223 -207.26807 -16.454124
-117.24074 -207.07784 -6.3360958
-104.58417 -207.13335 -6.2609978
-119.12621 -207.16293 -12.696958
-119.67573 -207.03986 -16.256779
-107.83043 -206.89066 -6.2619438
-101.97445 -206.9669 -6.2256641
-100.77162 -206.97449 -6.2375612
-100.34531 -206.87418 -6.2037239
-105.30823 -206.63625 -6.1912799
-112.64642 -206.66829 -6.3423128
-108.72348 -206.60846 -6.2524638
-100.88845 -205.83377 -6.154254
-100.32999 -205.86313 -6.1591921
-114.75299 -205.99879 -6.2627349
-106.72779 -205.79312 -6.1819992
-112.34409 -205.63799 -6.2232671
-104.89093 -205.56813 -6.1962662
-119.71013 -205.53986 -6.3141131
-104.23807 -205.41678 -6.213686
-111.28123 -205.36148 -6.1261148
-100.15121 -205.39209 -6.1089911
-105.09772 -205.29172 -6.2348142
-104.16353 -205.09012 -6.2626362
-117.49322 -204.91083 -6.3398218
-105.25782 -204.93756 -6.2761111
-110.59344 -204.65189 -6.2338672
-101.3364 -204.54478 -6.059011
-100.97228 -204.48369 -6.066731
-100.57065 -204.54681 -6.0835681
-114.6385 -204.46443 -6.2489719
-106.82768 -204.45743 -6.4152541
-104.43116 -204.22707 -6.5208158
-115.38351 -203.80603 -6.3583131
-111.95256 -203.91583 -6.301919
-103.99359 -203.85448 -6.4964271
-102.47211 -203.7551 -6.1434398
-100.37868 -203.76794 -6.034791
-103.43442 -203.77788 -6.2757869
-114.79085 -203.44292 -6.1899638
-104.2749 -203.41899 -6.6534491
-102.25237 -203.37671 -5.9796252
-100.27402 -203.24391 -5.9965
-100.6099 -203.23698 -6.0532489
-102.09917 -203.05417 -5.9587512
-103.44693 -203.12915 -6.146039
-115.3506 -203.01703 -6.2887602
-103.75419 -203.06194 -6.2071052
-105.6033 -203.12532 -6.6774869
-105.51583 -203.07661 -6.6758828
-101.04865 -203.04652 -9.138238
-101.57406 -202.95941 -6.1175961
-101.30788 -202.98953 -6.13625
-100.42459 -202.84119 -6.4578061
-106.68669 -202.82578 -9.2174158
-103.88696 -202.92088 -9.2359982
-103.57172 -202.93507 -9.2448645
-103.02971 -202.7704 -6.3491702
-104.92216 -202.70477 -6.451983
-100.99655 -202.6153 -6.6738119
-109.95306 -202.62415 -7.0908408
-108.47046 -202.74745 -9.2409363
-102.51279 -202.43021 -6.8949871
-101.29922 -202.51439 -6.916779
-100.92265 -202.48 -6.8983188
-112.07708 -202.56917 -9.2041016
-115.33109 -202.30234 -6.1791291
-103.01507 -202.30263 -6.1328201
-101.30852 -202.28766 -6.1141329
-100.96724 -202.29956 -6.2221308
-100.15642 -202.31017 -7.304935
-100.14668 -202.30879 -7.782351
-105.47401 -202.34999 -9.1179953
-108.07841 -202.02097 -6.7360268
-107.67734 -202.03418 -6.7270942
-107.14076 -202.03204 -6.7085891
-104.25134 -202.07812 -6.945683
-106.18398 -202.04401 -7.0335922
-103.68781 -202.18016 -7.074719
-103.52362 -202.19447 -7.3743262
-106.12236 -202.01836 -7.402936
-103.26221 -202.19971 -7.5852442
-106.20116 -202.04196 -7.9651551
-104.15446 -202.04276 -7.903861
-102.07289 -202.15417 -7.8723712
-106.22054 -202.00879 -8.1586971
-104.45049 -202.02148 -8.1292992
-103.08586 -202.18185 -8.1179066
-109.90858 -202.19196 -8.2409048
-103.29391 -202.16949 -8.5003529
-103.11307 -202.16057 -8.522253
-102.59451 -202.0872 -8.5272465
-102.60794 -202.06531 -8.8615522
-111.4653 -201.84003 -6.611155
-109.0155 -201.85399 -6.9024782
-109.37015 -201.84979 -7.0226321
-106.05058 -201.96762 -7.469007
-107.739 -201.89224 -7.8290858
-105.85601 -201.95828 -7.8012352
-105.25236 -201.97034 -7.9908218
-105.00128 -201.974 -8.2326317
-105.0601 -201.94783 -8.5444984
-104.37817 -201.98959 -8.5903797
-110.51538 -201.86636 -8.6400061
-106.69293 -201.99373 -8.6599321
-108.229 -201.82851 -8.9477062
-107.46297 -201.92384 -8.9817429
-106.47636 -201.99097 -8.948781
-115.96071 -201.6503 -6.2640061
-115.15716 -201.66261 -6.3667908
-116.97256 -201.61504 -6.9201212
-114.64424 -201.69679 -6.90977
-113.73262 -201.7399 -8.145504
-113.68896 -201.7099 -8.6947765
-109.87311 -201.79346 -8.8953571
-108.98262 -201.78183 -8.8912172
-114.81403 -201.70482 -9.2176905
-118.81697 -201.55859 -6.848557
-116.15704 -201.56783 -6.9699969
-116.88615 -201.5728 -7.5284081
-115.86858 -201.53271 -8.3184586
-116.6725 -201.502 -8.6335812
-119.23571 -201.34106 -8.4059782
-119.33154 -201.34351 -9.2847042
-101.53585 -200.20152 -8.9838037
-102.00102 -218.62067 -8.9509487
-103.85164 -218.47075 -9.9841928
-101.47442 -216.54668 -8.2449608
-102.51533 -216.47249 -9.1652765
-102.0529 -216.4897 -9.1383677
-101.3911 -216.50554 -9.569541
-101.81907 -216.5589 -10.092076
-107.03581 -216.25076 -10.073452
-116.36247 -216.15582 -10.084985
-100.25706 -208.84091 -6.6998601
-100.89528 -208.86359 -8.624012
-100.18369 -208.73569 -7.1332431
-100.77606 -208.72 -8.5256376
-100.55167 -208.68645 -8.9564323
-104.36501 -208.42612 -6.4662828
-103.05012 -208.48994 -6.4508262
-100.21788 -208.49661 -6.6299548
-104.28288 -208.41513 -7.0178938
-103.38876 -208.40692 -7.4510598
-100.86081 -208.52271 -7.9722371
-106.80263 -208.45422 -8.1419315
-103.16815 -208.59634 -8.5457315
-101.0274 -208.49249 -8.5319233
-106.6699 -208.48396 -8.6980047
-106.2565 -208.49606 -8.6459265
-101.54727 -208.44756 -8.9932108
-101.29325 -208.44531 -9.9439058
-101.25787 -208.41589 -10.882402
-100.49976 -208.433 -11.210601
-103.17699 -208.40323 -11.582041
-100.85429 -208.45865 -11.742334
-100.71167 -208.52361 -12.609536
-104.62482 -208.21925 -6.4691792
-106.98455 -208.29105 -6.679266
-105.44543 -208.34256 -6.7928038
-101.71291 -208.26196 -6.6444221
-104.56215 -208.28705 -6.931303
-107.01131 -208.28415 -7.437324
-103.35982 -208.23032 -7.5677042
-102.57719 -208.26422 -7.5872931
-101.11065 -208.32202 -7.5517788
-101.71406 -208.21976 -7.6038661
-104.52788 -208.28207 -7.94172
-101.71924 -208.24924 -7.9355068
-109.16745 -208.34874 -8.1299057
-101.72792 -208.26196 -8.0880775
-101.57095 -208.37074 -8.0064764
-102.51781 -208.38911 -8.4682093
-101.56969 -208.35706 -8.4992657
-105.44757 -208.30249 -8.657588
-103.87677 -208.39188 -8.6079769
-101.75583 -208.23085 -8.9173698
-104.50877 -208.22008 -9.5841589
-104.28131 -208.25749 -9.5816126
-103.78101 -208.3123 -9.5580206
-104.11357 -208.29874 -10.664154
-103.73692 -208.32118 -10.625859
-105.76605 -208.22479 -10.850519
-103.92105 -208.29871 -11.390249
-104.08234 -208.29857 -11.984816
-101.36786 -208.36963 -11.814135
-103.46552 -208.0475 -6.352293
-110.44959 -208.07172 -6.566555
-104.61507 -208.17242 -7.3849869
-107.63131 -208.04807 -7.4299269
-106.1319 -208.11928 -7.6257062
-105.00084 -208.16905 -7.6434741
-110.94887 -208.00584 -7.9377198
-101.80156 -208.12955 -7.9764962
-101.72608 -208.17407 -7.9289222
-104.81079 -208.15729 -8.0668306
-101.74622 -208.14656 -8.0564547
-104.5799 -208.10999 -9.5653849
-101.69736 -208.06036 -9.901659
-112.12387 -208.03264 -10.119884
-111.69402 -208.04968 -10.095194
-110.1283 -208.07538 -10.015501
-109.54619 -208.0899 -10.000654
-105.72476 -208.06116 -10.236835
-101.69851 -208.1165 -10.310612
-109.68706 -208.08784 -10.628873
-101.66759 -208.12106 -10.721107
-101.67783 -208.061 -10.873989
-104.51318 -208.19551 -11.05277
-105.61164 -208.01999 -11.298298
-101.66768 -208.10106 -11.315641
-101.64157 -208.13203 -11.863559
-107.32063 -208.07114 -12.478341
-107.1144 -208.09656 -12.751267
-100.37447 -208.03481 -12.614258
-104.48864 -208.11888 -12.847342
-104.22554 -208.18475 -12.848202
-103.42149 -208.10489 -13.544672
-104.2674 -208.14455 -13.88142
-106.99 -208.10065 -14.056377
-106.64329 -208.1003 -14.571401
-111.5154 -207.8172 -6.2999549
-118.97841 -207.80038 -7.0233159
-118.2383 -207.85962 -7.0129118
-115.92622 -207.93773 -7.0714011
-110.42847 -207.95255 -7.0926738
-113.47978 -207.86102 -7.316339
-113.10777 -207.98801 -7.8702168
-113.09604 -207.97296 -8.0479212
-110.44924 -207.96606 -8.1409683
-115.84198 -207.85019 -8.6421127
-102.79005 -207.95749 -9.0380955
-101.73862 -207.98239 -9.1069098
-104.62264 -207.84467 -9.2553101
-104.18092 -207.87862 -9.2422333
-107.60597 -207.94316 -9.7255421
-107.58753 -207.81126 -9.7453976
-111.65967 -207.98984 -9.9976931
-107.60237 -207.82451 -9.8471107
-111.96883 -207.9799 -10.086332
-109.88276 -207.87505 -10.237785
-106.90498 -207.97542 -10.308839
-106.6262 -207.98433 -10.323186
-106.2682 -207.98837 -10.300806
-110.84703 -207.89474 -10.73455
-112.94188 -207.91591 -10.862389
-107.60732 -207.86273 -10.973425
-112.63336 -207.85478 -11.048676
-110.60686 -207.866 -11.276934
-107.5271 -207.95181 -11.631693
-112.87009 -207.89214 -12.264915
-110.2533 -207.9135 -12.650193
-106.26756 -207.82814 -12.768105
-103.45181 -207.82391 -12.670532
-101.83083 -207.92029 -12.678197
-102.57107 -207.84972 -12.917604
-100.83604 -207.91391 -12.989098
-100.41983 -207.94437 -12.885117
-105.3598 -207.9729 -13.587135
-105.06809 -207.99686 -13.598019
-110.34526 -207.80374 -13.836422
-112.70493 -207.80862 -14.577162
-110.31478 -207.88713 -15.4707
-112.6808 -207.85222 -15.82573
-104.65634 -207.64636 -6.282836
-115.72095 -207.73228 -6.4554019
-114.56648 -207.66626 -6.4017758
-116.58507 -207.69919 -7.2235079
-117.01719 -207.6563 -7.8224921
-110.40163 -207.78859 -7.9095931
-110.3708 -207.78207 -8.5500374
-116.47435 -207.74104 -8.6795053
-119.38699 -207.63824 -8.8865175
-109.69611 -207.6644 -9.0984411
-108.95313 -207.69212 -9.1487846
-108.15099 -207.71001 -9.1182518
-115.34245 -207.76289 -10.266191
-107.61689 -207.77892 -10.353176
-119.32716 -207.61833 -10.523886
-111.84532 -207.7565 -11.42469
-108.41744 -207.62698 -12.714149
-104.45122 -207.76878 -12.675453
-119.16953 -207.60861 -12.913117
-107.48701 -207.73041 -12.830923
-105.3092 -207.71178 -12.934611
-112.23686 -207.6884 -13.664577
-106.62057 -207.77983 -13.755176
-110.48941 -207.72849 -14.075301
-110.46445 -207.79622 -14.574963
-113.15091 -207.74486 -14.688494
-116.1412 -207.66362 -16.145227
-111.93456 -207.41435 -6.2476282
-105.4198 -207.43059 -6.2096329
-119.4754 -207.51324 -6.6287699
-119.84439 -207.49608 -7.8408942
-119.50378 -207.44 -8.930234
-114.90311 -207.43433 -9.1141138
-115.05441 -207.47537 -9.3998594
-113.8153 -207.47412 -9.3351498
-112.53951 -207.53198 -9.3341722
-116.20833 -207.59608 -9.9621201
-117.37245 -207.56377 -10.341873
-116.99765 -207.53629 -10.454112
-116.41229 -207.59569 -11.097931
-117.39837 -207.5641 -11.323492
-119.40755 -207.43245 -11.79165
-113.52838 -207.55995 -11.779927
-116.53358 -207.50993 -12.209434
-116.25493 -207.49168 -12.755694
-111.70531 -207.46745 -12.851697
-107.91563 -207.59958 -12.866907
-116.36481 -207.53902 -13.50243
-118.39212 -207.50902 -13.656375
-113.49746 -207.49629 -14.261202
-117.92433 -207.4426 -14.789259
-111.70544 -207.4819 -14.959768
-116.33899 -207.5296 -15.059125
-109.37854 -207.54051 -15.236717
-119.44166 -207.37982 -11.47582
-119.02493 -207.26418 -12.691324
-117.01362 -207.29279 -12.759001
-117.33887 -207.22795 -12.963484
-119.44696 -207.3331 -13.850938
-119.39332 -207.37236 -14.180827
-119.37646 -207.34232 -14.600359
-118.5019 -207.34729 -14.857702
-112.20628 -207.34138 -15.87829
-114.51271 -207.28432 -16.197407
-113.08807 -207.3508 -16.174589
-119.01411 -207.3873 -16.219362
-117.29449 -207.2242 -16.329025
-113.75809 -207.2868 -16.275351
-119.42977 -207.2115 -16.870052
-119.29604 -207.22726 -17.749687
-104.70908 -207.0966 -6.261373
-117.71979 -207.1521 -16.176075
-116.1879 -207.17291 -16.231016
-117.50114 -207.11763 -16.40807
-119.47557 -207.11035 -16.87068
-104.16933 -206.91675 -6.1374311
-108.46153 -206.90283 -6.2914209
-100.81815 -206.92726 -6.2249751
-112.06385 -206.70461 -6.187748
-106.65034 -206.60056 -6.2373409
-105.21973 -206.60168 -6.2273331
-102.06135 -206.74979 -6.2007241
-100.90762 -206.60197 -6.200984
-100.18156 -206.47253 -6.1966882
-100.32916 -206.14272 -6.1632671
-114.26987 -205.67897 -6.260726
-105.37304 -205.51402 -6.1531839
-119.45352 -205.4034 -6.3117619
-116.09716 -205.58827 -6.2881122
-114.07507 -205.49895 -6.25559
-106.26088 -205.41765 -6.2236848
