# .PCD v0.7 - Point Cloud Data file format
VERSION 0.7
FIELDS x y z
SIZE 4 4 4
TYPE F F F
COUNT 1 1 1
WIDTH 1469
HEIGHT 1
VIEWPOINT 0 0 0 1 0 0 0
POINTS 1469
DATA ascii
-101.53937 -68.009346 -2.2901111
-107.30229 -68.150665 -7.751256
-105.53027 -68.104523 -8.3680439
-106.50446 -68.172119 -9.4409294
-105.9199 -68.105507 -10.61389
-109.42809 -68.17514 -12.370974
-105.42674 -67.91362 -8.4625301
-105.74709 -67.98233 -9.2003279
-101.291 -67.890656 -9.531455
-106.31667 -67.824425 -10.069182
-110.79828 -67.815353 -12.701503
-107.87923 -67.713394 -2.2127299
-101.12824 -67.77272 -2.3374791
-100.74904 -67.698662 -2.3452189
-101.25488 -67.636528 -7.87851
-103.51537 -67.753006 -11.041256
-115.88684 -67.712616 -11.812593
-107.73616 -67.645798 -15.966286
-103.4419 -67.528442 -2.2928121
-102.60542 -67.49369 -2.3007519
-101.28586 -67.529449 -6.981091
-101.27089 -67.548233 -8.3231936
-103.30001 -67.446991 -8.680254
-107.57033 -67.559525 -9.5759449
-101.00349 -67.573502 -9.6068649
-107.19495 -67.517082 -10.249977
-105.98343 -67.500107 -11.311508
-107.44939 -67.523468 -16.402397
-100.90728 -67.296196 -2.2596791
-101.30975 -67.298965 -6.2859259
-106.07872 -67.274086 -8.4513044
-105.14835 -67.286674 -9.0493832
-105.79333 -67.340981 -9.86483
-111.1555 -67.240723 -12.794046
-106.25951 -67.093231 -2.2488811
-101.36887 -67.082237 -5.9110332
-101.58501 -67.123245 -7.2580271
-105.95346 -67.177437 -8.5422688
-105.40257 -67.101562 -9.0213737
-107.41727 -67.096802 -10.115815
-100.11696 -67.185013 -10.090549
-104.74119 -67.118652 -10.430302
-105.92944 -66.886253 -2.2487979
-101.45268 -66.900208 -5.909678
-101.74156 -66.987473 -7.0114498
-110.81425 -66.943878 -8.3218498
-105.67834 -66.887253 -9.0236444
-111.28686 -66.928024 -14.947763
-105.50793 -66.806137 -15.317653
-101.89874 -66.671928 -6.500689
-108.3609 -66.695206 -7.2285299
-109.87674 -66.666985 -8.896719
-110.34474 -66.610245 -15.311584
-105.51165 -66.703842 -15.450284
-108.24082 -66.558472 -7.1678438
-109.35721 -66.526947 -7.822495
-105.37592 -66.452095 -15.822741
-100.17574 -66.427475 -15.978759
-106.60797 -66.21492 -2.1856179
-100.65955 -66.303864 -2.311924
-100.26396 -66.270874 -2.3217981
-108.4148 -66.331909 -7.6971712
-109.08366 -66.296036 -7.8174219
-105.91932 -66.244858 -8.3647604
-103.47803 -66.356071 -9.2615852
-104.29567 -66.085846 -2.248605
-102.46652 -66.044159 -2.3423951
-115.00806 -65.977905 -2.0350931
-109.11562 -65.885941 -2.286896
-103.16479 -65.95462 -2.3171141
-101.10054 -65.805374 -2.3868229
-101.38085 -65.842079 -2.4069149
-108.68994 -65.819702 -8.7053604
-104.59592 -65.828491 -8.6918945
-109.07626 -65.882408 -8.9133472
-100.57808 -65.838364 -15.645341
-106.66269 -65.994797 -16.514929
-101.50194 -65.733879 -2.3873439
-100.76218 -65.655411 -2.4233551
-100.25407 -65.639397 -2.4501691
-107.00139 -65.716675 -7.0405192
-109.87029 -65.682693 -13.99184
-109.54328 -65.655365 -14.392056
-108.5302 -65.769028 -14.280012
-108.82661 -65.613373 -16.241894
-119.30409 -65.536842 -2.1804919
-104.88606 -65.556229 -2.5317891
-100.05015 -65.447891 -2.6846919
-100.00665 -65.470772 -3.1366241
-100.00267 -65.46666 -4.6802702
-103.23889 -65.564758 -7.199945
-106.81264 -65.598534 -7.6361461
-105.95789 -65.588913 -7.7212458
-109.79637 -65.552109 -14.061646
-116.4001 -65.244957 -2.2170401
-110.26016 -65.33976 -2.466336
-103.34886 -65.375237 -2.592026
-102.30502 -65.388016 -2.5754621
-103.32471 -65.394493 -2.6243639
-114.52956 -65.341103 -7.0078778
-103.3522 -65.390907 -7.185647
-105.11606 -65.392616 -7.8513288
-103.79392 -65.269096 -7.924459
-103.79214 -65.277847 -8.0596962
-104.4351 -65.378235 -9.6140079
-106.71649 -65.301819 -11.408819
-117.05394 -65.127541 -2.1929729
-109.84128 -65.166222 -2.490829
-109.44225 -65.121628 -2.498781
-113.62061 -65.088707 -6.6887698
-108.67847 -65.072586 -7.9653578
-103.74686 -65.096825 -7.821445
-102.8782 -65.109123 -9.3281212
-101.91252 -65.110374 -9.4742165
-111.11805 -65.038696 -15.945423
-117.55573 -64.940002 -2.2197909
-107.54123 -64.912262 -2.5360661
-119.91171 -64.915588 -2.7285581
-110.36107 -64.83976 -2.612802
-105.24318 -64.944489 -6.1908498
-109.66175 -64.817497 -6.428606
-113.35117 -64.895226 -6.6871271
-114.33244 -64.920433 -6.8203068
-103.17241 -64.995819 -7.1947861
-105.38366 -64.841293 -11.344176
-103.53468 -64.962242 -14.670625
-105.83792 -64.998718 -14.961685
-103.50001 -64.81028 -14.870485
-103.6764 -64.657982 -3.051877
-103.56681 -64.6101 -3.085104
-113.75102 -64.686478 -6.0124879
-109.7422 -64.750137 -6.4211721
-114.42168 -64.770454 -6.7720618
-114.25568 -64.68132 -7.4565339
-101.82362 -64.611641 -7.5561161
-101.75119 -64.726578 -8.2817726
-100.38478 -64.70797 -9.8220406
-103.63661 -64.615562 -14.848085
-107.72185 -64.697655 -15.359131
-110.71468 -64.724564 -16.514029
-110.4165 -64.55732 -2.5973539
-103.46655 -64.504761 -2.7680199
-103.52611 -64.478928 -3.3018129
-103.59034 -64.484436 -7.17237
-102.59129 -64.489578 -8.0170956
-102.16537 -64.590218 -8.3079357
-102.42223 -64.406342 -8.9085131
-101.3595 -64.569763 -9.4336338
-102.39615 -64.55072 -9.7179413
-100.33882 -64.278076 -3.063796
-103.51509 -64.235352 -3.8643899
-103.57813 -64.311981 -5.156045
-113.25838 -64.30957 -5.941216
-103.56494 -64.278717 -6.4959078
-114.01924 -64.266281 -6.8934202
-103.04975 -64.287735 -7.3706522
-102.69575 -64.269958 -9.0105619
-108.44337 -64.365746 -15.747637
-108.12874 -64.098076 -3.3031039
-110.4474 -64.027069 -3.9474831
-103.59635 -64.180992 -4.6588068
-110.4185 -64.005951 -5.942759
-110.43813 -64.021706 -6.3211589
-103.69162 -64.032333 -6.7445521
-114.01921 -64.086998 -7.5981388
-107.6923 -64.12709 -9.9293041
-105.90361 -64.165932 -9.9114141
-103.98409 -64.046532 -9.8775654
-107.68602 -64.193527 -10.044887
-105.75746 -64.164894 -14.264481
-111.16788 -64.012047 -16.189577
-109.14302 -64.008163 -16.091274
-107.96341 -63.896835 -4.0638342
-110.40377 -63.960876 -4.9561968
-111.21031 -63.864983 -5.5760198
-110.43465 -63.96801 -5.5499458
-110.25549 -63.831928 -5.726553
-110.24516 -63.85231 -6.5136809
-102.4446 -63.886971 -7.5606961
-110.33622 -63.803528 -8.9550638
-103.93977 -63.803532 -9.8565941
-105.71146 -63.887001 -13.731353
-103.69576 -63.872734 -14.601578
-103.49052 -63.957718 -14.691046
-110.13206 -63.617725 -2.737642
-110.14676 -63.749603 -3.085357
-102.89452 -63.73246 -7.6625042
-101.80063 -63.78331 -7.607614
-101.50542 -63.705627 -7.654058
-101.93009 -63.738342 -8.2171726
-102.91097 -63.766655 -9.0132694
-112.79156 -63.763203 -9.3625202
-100.06325 -63.732491 -14.977758
-101.20283 -63.653168 -15.128738
-101.06486 -63.793163 -15.140819
-100.73228 -63.675911 -15.063552
-110.2175 -63.54879 -4.6664138
-110.25799 -63.494293 -7.0829558
-102.51534 -63.475151 -9.5932245
-110.32664 -63.50119 -10.659687
-103.04537 -63.585594 -11.033522
-111.8309 -63.3186 -5.4833918
-103.73456 -63.321404 -7.0843978
-102.1514 -63.288483 -8.9824305
-103.27774 -63.317841 -9.0937557
-105.93134 -63.385384 -9.5154972
-102.19895 -63.314331 -10.146431
-102.25658 -63.269993 -10.651261
-107.40498 -63.349693 -14.945412
-109.77681 -63.006401 -5.3878298
-102.88748 -63.084045 -8.2914419
-102.16311 -63.00906 -8.7719707
-106.87048 -63.139793 -9.2717762
-103.00972 -63.060272 -13.225545
-101.86808 -63.056644 -14.167784
-118.34604 -62.886379 -2.9219639
-102.63104 -62.825691 -6.9822931
-102.84679 -62.971336 -7.026299
-101.48514 -62.846668 -8.0288811
-102.67429 -62.994774 -8.9486599
-101.93193 -62.818604 -9.1257477
-102.53989 -62.957397 -9.3983364
-103.39044 -62.897545 -9.7030697
-108.02636 -62.963421 -13.783329
-117.59628 -62.664177 -2.878602
-106.9621 -62.775299 -4.7298622
-104.28709 -62.770302 -6.6189041
-102.51849 -62.783447 -6.9768529
-103.42041 -62.678219 -7.0756521
-103.68484 -62.607025 -7.7490702
-104.84206 -62.622513 -7.8389578
-119.68655 -62.788372 -8.0319843
-102.72009 -62.765526 -8.8379211
-101.82156 -62.683975 -9.3234644
-103.56905 -62.728008 -13.790114
-102.24285 -62.471428 -9.56668
-114.71074 -62.596848 -10.765965
-100.65314 -62.250618 -2.582768
-119.71719 -62.322338 -5.758502
-102.96283 -62.33305 -7.6597009
-102.15858 -62.233204 -9.6161919
-114.75755 -62.255928 -10.495604
-107.88258 -62.242828 -11.433464
-108.25342 -62.239807 -12.199347
-103.27631 -62.227722 -12.988517
-107.55259 -62.319107 -14.069399
-102.99237 -62.094059 -6.8796601
-102.97251 -62.114075 -7.8201442
-102.75041 -62.079216 -8.6265278
-102.96382 -62.174778 -10.068641
-109.40244 -62.046356 -11.65251
-103.06813 -61.800148 -8.1353388
-112.69537 -61.882652 -11.51753
-113.31343 -61.843983 -11.760985
-103.80115 -61.666664 -4.9851141
-103.1221 -61.748062 -7.4945788
-107.85637 -61.735638 -11.255707
-106.10735 -61.696617 -15.780731
-101.00314 -61.452564 -3.0464489
-100.13701 -61.498638 -3.1204751
-101.05799 -61.438095 -3.5420721
-101.39435 -61.411453 -3.729815
-119.01083 -61.53698 -5.8869619
-102.27106 -61.591827 -6.1735458
-106.5675 -61.428181 -6.219564
-104.85054 -61.45541 -6.2544589
-102.88075 -61.498322 -6.5300012
-102.89513 -61.586922 -7.6086621
-109.8302 -61.502995 -9.2198896
-113.66719 -61.503975 -11.427773
-113.17651 -61.467823 -12.916728
-104.10293 -61.415398 -14.150681
-103.76633 -61.351967 -2.7702031
-110.25124 -61.380077 -2.85285
-103.85274 -61.338264 -3.095948
-102.5434 -61.386925 -3.113019
-106.10931 -61.241096 -3.5473821
-104.55332 -61.28968 -3.550447
-106.2421 -61.246143 -3.651989
-104.134 -61.311356 -3.703804
-102.55328 -61.374001 -3.7455709
-103.81398 -61.315308 -4.0474072
-102.1681 -61.378487 -4.1552372
-106.41225 -61.203331 -4.341084
-104.87247 -61.268471 -4.2957931
-103.74795 -61.248398 -4.2327142
-101.85873 -61.399624 -4.2090068
-101.65556 -61.363152 -4.8359952
-118.50529 -61.256947 -5.0413842
-105.70555 -61.290749 -5.090971
-104.70364 -61.271378 -5.0394459
-103.73904 -61.275108 -5.5094309
-103.35016 -61.290634 -5.53163
-102.62802 -61.315369 -5.4437461
-101.34552 -61.376072 -5.445106
-100.63306 -61.379562 -6.0969319
-101.51333 -61.334023 -7.0801191
-101.09741 -61.351685 -7.1064191
-101.86924 -61.300507 -7.8221331
-100.99545 -61.321178 -7.9571128
-102.28878 -61.271984 -8.2246361
-102.24852 -61.244549 -8.8557911
-102.45261 -61.231781 -9.7177887
-104.25397 -61.238693 -13.956814
-112.84673 -61.227535 -14.053642
-104.21285 -61.38652 -14.261779
-104.57849 -61.342865 -14.746317
-106.13313 -61.099785 -4.579885
-105.89941 -61.190769 -5.7376132
-104.02489 -61.166504 -13.002378
-104.07582 -61.091606 -13.253996
-104.57835 -61.052715 -13.966599
-104.57116 -61.071228 -15.35274
-117.25211 -60.882164 -2.7526259
-119.01737 -60.97562 -7.6616869
-104.39891 -60.863411 -14.478539
-104.50363 -60.99659 -14.659721
-118.75594 -60.682877 -5.7617588
-110.52097 -60.779633 -13.278919
-112.86864 -60.727852 -13.587893
-118.8088 -60.598648 -6.0078268
-118.93716 -60.587177 -6.9515719
-104.53725 -60.525055 -14.499655
-103.2816 -60.418655 -15.048506
-119.09193 -60.346031 -7.9009762
-102.89429 -60.318989 -14.628658
-108.12212 -60.302502 -15.070133
-105.0874 -60.282249 -15.013082
-103.53922 -60.23185 -15.047419
-109.44856 -60.118477 -2.659049
-118.86993 -60.070599 -5.706502
-108.03946 -60.104088 -14.791372
-117.13826 -78.548798 -4.2724552
-117.04876 -78.30954 -9.5157223
-116.58667 -77.47683 -4.0889001
-116.7366 -77.4021 -5.1223612
-115.90878 -77.542358 -5.7046881
-116.93126 -76.977325 -5.6521769
-116.94502 -76.849472 -9.6691332
-116.78575 -76.710762 -4.119709
-116.80344 -76.628876 -4.604486
-116.78542 -76.740334 -5.1053891
-116.80668 -76.505119 -3.3293591
-116.59364 -76.581261 -3.7188389
-119.93515 -76.500397 -4.6843081
-116.78196 -76.213127 -2.981837
-111.49902 -76.202332 -3.9922531
-103.01191 -76.249947 -4.0519481
-103.05913 -76.20459 -4.924222
-116.74863 -76.347786 -7.171349
-116.0397 -76.194092 -2.990797
-110.67019 -76.012924 -3.2650859
-116.31947 -76.006348 -4.0452042
-116.16743 -76.031853 -4.0279441
-100.45555 -76.114166 -4.152019
-115.87042 -76.020599 -5.1717238
-107.23204 -76.046272 -5.3701148
-115.93198 -76.160049 -5.6067252
-115.82806 -76.051453 -7.0710931
-115.96968 -76.124107 -7.5151062
-100.99704 -75.807236 -2.7098949
-104.29304 -75.811661 -3.039202
-100.24046 -75.953156 -3.366081
-116.44806 -75.951469 -3.688262
-111.53354 -75.898125 -3.981539
-111.70245 -75.922615 -4.1384268
-100.68829 -75.935013 -4.1103048
-116.61665 -75.978409 -4.669632
-116.17686 -75.973366 -4.6685061
-115.83417 -75.990089 -6.1451139
-100.13914 -75.925514 -6.2962508
-101.3091 -75.866173 -6.4663749
-115.80328 -75.962646 -8.0248461
-116.23394 -75.848442 -9.5024853
-116.07307 -75.876961 -9.9591122
-116.76653 -75.785789 -2.627557
-101.0181 -75.640503 -2.6729779
-105.90514 -75.748077 -3.4183979
-104.52196 -75.686234 -3.9147561
-104.44489 -75.63063 -4.6754198
-104.19758 -75.734459 -4.9487848
-102.57086 -75.783272 -5.9423161
-106.13831 -75.649353 -6.103477
-104.50601 -75.713249 -6.05126
-102.10304 -75.731873 -6.2642288
-116.50702 -75.796715 -6.5683842
-106.57858 -75.659683 -6.476923
-105.70656 -75.662857 -6.5651879
-103.11583 -75.753471 -6.6013651
-105.34904 -75.65049 -6.832067
-102.172 -75.772385 -7.2675381
-100.85484 -75.636078 -9.6429958
-100.76096 -75.740768 -9.6684027
-102.22145 -75.653557 -10.366043
-100.97202 -75.731094 -10.219173
-100.55024 -75.744781 -10.541434
-102.47078 -75.635895 -10.668253
-108.14595 -75.677574 -12.594326
-105.83337 -75.464371 -2.793555
-100.2372 -75.409668 -3.7356939
-100.85034 -75.47908 -4.5207248
-116.11483 -75.451874 -4.9697189
-106.13608 -75.456665 -5.3166032
-102.59195 -75.505104 -5.75454
-116.51917 -75.42749 -6.571578
-106.19877 -75.48703 -7.7146101
-100.29647 -75.451202 -7.7971001
-102.13057 -75.500961 -8.6783857
-104.46964 -75.595657 -9.6528053
-107.17194 -75.485886 -10.291014
-116.48971 -75.536453 -10.740934
-105.05641 -75.324982 -2.824703
-116.75336 -75.299728 -3.2399089
-105.51514 -75.289925 -3.8727829
-104.36716 -75.372063 -3.8513989
-103.36581 -75.216629 -3.807642
-102.58096 -75.325432 -3.8437819
-106.1597 -75.311623 -4.1573739
-104.38529 -75.329727 -4.1120129
-106.1398 -75.374527 -4.5586529
-100.85151 -75.325584 -5.380836
-104.38268 -75.396179 -5.4164071
-116.75904 -75.369232 -5.9674382
-101.96704 -75.347733 -6.5700722
-103.86684 -75.228256 -8.9249678
-100.81998 -75.369431 -9.0807037
-105.56829 -75.206604 -9.6622009
-101.51487 -75.334076 -10.744993
-103.81602 -75.049026 -2.7914181
-106.11718 -75.08844 -3.7860119
-104.38915 -75.051819 -3.783771
-106.99601 -75.064423 -3.8033719
-106.68845 -75.058235 -3.807044
-104.43825 -75.028015 -3.884928
-106.14117 -75.149841 -5.3196301
-103.80531 -75.135895 -5.6913939
-100.89649 -75.115906 -5.8292689
-107.80849 -75.075302 -6.163938
-116.5835 -75.096848 -6.5750389
-107.80281 -75.042801 -6.9269519
-100.87338 -75.118362 -7.7616429
-104.34325 -75.042297 -7.9016089
-106.08906 -75.172585 -8.5948582
-104.32867 -75.031967 -8.7679157
-100.9025 -75.049744 -9.7426472
-116.67174 -75.159523 -10.405514
-103.96641 -75.024521 -10.763874
-102.58591 -75.160744 -10.763942
-101.63289 -75.102356 -10.734756
-107.76871 -74.871925 -2.7294021
-107.44501 -74.942848 -2.770864
-105.8728 -74.935883 -2.761646
-116.72971 -74.910156 -3.21434
-106.15958 -74.97216 -3.534508
-104.45787 -74.988434 -3.8782761
-104.44905 -74.992584 -4.5250511
-106.13409 -74.968475 -4.8850522
-107.78998 -74.889023 -5.3647609
-107.39711 -74.988861 -5.7304139
-116.85027 -74.951073 -5.9249759
-107.79691 -74.957512 -6.100028
-107.81026 -74.97493 -6.495204
-107.78065 -74.919098 -7.6508918
-104.321 -74.982605 -7.996963
-106.11842 -74.871613 -8.2482405
-106.02589 -74.828369 -9.7811089
-104.05148 -74.815979 -10.792952
-102.69397 -74.904633 -10.761477
-102.17106 -74.941437 -10.789845
-101.73441 -74.914185 -10.727754
-102.53035 -74.866821 -10.933536
-101.097 -74.953529 -12.772429
-103.19577 -74.735107 -2.801332
-116.92339 -74.711052 -3.9615769
-108.09772 -74.773003 -5.610414
-107.79442 -74.791931 -6.858182
-105.42175 -74.741615 -11.088324
-104.57895 -74.797737 -11.038089
-104.9483 -74.777328 -11.252699
-100.29494 -74.618561 -12.585271
-104.63261 -74.533661 -2.7502649
-101.01399 -74.548912 -2.696388
-115.66405 -74.422157 -8.5441818
-101.49229 -74.277588 -2.6559911
-116.24448 -74.387856 -4.5733008
-116.30875 -74.243294 -9.4243135
-116.20012 -74.217155 -10.732243
-115.62505 -74.316757 -10.696671
-100.29219 -74.199661 -2.605536
-116.67601 -74.117981 -5.494678
-101.09111 -74.134064 -11.486629
-116.42812 -73.9692 -2.6044991
-100.56419 -73.882843 -2.6733739
-116.04485 -73.914001 -3.551203
-116.45995 -73.835648 -3.940294
-108.11193 -73.809776 -6.7774582
-116.5816 -73.89019 -8.3936815
-109.41149 -73.881203 -9.2840118
-108.4983 -73.988953 -9.9484015
-108.97372 -73.911987 -12.439752
-102.72421 -73.680962 -2.7435391
-116.25914 -73.610443 -8.5544758
-108.55313 -73.604797 -9.2766914
-100.29377 -73.696411 -9.5962267
-116.64603 -73.505432 -3.4886751
-109.93602 -73.423012 -5.3896871
-116.51558 -73.474808 -5.436409
-116.30089 -73.567108 -5.473886
-108.01054 -73.550018 -5.48175
-108.22036 -73.426178 -7.091763
-105.1804 -73.510605 -9.3353205
-105.31937 -73.541344 -9.435235
-100.52515 -73.443497 -9.633852
-105.92673 -73.540321 -10.260351
-108.07871 -73.500481 -12.256633
-109.65559 -73.529823 -12.590895
-116.66188 -73.302795 -2.8848391
-100.35077 -73.301773 -7.9667482
-110.18694 -73.365562 -8.6693687
-107.47372 -73.225105 -9.2115707
-106.51231 -73.350761 -9.5722752
-110.1123 -73.341843 -9.7295275
-100.06264 -73.228241 -10.928867
-103.95295 -73.011185 -2.7132959
-103.38905 -73.051086 -2.7100191
-100.88885 -73.022064 -2.6643331
-108.22585 -73.094971 -6.788702
-109.8548 -73.193016 -9.6540051
-104.36414 -73.01355 -9.9301529
-107.59817 -73.048073 -12.027856
-108.10806 -73.19957 -12.435598
-101.45633 -72.919434 -2.7417891
-108.73956 -72.936646 -5.278265
-109.79556 -72.881584 -8.5578671
-113.41749 -72.696037 -8.1741743
-100.07066 -72.650955 -8.4476604
-111.21171 -72.660271 -10.248002
-113.73589 -72.708344 -10.450399
-101.08343 -72.520409 -2.7344
-108.27223 -72.591278 -6.7723541
-108.23628 -72.590462 -7.6071148
-100.31665 -72.589401 -8.4049854
-100.05394 -72.564186 -8.5517836
-101.24049 -72.416458 -9.7995167
-104.86875 -72.506058 -9.9445295
-100.19894 -72.533379 -10.544418
-100.0453 -72.409622 -10.814524
-113.00059 -72.486992 -11.005185
-108.68729 -72.315758 -6.0495
-108.31821 -72.394287 -6.747983
-107.52081 -72.276772 -8.2168007
-100.02913 -72.337448 -8.8574734
-101.60555 -72.398651 -10.15939
-100.96215 -72.231613 -11.026939
-107.44814 -72.292786 -12.853223
-101.56404 -72.152786 -2.6469359
-108.64984 -72.196747 -6.7517142
-109.77429 -72.070343 -6.8228192
-107.77664 -72.015137 -7.7562761
-108.3995 -72.030563 -8.2633772
-101.27524 -72.04966 -10.150654
-106.66795 -72.121124 -10.274185
-100.88119 -72.178749 -10.483501
-100.05704 -71.94635 -5.4285288
-113.75047 -71.880325 -7.0857911
-107.95181 -71.881073 -9.257349
-104.0075 -71.954422 -9.4357843
-109.78627 -71.987549 -13.275869
-105.90293 -71.607132 -2.634846
-112.62807 -71.666931 -8.7704592
-101.48644 -71.794312 -10.672925
-114.59861 -71.682648 -10.920635
-107.41518 -71.60125 -11.106112
-110.36826 -71.45977 -2.6750131
-107.59192 -71.598846 -3.6266029
-107.62254 -71.536736 -3.9908249
-107.62502 -71.506104 -4.3648081
-114.4834 -71.568527 -7.9448609
-115.55746 -71.400604 -8.9585733
-104.70782 -71.52861 -10.12332
-103.78386 -71.445999 -10.274662
-104.89709 -71.454666 -12.01278
-106.90645 -71.334396 -2.548692
-103.4778 -71.27607 -2.5414231
-101.46232 -71.386368 -2.529597
-115.30446 -71.236649 -4.6393471
-116.18363 -71.356873 -7.129375
-115.35175 -71.325348 -7.3569732
-107.41759 -71.262573 -11.846173
-101.41408 -71.144653 -2.522433
-107.65105 -71.011314 -5.3170409
-115.23405 -71.133095 -6.2830939
-107.46134 -71.144356 -6.6622272
-110.66087 -71.042763 -9.3798304
-107.48539 -71.005478 -10.37292
-104.20187 -71.027664 -11.781199
-115.23917 -70.829361 -3.375021
-115.25243 -70.945435 -5.0894408
-107.69768 -70.949402 -6.0932541
-103.64798 -70.85054 -8.214015
-115.42341 -70.985199 -8.9775753
-103.73132 -70.860847 -11.639622
-106.10379 -70.635857 -2.3921659
-102.99827 -70.631271 -2.339572
-102.08548 -70.75592 -2.3730769
-105.78754 -70.723358 -2.4166939
-105.53235 -70.671936 -2.4478359
-102.4601 -70.764427 -2.435823
-115.2636 -70.649803 -6.2118649
-115.15292 -70.686951 -6.2183819
-114.39069 -70.640785 -6.545526
-117.16353 -70.620857 -7.5192881
-105.41201 -70.547211 -2.3707869
-103.74657 -70.521629 -2.321193
-102.46552 -70.550621 -2.3342431
-100.03783 -70.525269 -6.013998
-114.73645 -70.509628 -7.4575448
-102.2168 -70.51767 -9.2998543
-106.47743 -70.538666 -11.85572
-104.94008 -70.577866 -11.856558
-119.71265 -70.22583 -2.180383
-119.54752 -70.22274 -2.215416
-116.18607 -70.304695 -5.3535361
-100.33681 -70.235382 -5.4763341
-115.73865 -70.251266 -5.6700168
-117.17841 -70.233765 -6.2032762
-117.20493 -70.385315 -6.4333539
-102.74213 -70.253372 -8.7602701
-106.70847 -70.108612 -2.31757
-113.65527 -70.066391 -7.1690331
-116.51943 -70.112396 -7.3782291
-116.49261 -70.124115 -7.6070752
-104.24585 -70.105156 -8.9773102
-103.31305 -70.127182 -8.819931
-101.70193 -70.062828 -9.8077354
-109.55701 -70.12281 -10.768726
-103.7057 -69.823418 -8.7871704
-115.01753 -69.827705 -8.9400396
-114.3427 -69.857178 -8.9623737
-103.42151 -69.852234 -8.8551645
-114.62752 -69.889481 -10.12153
-101.81313 -69.856247 -10.157307
-101.67978 -69.857483 -15.802582
-113.66451 -69.745682 -6.1368442
-116.36729 -69.642899 -7.023602
-102.66953 -69.749176 -7.4234638
-114.11052 -69.764252 -7.9244719
-103.63774 -69.735001 -8.8312511
-102.82696 -69.666832 -9.3312607
-110.1454 -69.621658 -9.9069824
-101.74094 -69.727669 -10.54668
-105.26332 -69.510406 -2.317889
-113.62128 -69.521431 -5.9509711
-113.62279 -69.553612 -6.1657948
-116.30993 -69.5317 -7.4993701
-113.92334 -69.514496 -7.7765779
-114.36552 -69.447006 -7.811728
-114.17543 -69.572296 -8.2267284
-102.7468 -69.570168 -9.2112179
-101.28291 -69.587158 -10.452795
-101.13094 -69.576111 -10.592774
-110.24545 -69.487473 -10.86873
-101.7868 -69.465988 -15.644373
-104.63373 -69.339371 -2.3248849
-103.36169 -69.397461 -2.296808
-103.02039 -69.309227 -2.2752981
-115.30751 -69.322182 -5.438273
-103.28404 -69.304291 -5.4650922
-115.80443 -69.299133 -7.9321618
-115.99298 -69.310349 -10.272799
-102.48726 -69.38028 -10.522142
-105.96387 -69.000557 -2.290385
-115.3657 -69.102715 -5.4223032
-101.45091 -69.091278 -7.1405058
-105.41714 -69.107567 -8.2766371
-115.40321 -69.038483 -8.7391396
-106.94958 -69.045502 -8.6050224
-102.59248 -69.11908 -10.529825
-112.54526 -69.001862 -13.713528
-105.05003 -68.890526 -2.302743
-104.27964 -68.96627 -2.332191
-103.08033 -68.950272 -2.3192649
-114.99898 -68.934219 -5.5343652
-116.79641 -68.977531 -6.549542
-102.92661 -68.952118 -6.923974
-102.31212 -68.843918 -7.7801738
-100.65244 -68.968498 -8.4851599
-115.46548 -68.85585 -9.2288179
-103.71175 -68.869934 -9.5134792
-114.88977 -68.94825 -11.423462
-102.53542 -68.630478 -2.327225
-102.14207 -68.67141 -6.2309232
-101.92448 -68.607132 -6.6342559
-102.52596 -68.782234 -6.8920498
-101.6795 -68.729134 -7.2374082
-105.93127 -68.733688 -9.0627432
-103.15507 -68.737549 -10.839044
-111.0705 -68.792328 -15.982275
-108.13832 -68.505592 -2.2657189
-101.95467 -68.449203 -2.2872341
-100.32652 -68.488075 -2.3822629
-101.71869 -68.563446 -6.023385
-101.52287 -68.405518 -6.0869088
-102.19328 -68.494766 -7.3074088
-102.81723 -68.548157 -8.011404
-106.02399 -68.482971 -9.091547
-105.89741 -68.474228 -9.7147141
-108.8897 -68.394783 -2.213428
-107.82036 -68.293045 -2.2656879
-103.99456 -68.347893 -2.309293
-101.51273 -68.32666 -5.8715968
-102.48287 -68.20472 -7.931757
-102.36828 -68.358047 -8.0880508
-100.99249 -68.254173 -9.4828339
-100.78676 -68.339165 -9.4769306
-105.97592 -68.354141 -9.7982635
-104.09383 -68.335388 -9.6698523
-111.7093 -68.335541 -11.854344
-108.35788 -68.035934 -2.2132771
-101.83337 -68.180161 -2.3164589
-101.35462 -68.152435 -2.3304291
-107.26872 -68.009666 -7.5255351
-101.27404 -68.114174 -9.5566502
-106.67825 -68.074509 -10.187037
-110.3456 -68.193672 -13.016399
-114.87396 -68.066803 -17.684917
-103.013 -67.842392 -2.313494
-105.79169 -67.88472 -9.1161814
-114.4491 -67.854034 -9.4045811
-107.27033 -67.808784 -9.5470285
-114.27744 -67.839737 -9.7796059
-107.52583 -67.834488 -10.348286
-105.99084 -67.930229 -10.585871
-100.91122 -67.680771 -6.6351061
-101.36188 -67.640167 -8.2452393
-104.18623 -67.637894 -9.5392895
-101.96612 -67.67849 -9.6822472
-106.62704 -67.713036 -10.124898
-101.0124 -67.425919 -6.4796209
-100.8811 -67.51487 -7.4555249
-100.95251 -67.484047 -7.7434788
-103.1063 -67.549156 -8.0072861
-102.57232 -67.569214 -8.0455532
-101.12653 -67.402 -8.1542292
-101.5791 -67.580597 -8.380229
-100.39986 -67.55336 -9.1668282
-100.29069 -67.552948 -9.2563133
-103.61787 -67.533257 -10.029995
-107.14534 -67.480698 -15.883898
-102.08965 -67.31395 -9.1944494
-104.59692 -67.310165 -10.130369
-106.77889 -67.381142 -10.862167
-111.19724 -67.334099 -12.805401
-110.23144 -67.144691 -8.1141376
-104.77938 -67.017487 -8.9525051
-103.04878 -67.136307 -9.2595854
-110.56768 -66.873634 -8.1569538
-113.79111 -66.805313 -8.7066336
-102.61753 -66.937904 -9.2783041
-111.59036 -66.876457 -14.540325
-104.35213 -66.910858 -15.931087
-106.82304 -66.770981 -2.189667
-102.54158 -66.685135 -2.2583239
-110.11609 -66.793182 -7.5544958
-106.55914 -66.729515 -10.811425
-111.19963 -66.605217 -15.4534
-106.14871 -66.658203 -15.778976
-113.9393 -66.504845 -7.707767
-105.86703 -66.538246 -9.0350952
-105.4325 -66.572372 -9.1167402
-102.25268 -66.42588 -10.132177
-111.28888 -66.493835 -15.448059
-109.79986 -66.405006 -15.827929
-101.49092 -66.347054 -2.280818
-111.07874 -66.356758 -9.1810246
-106.23498 -66.191452 -2.195102
-105.09233 -66.15538 -2.2323101
-103.93416 -66.041153 -2.2585089
-102.24944 -66.170647 -2.2668011
-101.71889 -66.158508 -2.2709091
-106.45636 -66.086044 -7.7014108
-110.16122 -66.035553 -8.8950882
-110.99464 -66.173531 -9.2186956
-109.2484 -66.095825 -14.434717
-110.79854 -65.823982 -2.2547979
-105.10739 -65.898895 -2.342756
-103.21564 -65.914726 -2.3669419
-101.91975 -65.863205 -2.3778391
-108.91192 -65.89431 -8.7811794
-103.72514 -65.851868 -8.7062454
-104.67329 -65.81501 -8.8502588
-110.29366 -65.995987 -9.7914619
-112.33887 -65.952171 -11.184992
-109.39604 -65.70192 -2.2989349
-107.35252 -65.779839 -2.344563
-104.20629 -65.605072 -2.4874129
-102.96697 -65.611198 -2.511502
-101.00977 -65.732162 -2.4170091
-113.99593 -65.767517 -7.4542499
-106.26411 -65.602242 -7.7527022
-106.21156 -65.781998 -8.1989269
-105.80397 -65.730965 -8.2991343
-100.90499 -65.620926 -9.2118797
-109.35381 -65.745026 -14.559879
-100.84297 -65.741623 -15.658797
-106.25032 -65.409485 -2.4695699
-102.88007 -65.49334 -2.581197
-100.00047 -65.410141 -5.8665662
-106.84554 -65.418877 -6.9849572
-106.56818 -65.547989 -7.6628551
-105.82626 -65.577866 -8.0137711
-100.02975 -65.537834 -8.5706635
-112.97598 -65.551079 -11.053694
-100.62817 -65.579834 -15.544961
-106.68542 -65.423904 -16.389385
-119.79465 -65.28392 -2.190958
-117.92929 -65.392609 -2.172205
-108.73929 -65.347511 -2.449821
-105.813 -65.38839 -2.497483
-101.52228 -65.29921 -2.577533
-114.03511 -65.338371 -7.792202
-117.782 -65.008591 -2.218843
-108.51077 -65.076035 -2.5050731
-103.21567 -65.090652 -7.226172
-104.97314 -65.195732 -7.4545798
-104.75545 -65.077873 -7.4200921
-114.09445 -65.067398 -7.8496709
-105.36485 -65.132469 -8.5608711
-113.7032 -65.081825 -9.6024628
-103.995 -65.07428 -10.093512
-101.8116 -65.133896 -10.937793
-116.54712 -64.82679 -2.1876631
-105.96037 -64.973152 -7.2248988
-101.71519 -64.889626 -7.7098222
-101.64093 -64.862381 -8.3116703
-101.56616 -64.910042 -8.2629051
-106.13218 -64.923157 -8.6769762
-100.9744 -64.862885 -9.8122129
-110.92477 -64.835205 -16.325527
-116.48805 -64.654205 -2.196393
-119.16926 -64.683678 -2.31056
-119.91119 -64.734917 -5.3287501
-101.88506 -64.661491 -7.6316109
-100.51177 -64.708923 -9.7538166
-107.55915 -64.712906 -15.411641
-110.67348 -64.712212 -16.232893
-109.85817 -64.613113 -16.222252
-109.47063 -64.753944 -16.304596
-109.93875 -64.55191 -2.6056941
-103.58284 -64.47493 -5.0596542
-103.69913 -64.551575 -5.3514571
-103.72491 -64.537888 -6.0520468
-103.7041 -64.542206 -7.0755348
-106.15239 -64.576981 -8.3802967
-103.54456 -64.281021 -4.2335019
-103.5827 -64.361038 -5.706913
-113.80046 -64.303986 -5.834126
-103.5857 -64.280502 -5.8328452
-103.59221 -64.304474 -7.1364522
-103.52462 -64.213394 -8.2678614
-110.46616 -64.23674 -8.912035
-103.17692 -64.351379 -13.346119
-116.26245 -64.192039 -2.153882
-110.50437 -64.078438 -3.093128
-110.27403 -64.050461 -3.0869789
-103.66009 -64.024773 -3.3962481
-103.64896 -64.020424 -3.4041359
-103.63242 -64.106522 -6.1798348
-103.65672 -64.097198 -7.0277672
-107.59007 -64.177612 -9.9108639
-113.00945 -64.108185 -12.244226
-110.11613 -63.844543 -2.762063
-107.97572 -63.981621 -3.1083839
-111.18463 -63.845749 -5.5606799
-110.19683 -63.867882 -5.5020332
-110.48131 -63.963974 -6.3670492
-103.98237 -63.944702 -7.9765272
-101.94584 -63.834309 -8.2091475
-103.71729 -63.812935 -13.301579
-113.37785 -63.899544 -14.214428
-108.04198 -63.725594 -4.0520482
-110.19559 -63.746693 -7.0492229
-103.52686 -63.767509 -8.5288334
-104.6647 -63.66127 -10.739814
-103.93318 -63.771706 -10.611136
-104.84547 -63.75613 -14.183603
-100.919 -63.656544 -14.560375
-110.17685 -63.494438 -5.4663868
-110.21281 -63.494995 -6.2953062
-110.16129 -63.597435 -6.417264
-110.26231 -63.509407 -7.2426381
-110.26245 -63.55526 -8.6658592
-102.54041 -63.468269 -9.6687946
-103.26986 -63.450981 -9.8938217
-111.08158 -63.438461 -13.688478
-102.28867 -63.410614 -14.414972
-100.31 -63.536392 -14.967929
-109.42975 -63.525238 -15.925192
-108.93323 -63.467735 -15.843882
-101.09769 -63.583927 -18.446442
-100.72353 -63.528961 -18.619488
-102.92752 -63.216328 -7.2677202
-101.76978 -63.331749 -8.170269
-102.9497 -63.391674 -9.0661659
-103.692 -63.281647 -14.319244
-107.12126 -63.002792 -5.2664852
-103.35834 -63.049225 -6.978559
-106.01887 -63.102081 -9.5423374
-103.10862 -63.108917 -9.6559334
-102.48083 -63.197464 -9.9602985
-114.57751 -63.088226 -10.816235
-103.04871 -63.041718 -10.947651
-112.66207 -63.028152 -12.791353
-108.07423 -63.153748 -14.320124
-101.31339 -63.041626 -14.20784
-110.59326 -63.156147 -15.913801
-109.41681 -63.091103 -15.89217
-104.73502 -62.916649 -7.8459558
-103.74274 -62.818916 -9.2145157
-101.95554 -62.939804 -10.179708
-102.8606 -62.877602 -10.366941
-113.17947 -62.990799 -10.681607
-103.22191 -62.685009 -6.4777861
-101.34506 -62.677391 -8.0324583
-105.89914 -62.621346 -9.5985107
-103.79636 -62.753761 -9.4777641
-103.24171 -62.645348 -10.475943
-113.78803 -62.601326 -11.628473
-101.53542 -62.619507 -14.355639
-109.33286 -62.777225 -15.599922
-109.47609 -62.753914 -15.63768
-117.46881 -62.536114 -2.85794
-119.60474 -62.45203 -6.0448861
-109.27132 -62.507309 -6.8792109
-102.66798 -62.415421 -7.4499402
-112.13599 -62.57333 -8.2020168
-103.11649 -62.527184 -8.9330292
-102.99495 -62.588188 -9.7088938
-103.13277 -62.571701 -12.994583
-108.15877 -62.517075 -14.269043
-103.31332 -62.377159 -7.0428162
-119.76849 -62.359791 -7.798768
-102.74622 -62.343357 -10.328072
-114.95001 -62.36639 -11.427777
-118.45448 -62.112015 -7.6577458
-107.94972 -62.168854 -8.9955692
-112.8614 -62.016972 -10.530166
-113.79053 -62.108898 -10.623359
-114.43451 -62.017239 -11.904666
-114.29034 -62.08712 -11.899168
-108.33591 -62.02573 -14.727467
-106.90468 -62.11623 -15.811507
-103.04967 -61.965347 -6.860477
-112.1274 -61.837437 -7.0502172
-108.8266 -61.983212 -8.2462711
-114.2739 -61.852455 -10.633737
-109.39279 -61.861202 -10.963825
-114.60464 -61.948387 -11.596939
-113.19441 -61.931591 -11.473814
-103.81932 -61.83884 -14.278968
-111.19843 -61.635994 -2.529274
-103.61602 -61.657536 -4.9433351
-103.16962 -61.700775 -4.980309
-105.32775 -61.605804 -5.0221548
-105.02563 -61.621349 -5.0280142
-103.90689 -61.691936 -5.0246959
-118.83252 -61.77594 -7.0309148
-113.38309 -61.622513 -11.483566
-103.76728 -61.768795 -13.494623
-107.81433 -61.797565 -14.197494
-106.17998 -61.668854 -15.088371
-108.13963 -61.716717 -15.438755
-106.03217 -61.602341 -15.429898
-108.08124 -61.723061 -15.801884
-101.42254 -61.445427 -3.0428791
-102.11382 -61.409523 -3.4899371
-100.88542 -61.413822 -4.7128978
-100.17132 -61.464306 -4.6820459
-104.88831 -61.481682 -4.976645
-119.08971 -61.540924 -5.048408
-105.35693 -61.486786 -5.050386
-106.18181 -61.443825 -6.1831498
-102.14365 -61.503361 -6.201654
-100.20283 -61.445919 -10.021935
-113.54396 -61.494671 -11.471313
-113.9296 -61.565113 -12.164953
-108.82884 -61.535023 -12.275015
-107.92987 -61.595596 -15.112071
-108.16693 -61.497185 -15.343554
-102.88277 -61.382496 -2.7936261
-105.35356 -61.282532 -2.9559331
-104.22139 -61.31839 -2.975539
-117.8204 -61.318027 -3.011301
-102.29615 -61.396172 -3.3575301
-103.8131 -61.316628 -3.547287
-102.34886 -61.390163 -3.5225689
-102.17867 -61.387184 -3.519671
-106.44711 -61.266624 -3.638104
-106.02022 -61.253807 -3.611994
-102.3078 -61.382118 -3.715261
-104.60081 -61.288368 -4.3217831
-103.26793 -61.257187 -4.2187972
-102.46835 -61.358459 -4.2245951
-104.57763 -61.270306 -4.5514722
-118.16553 -61.241127 -4.7394838
-102.23761 -61.374596 -4.7096272
-102.07876 -61.378624 -4.6463499
-102.41773 -61.399895 -4.922184
-100.7655 -61.315186 -5.0098119
-106.20056 -61.221928 -5.3590569
-105.64946 -61.21944 -5.7142229
-104.29973 -61.24128 -5.6688991
-106.28143 -61.207718 -5.9015841
-105.45928 -61.218361 -5.8054829
-118.75155 -61.369289 -6.6383829
-102.46814 -61.340393 -6.9281511
-101.97174 -61.214863 -6.8232932
-101.77441 -61.319939 -7.335196
-102.22171 -61.300205 -7.778739
-118.91898 -61.38604 -7.9674072
-100.64545 -61.31485 -7.9249172
-101.79816 -61.2533 -8.927454
-101.02364 -61.275589 -8.9167233
-100.98475 -61.268066 -9.3173428
-100.95419 -61.276299 -9.8831558
-101.42712 -61.37154 -10.064577
-101.24586 -61.268238 -10.001255
-112.68927 -61.344433 -13.18022
-108.56658 -61.269238 -13.146129
-106.18095 -61.357201 -14.726524
-108.25861 -61.335243 -15.119829
-102.88927 -61.194801 -4.8366818
-105.68288 -61.175224 -5.7856331
-105.92191 -61.168129 -5.8051381
-112.88523 -61.113609 -13.605553
-118.8616 -60.978542 -7.0527992
-119.79869 -60.893196 -8.6577806
-110.60372 -60.828518 -13.225291
-112.87712 -60.927563 -13.575623
-112.75433 -60.912651 -13.654602
-103.29833 -60.810497 -14.416947
-118.11271 -60.673615 -4.651072
-103.64777 -60.647736 -14.440564
-104.81247 -60.72908 -14.655449
-108.26945 -60.725742 -15.154713
-119.35495 -60.498371 -6.7975349
-108.3737 -60.48024 -15.621991
-110.45045 -60.302017 -2.700815
-118.83382 -60.386845 -7.5598302
-119.42026 -60.290779 -7.6067681
-101.84087 -60.030457 -14.737191
-116.90242 -78.614563 -3.026268
-116.86212 -78.707962 -6.1374249
-116.86017 -77.62587 -3.003546
-116.55978 -77.451248 -5.7049952
-116.83411 -77.229187 -2.7618129
-116.83762 -77.277817 -2.9954391
-116.80276 -77.299782 -4.7465472
-116.62704 -77.315376 -9.7189941
-116.50902 -77.272804 -10.732398
-116.82352 -77.028893 -2.747735
-116.82954 -77.007996 -3.791739
-116.79939 -77.182495 -4.082593
-116.80693 -77.162796 -4.6311259
-116.81181 -77.105156 -5.1094861
-116.8175 -76.839172 -3.0053079
-116.7923 -76.936356 -4.6523862
-116.50916 -76.617844 -6.6295829
-116.49374 -76.604546 -10.585658
-116.77614 -76.515945 -5.6401682
-116.15636 -76.489746 -7.5653501
-100.21664 -76.324631 -4.0575652
-103.30804 -76.242027 -4.8809881
-116.04042 -76.213669 -5.2194862
-100.03323 -76.002075 -3.0667529
-103.64496 -76.159653 -3.952467
-103.31729 -76.152878 -3.874495
-100.46696 -76.110207 -3.941756
-106.56912 -76.119247 -4.928288
-103.26694 -76.15229 -5.6461539
-103.02405 -76.184715 -5.6386681
-101.12051 -75.835609 -2.7292409
-100.46674 -75.916405 -2.6844189
-100.2322 -75.931084 -2.71486
-103.05838 -75.866035 -3.1013131
-102.5704 -75.881531 -3.1726
-100.28809 -75.98735 -3.115463
-102.56632 -75.876144 -3.3243589
-100.57137 -75.962242 -3.895237
-106.9523 -75.969002 -4.5821042
-100.67918 -75.928513 -4.5606189
-116.97453 -75.973831 -4.6587081
-116.71488 -75.819191 -5.1701598
-116.24539 -75.851295 -5.0353112
-116.12314 -75.996971 -5.4020038
-100.95859 -75.875267 -6.3314199
-115.82348 -75.976341 -6.5440059
-101.42646 -75.821724 -6.4805279
-100.53671 -75.90461 -6.4829049
-100.70654 -75.84996 -7.28373
-115.78429 -75.970772 -9.9051495
-101.6369 -75.778893 -2.7129519
-107.82527 -75.647232 -3.061645
-107.66737 -75.661072 -3.0739601
-107.51608 -75.669373 -3.0862429
-107.30069 -75.687729 -3.0751619
-105.4975 -75.758926 -3.07042
-105.10439 -75.759903 -3.0452571
-107.64751 -75.665817 -3.321979
-107.0703 -75.679787 -3.3227301
-107.68842 -75.613373 -4.0910101
-117.39714 -75.694443 -4.2035718
-104.27405 -75.786125 -4.6765089
-100.9077 -75.746765 -5.4868979
-102.04276 -75.734192 -5.6507549
-106.52725 -75.643524 -6.15204
-102.68034 -75.78154 -6.217051
-107.21828 -75.612778 -6.5338092
-104.56979 -75.710342 -6.518332
-103.78372 -75.74147 -6.500351
-106.20099 -75.629288 -6.8728008
-105.73373 -75.650505 -6.8422709
-103.92589 -75.734764 -6.962873
-101.2871 -75.79287 -7.1658401
-105.72466 -75.642578 -7.3543801
-102.67677 -75.726242 -7.297174
-101.51196 -75.654778 -7.276042
-101.30869 -75.763374 -7.2329521
-106.11075 -75.634583 -7.454546
-104.75873 -75.651672 -7.4860339
-104.29662 -75.671822 -7.4250398
-105.59079 -75.606476 -7.6285062
-100.29202 -75.693047 -8.3840675
-104.35149 -75.66954 -8.92626
-102.61819 -75.660995 -8.9241533
-116.67683 -75.754242 -10.025451
-100.20342 -75.754944 -10.166148
-101.6625 -75.680473 -10.279896
-101.21299 -75.714195 -10.342551
-102.216 -75.680023 -10.671815
-101.07313 -75.671638 -10.815088
-106.8428 -75.746155 -12.450542
-100.29813 -75.478943 -2.7274351
-107.77865 -75.540131 -4.138484
-100.84888 -75.416031 -4.6152568
-104.4282 -75.475327 -4.9464211
-107.17062 -75.581306 -6.7227311
-107.7596 -75.480042 -6.944634
-101.37733 -75.42926 -6.9958191
-107.76512 -75.505051 -7.7329478
-107.28561 -75.546417 -7.695992
-107.10571 -75.568382 -7.686831
-100.19719 -75.405945 -9.6648808
-107.54649 -75.470222 -10.333932
-106.5502 -75.467957 -10.67607
-100.85571 -75.334457 -2.724642
-100.53864 -75.33831 -3.7230129
-103.75625 -75.204292 -3.8004
-102.5914 -75.278885 -4.6410651
-101.86102 -75.366486 -6.353982
-107.81451 -75.318344 -6.5238218
-102.01913 -75.346077 -6.466496
-101.45928 -75.237442 -7.689868
-104.34383 -75.379066 -8.114049
-104.30087 -75.254379 -8.7375603
-103.85851 -75.298508 -8.7274027
-100.79659 -75.218468 -9.5499096
-105.92244 -75.199089 -2.7763441
-100.84499 -75.060776 -2.697387
-100.67175 -75.085403 -2.6993661
-116.73073 -75.017975 -3.075284
-102.75249 -75.17466 -3.295135
-101.02768 -75.180618 -3.3309939
-105.86616 -75.15155 -3.776756
-107.71799 -75.102928 -3.8243649
-104.34839 -75.076698 -3.8369961
-116.7363 -75.133102 -5.1212149
-107.10059 -75.013924 -5.716939
-106.77457 -75.050117 -5.7037511
-106.1364 -75.067978 -5.7077112
-102.53326 -75.113808 -5.7568822
-116.78195 -75.020134 -5.931458
-100.78056 -75.177544 -7.739841
-102.08644 -75.152023 -7.803771
-107.80142 -75.021469 -8.2748947
-107.57619 -75.165123 -8.5028954
-100.78961 -75.075897 -9.230299
-102.04493 -75.160095 -9.6980581
-107.61323 -75.160988 -10.836548
-100.39766 -74.916016 -2.709579
-106.16896 -74.93409 -4.58041
-108.09609 -74.812683 -5.3405199
-107.84308 -74.900787 -6.1393409
-107.7813 -74.853668 -6.308588
-107.7916 -74.925446 -7.2423539
-102.51883 -74.979752 -9.2409601
-107.75945 -74.855774 -10.149332
-103.41167 -74.882309 -10.74224
-104.1498 -74.812164 -10.981764
-103.35286 -74.821609 -10.941095
-101.4536 -74.932343 -11.069454
-116.70235 -74.615356 -2.574446
-107.81302 -74.751434 -9.4202271
-107.73676 -74.751099 -10.078539
-116.62856 -74.654953 -10.477278
-106.55514 -74.629929 -10.54167
-116.64299 -74.603264 -10.881952
-105.90804 -74.708611 -11.194915
-102.68495 -74.562752 -2.815835
-115.7576 -74.552124 -4.1169729
-116.04712 -74.583939 -4.8846221
-105.40388 -74.410355 -9.1385603
-106.26713 -74.371918 -2.6929481
-100.53099 -74.237221 -2.6849771
-116.23935 -74.392479 -5.0600371
-107.98799 -74.251984 -6.4466982
-108.89569 -74.321373 -10.220022
-108.16646 -74.044106 -5.3838291
-108.1148 -74.181335 -6.8652349
-108.57173 -74.158318 -8.8154488
-105.3912 -74.183701 -9.4540119
-116.6223 -74.109283 -9.9643631
-116.60454 -74.166306 -10.523662
-108.9229 -74.181129 -11.643501
-106.52439 -73.933853 -2.7582309
-116.3355 -73.819595 -2.8784649
-116.57401 -73.990685 -4.5024371
-116.31324 -73.809525 -5.4430709
-108.28821 -73.804207 -5.4635668
-105.31665 -73.866455 -9.0662975
-116.62237 -73.926666 -9.4454126
-101.30402 -73.818443 -11.326867
-101.17693 -73.909729 -11.435476
-101.03639 -73.649612 -2.6631989
-116.30726 -73.759705 -6.393908
-100.66306 -73.621483 -7.7361569
-110.01129 -73.660942 -8.9120293
-100.27442 -73.683838 -9.6087875
-108.22757 -73.50666 -2.6217301
-107.49461 -73.414497 -2.663764
-103.76147 -73.407005 -2.7086301
-116.63554 -73.446953 -4.5044951
-116.32406 -73.57296 -4.6423659
-116.65517 -73.464096 -4.837245
-110.04129 -73.543343 -5.3099532
-100.63213 -73.488831 -7.7008529
-116.25674 -73.541664 -9.4849005
-108.87526 -73.52845 -10.795115
-106.50572 -73.483673 -11.033503
-105.76769 -73.383698 -2.703078
-100.92384 -73.308617 -7.6927962
-100.29526 -73.266693 -8.1460962
-107.90834 -73.374756 -12.128981
-107.18435 -73.133217 -2.6548181
-102.91679 -73.053024 -2.71398
-100.62702 -73.025963 -2.692713
-116.67836 -73.060272 -3.8440499
-113.79842 -73.141724 -8.9052315
-110.8359 -73.10746 -9.7982635
-119.67206 -72.985878 -2.4032891
-108.91231 -72.901611 -6.0507979
-100.82228 -72.869911 -7.8675461
-100.0383 -72.964333 -8.6021652
-109.96372 -72.996124 -9.3550949
-113.85664 -72.805893 -9.9842081
-108.85146 -72.985703 -13.399115
-119.68037 -72.604553 -2.3600979
-109.29037 -72.676392 -6.0824242
-109.00671 -72.698792 -6.2410569
-113.92104 -72.78756 -9.3810253
-109.59904 -72.613785 -9.9820185
-100.17961 -72.742004 -9.9048977
-113.21034 -72.678421 -11.061741
-100.80074 -72.649094 -11.200853
-101.85947 -72.530624 -2.7152131
-119.62285 -72.451775 -6.4923658
-107.62242 -72.42012 -7.513741
-113.41087 -72.432144 -9.8994646
-100.19417 -72.483665 -10.342258
-106.68845 -72.568207 -12.031716
-100.53574 -72.378098 -8.4330893
-104.15456 -72.219604 -9.1398106
-104.81418 -72.311089 -9.9971561
-105.08443 -72.245895 -10.034498
-110.41977 -72.142502 -5.9911151
-112.18684 -72.185005 -7.9736571
-107.62004 -72.128548 -8.4962273
-104.21289 -72.064095 -10.837159
-115.2867 -72.029671 -11.179911
-111.46982 -72.099525 -11.54987
-108.70525 -71.909164 -6.752583
-100.96861 -71.902031 -10.587399
-100.50574 -71.952431 -10.873795
-102.90614 -71.683716 -2.6333351
-102.30632 -71.665909 -2.606355
-100.18598 -71.707077 -5.7239118
-114.0885 -71.641724 -7.9434762
-108.09201 -71.705406 -9.2627974
-103.86714 -71.725357 -9.8263664
-104.02092 -71.484528 -2.5873821
-102.65876 -71.420876 -2.560858
-106.22021 -71.475266 -2.6075621
-115.28162 -71.542313 -2.846416
-107.4542 -71.402367 -3.1098599
-107.63985 -71.497589 -4.671968
-107.56989 -71.409088 -5.0512338
-107.87013 -71.462517 -8.0962067
-105.01746 -71.533005 -11.346062
-114.88411 -71.327278 -2.5108359
-115.15887 -71.296883 -3.391232
-115.19032 -71.217514 -3.727309
-115.28484 -71.290268 -3.8606279
-107.54695 -71.289841 -7.1006222
-113.60472 -71.294518 -8.7978849
-107.4903 -71.241074 -9.751874
-113.79974 -71.387527 -10.802171
-102.23804 -71.023254 -2.4478519
-107.68225 -71.041367 -3.565665
-115.21548 -71.081856 -4.3253951
-107.62367 -71.047775 -5.0298209
-100.32991 -71.137535 -5.5436292
-107.51876 -71.129028 -5.8364029
-107.62236 -71.020592 -6.6196942
-109.87109 -71.059097 -7.0968819
-107.49382 -71.116684 -8.7305946
-114.70107 -71.070236 -8.8297052
-113.66772 -71.185089 -8.8484068
-107.5144 -71.009155 -9.676897
-107.43873 -71.06115 -11.122787
-119.39069 -70.939964 -2.243351
-114.94611 -70.945801 -2.473115
-107.11723 -70.918793 -2.51162
-104.99165 -70.986099 -2.4750991
-104.51009 -70.873093 -2.4286029
-101.79124 -70.988487 -2.4480741
-115.20219 -70.884041 -3.8821909
-115.17796 -70.950592 -4.7316618
-115.02041 -70.886948 -6.553853
-103.82896 -70.969925 -6.9987998
-107.6537 -70.93396 -7.3634148
-114.86147 -70.989067 -7.4401212
-107.528 -70.994431 -8.1428928
-103.54717 -70.855148 -8.2341852
-108.35908 -70.809502 -8.9865122
-115.43835 -70.967133 -9.8882599
-115.62716 -70.600471 -2.3976021
-115.33618 -70.632584 -6.4362998
-115.01385 -70.61586 -7.276968
-111.36234 -70.732674 -9.5246811
-110.82397 -70.659973 -10.17473
-115.31134 -70.735535 -11.075191
-116.20537 -70.459038 -2.353457
-104.07431 -70.431427 -2.3061371
-100.21371 -70.476479 -2.3042829
-115.99979 -70.43306 -5.5554008
-114.51278 -70.505196 -6.5390978
-103.54199 -70.526489 -7.058639
-114.65993 -70.575272 -7.8511591
-101.69855 -70.477203 -9.2798719
-110.69582 -70.453781 -10.173618
-117.34454 -70.243431 -2.288342
-108.95747 -70.236031 -2.3571529
-106.22063 -70.261147 -2.3366139
-116.13751 -70.249214 -5.14959
-100.08566 -70.300522 -5.8790488
-103.33247 -70.290649 -7.5244169
-116.33116 -70.210785 -7.6013312
-103.75005 -70.346466 -7.663661
-103.40837 -70.238953 -8.1859035
-102.6441 -70.237602 -8.8310118
-104.58966 -70.24678 -9.0550795
-101.88538 -70.254395 -11.114044
-108.90434 -70.284683 -11.451964
-101.49499 -70.255486 -15.953444
-101.73948 -70.335037 -16.00016
-117.31783 -70.174347 -7.2574568
-102.98716 -70.097961 -7.8111868
-103.31348 -70.074036 -8.7487583
-102.23667 -70.157135 -9.2651081
-110.3634 -70.05085 -10.086304
-102.12549 -70.070511 -15.989225
-106.66006 -69.846649 -2.3007641
-104.5155 -69.856216 -2.293874
-102.80668 -69.826111 -7.4589648
-103.09599 -69.832031 -8.8544226
-102.78561 -69.929695 -8.9054441
-111.01979 -69.842789 -9.5588627
-109.93787 -69.958733 -10.838224
-101.35927 -69.986374 -15.705436
-110.27623 -69.750679 -2.247268
-103.81966 -69.727615 -2.2846739
-103.485 -69.691879 -2.2807231
-115.72309 -69.77739 -5.1337471
-115.89128 -69.792282 -5.6354508
-102.87916 -69.753967 -8.0919628
-104.49638 -69.75634 -9.7174149
-101.07611 -69.708534 -10.250099
-115.72307 -69.63166 -10.685692
-106.85882 -69.5494 -2.289088
-106.1959 -69.471344 -2.292835
-115.33286 -69.486763 -5.494401
-115.05237 -69.434174 -5.4286928
-116.73875 -69.557648 -6.5920548
-114.25322 -69.407272 -7.1522412
-116.02753 -69.569153 -8.0922184
-103.16175 -69.55735 -8.9416513
-102.5631 -69.436096 -10.083353
-102.08809 -69.464005 -10.539574
-101.90675 -69.501175 -10.52005
-104.11451 -69.304512 -2.3330619
-102.12942 -69.397949 -2.339015
-103.15357 -69.278549 -5.7445688
-102.8649 -69.246223 -6.2076421
-116.14258 -69.359138 -6.9615788
-116.644 -69.380272 -7.263288
-102.9039 -69.388374 -10.062655
-109.71506 -69.323456 -10.753353
-109.55576 -69.303291 -10.890327
-108.99348 -69.040726 -2.262033
-103.65968 -69.13826 -2.3397789
-102.08376 -69.077164 -5.594491
-103.44441 -69.139633 -5.6136842
-102.68039 -69.107071 -6.6516061
-101.90567 -69.00676 -6.850975
-105.18539 -69.175545 -7.9089541
-115.47854 -69.151657 -8.2269039
-102.12187 -69.124596 -8.53755
-101.86888 -69.026108 -8.5175209
-102.96198 -69.191216 -9.518116
-103.0685 -69.047302 -9.9264927
-109.59549 -69.091782 -10.863406
-109.78989 -68.904617 -2.204715
-115.00307 -68.998718 -5.5133901
-102.40111 -68.976692 -6.2771068
-103.77077 -68.921707 -6.562829
-102.42912 -68.869072 -7.62818
-100.62936 -68.817894 -8.6593475
-100.85859 -68.92984 -8.8433456
-103.79379 -68.912987 -10.347964
-100.6216 -68.677071 -2.3308499
-114.90055 -68.77375 -5.5172582
-104.28008 -68.624832 -6.8451462
-101.51993 -68.794266 -7.0882978
-103.40403 -68.600037 -7.3836432
-100.71332 -68.749763 -7.6774831
-102.60982 -68.641357 -7.88098
-100.33283 -68.784737 -8.3048325
-100.39203 -68.737717 -8.446167
-115.00685 -68.636719 -9.8782368
-103.48093 -68.752815 -10.648061
-109.44334 -68.729118 -11.378561
-102.15942 -68.56694 -6.5083561
-105.66174 -68.545181 -8.6083546
-101.23891 -68.546349 -9.4373989
-102.59143 -68.467964 -11.237715
-103.04574 -68.209702 -2.3415699
-102.0735 -68.31913 -6.9774342
-102.42431 -68.383018 -7.3038392
-102.14279 -68.347061 -7.3583088
-106.94646 -68.096893 -8.0445528
-106.23457 -68.138985 -9.8299484
-107.14618 -67.986671 -7.8517699
-105.29011 -67.811317 -8.3344631
-106.43307 -67.900909 -9.9162903
-100.12216 -67.825516 -9.8614063
-111.75441 -67.816208 -11.924843
-100.92903 -67.642349 -6.9722719
-106.25233 -67.618294 -11.374217
-115.56575 -67.770531 -11.760042
