# .PCD v0.7 - Point Cloud Data file format
VERSION 0.7
FIELDS x y z
SIZE 4 4 4
TYPE F F F
COUNT 1 1 1
WIDTH 1470
HEIGHT 1
VIEWPOINT 0 0 0 1 0 0 0
POINTS 1470
DATA ascii
-111.09013 -110.60568 -3.052763
-110.10116 -110.63815 -3.0582509
-116.65955 -110.65669 -3.5564339
-116.65906 -110.64109 -4.4774842
-116.63203 -110.70245 -5.3757091
-119.04962 -110.63346 -7.3051701
-119.03782 -110.63621 -8.248498
-102.49146 -110.5677 -2.9531131
-117.91142 -110.43531 -5.3926291
-119.04485 -110.59784 -6.342854
-117.85035 -110.45248 -6.294827
-117.99976 -110.44527 -7.1987228
-117.84002 -110.42736 -7.2423029
-117.88777 -110.4682 -8.173624
-119.04806 -110.57758 -9.1823568
-119.03836 -110.55168 -10.166124
-119.02177 -110.57655 -11.131271
-118.99334 -110.53008 -12.102476
-103.1827 -110.23026 -2.9306941
-110.96684 -110.33276 -3.0389571
-117.92551 -110.23876 -3.501987
-117.91501 -110.29716 -4.431282
-117.90546 -110.25824 -5.3517671
-117.82732 -110.28134 -6.2813659
-117.81706 -110.24916 -7.2282691
-117.82069 -110.30005 -8.1209307
-117.83822 -110.20557 -9.0596714
-117.82384 -110.29993 -9.9706249
-117.76962 -110.31123 -11.902645
-118.10025 -110.14855 -4.4452529
-118.27046 -110.0118 -5.3639541
-118.06631 -110.0288 -6.2700419
-117.85895 -110.17194 -7.1706691
-117.79498 -110.19131 -10.922642
-117.7897 -110.19368 -11.872082
-117.7533 -110.14423 -12.786074
-117.75121 -110.10863 -13.767466
-117.74234 -110.15189 -14.743258
-103.03286 -109.86429 -2.912365
-118.33566 -109.9944 -5.3068061
-118.08698 -109.84667 -8.1178703
-118.05194 -109.82769 -11.90169
-117.91496 -109.96841 -11.852571
-118.04168 -109.81513 -12.855915
-117.97995 -109.87495 -13.828712
-117.91222 -109.83292 -14.751949
-110.61026 -109.77579 -3.016448
-117.90338 -109.75497 -3.463923
-118.08357 -109.74538 -6.263494
-118.0611 -109.66791 -7.1548381
-118.07546 -109.75722 -9.052187
-118.02718 -109.79442 -9.960928
-106.67001 -109.6704 -9.9349689
-107.03365 -109.74647 -10.015055
-118.05665 -109.72249 -10.929819
-117.24776 -109.60546 -10.828318
-118.03784 -109.66484 -13.802364
-102.86938 -109.43251 -2.888463
-110.35478 -109.40686 -3.00208
-118.0732 -109.40814 -8.0792389
-117.21408 -109.58586 -8.0039349
-117.1504 -109.59807 -8.0549679
-117.17444 -109.52226 -8.9446011
-117.16606 -109.50447 -9.8602791
-117.14557 -109.48409 -10.752387
-117.11332 -109.48588 -11.717537
-118.05852 -109.46852 -12.85414
-118.0242 -109.45883 -13.761023
-117.87598 -109.38266 -3.4347119
-118.06896 -109.3544 -6.219666
-118.04843 -109.30533 -7.1384678
-118.38987 -109.31673 -9.0806198
-118.04735 -109.27208 -9.9812851
-106.61264 -109.36627 -9.8765373
-106.45399 -109.20934 -9.8147793
-105.31111 -109.22977 -10.311163
-118.04022 -109.26541 -10.923417
-105.94284 -109.21359 -11.761793
-106.9425 -109.29713 -12.054123
-118.05479 -109.39297 -12.79717
-117.70573 -109.36363 -13.735783
-117.58427 -109.3069 -13.654822
-117.8562 -109.37138 -14.722775
-110.12 -109.07381 -2.9889059
-102.52563 -109.01598 -2.8800631
-117.84942 -109.04591 -3.408273
-118.3671 -109.06068 -9.0332909
-118.04237 -109.07697 -9.9676065
-106.50162 -109.09566 -9.8439293
-118.03684 -109.07391 -10.883961
-105.95376 -109.08853 -11.801211
-117.59502 -109.14986 -13.698153
-109.9977 -108.95304 -2.9863069
-118.05821 -108.99762 -6.1925149
-118.03679 -108.90308 -7.1083798
-118.05077 -108.99866 -8.0545254
-106.53983 -108.96142 -9.8819656
-106.3597 -108.86312 -9.8451881
-105.41377 -108.95468 -10.317251
-106.17365 -108.89827 -11.835705
-118.33432 -108.93893 -12.84937
-117.85988 -108.99252 -14.701202
-109.7355 -108.63407 -2.9753261
-117.8127 -108.79573 -3.3568251
-117.78981 -108.66571 -3.379241
-118.31102 -108.74966 -4.295826
-118.26677 -108.67044 -5.2322521
-106.67463 -108.69205 -6.4386659
-118.36081 -108.61752 -8.9962626
-118.03222 -108.64455 -9.9376326
-105.65502 -108.61464 -10.341301
-118.02896 -108.61159 -10.847484
-106.07162 -108.71039 -11.086514
-104.87467 -108.6181 -11.514501
-104.72052 -108.65353 -11.446119
-100.29242 -108.50452 -2.892663
-117.8812 -108.54084 -4.2855239
-117.8471 -108.47472 -5.244978
-107.79014 -108.44547 -5.8615408
-118.04716 -108.55885 -6.1524229
-118.02318 -108.52415 -7.0799298
-118.02058 -108.58278 -8.051405
-106.57169 -108.59949 -9.1225214
-106.17374 -108.58413 -9.7789202
-105.9223 -108.55915 -9.7241192
-105.68806 -108.52761 -10.326862
-105.95384 -108.54965 -11.076231
-118.30885 -108.51398 -12.818481
-117.66477 -108.47904 -13.62389
-117.53997 -108.59082 -13.652477
-109.46162 -108.30187 -2.9634991
-117.80357 -108.32554 -3.384012
-117.82623 -108.23137 -4.261251
-117.85788 -108.35596 -5.1589789
-107.38077 -108.34608 -5.7639542
-105.85862 -108.33408 -5.792942
-105.27953 -108.34653 -5.7110291
-107.14001 -108.36243 -5.8350539
-106.27347 -108.24356 -7.0840249
-100.07491 -108.29169 -8.7053833
-105.86263 -108.20137 -9.6953115
-106.30556 -108.32706 -9.8048134
-105.85602 -108.34804 -10.370046
-104.17844 -108.25358 -10.645914
-104.85316 -108.26705 -11.46204
-116.55991 -108.11989 -3.355716
-116.55611 -108.10733 -4.2425318
-116.55446 -108.07687 -5.118782
-117.81513 -108.14865 -5.2198238
-105.06571 -108.15772 -5.7287102
-118.04005 -108.17758 -6.1233091
-118.0228 -108.1068 -7.9482241
-107.7587 -108.14892 -8.5671635
-118.32899 -108.14361 -8.9720755
-106.44501 -108.09477 -9.1335068
-105.02502 -108.03891 -9.5692844
-106.08515 -108.142 -10.430035
-104.13514 -108.19269 -10.659465
-106.19706 -108.09705 -11.078203
-104.28763 -108.13245 -11.351661
-117.73667 -108.12676 -13.619835
-117.92392 -108.05508 -14.640201
-101.34001 -107.97352 -2.8808689
-101.0522 -107.8776 -2.895381
-116.55431 -107.99828 -3.3357339
-116.56413 -107.93768 -4.2319398
-116.55699 -107.88515 -5.173439
-118.02317 -107.84285 -6.104054
-117.09518 -107.9053 -7.932528
-117.10059 -107.92811 -8.7881021
-100.04738 -107.88651 -8.6290512
-117.08305 -107.96913 -8.8287573
-105.42075 -107.91931 -10.272149
-103.91959 -107.86155 -10.60567
-101.37362 -107.96072 -10.646904
-109.00775 -107.77814 -2.9451561
-107.52715 -107.71655 -2.950104
-117.59464 -107.7403 -3.3440499
-116.98759 -107.70953 -3.277992
-118.0947 -107.66977 -5.0911322
-118.01032 -107.77068 -6.9872799
-118.00847 -107.62618 -7.9009809
-105.75414 -107.8 -9.6550312
-104.49965 -107.76585 -10.075027
-104.11533 -107.73351 -11.261357
-108.62914 -107.52304 -2.945442
-102.5351 -107.45263 -2.983943
-117.54726 -107.48899 -3.3249791
-118.07848 -107.43961 -4.1948118
-118.05971 -107.43163 -5.126174
-100.53523 -107.41101 -9.7652874
-104.29227 -107.48744 -9.9964771
-104.37534 -107.40627 -10.05991
-100.48082 -107.40678 -10.25942
-100.56625 -107.42353 -10.402809
-117.95831 -107.41892 -13.65947
-108.29412 -107.33178 -2.9485061
-107.77989 -107.23791 -2.971221
-100.51916 -107.36488 -2.992171
-101.27254 -107.30537 -3.044858
-101.01813 -107.2478 -3.053834
-100.3026 -107.33123 -3.0027571
-117.74291 -107.26578 -3.2988319
-116.95316 -107.34206 -3.2625749
-100.9407 -107.23189 -3.327513
-105.4561 -107.39466 -9.550169
-107.38532 -107.1781 -2.989702
-106.98804 -107.05586 -3.002445
-106.19357 -107.01761 -3.0469961
-104.91264 -107.06239 -3.1286409
-104.52917 -107.12049 -3.0939569
-103.96123 -107.11966 -3.1274281
-117.65656 -107.07569 -3.2861421
-116.91846 -107.01717 -3.218442
-102.56158 -107.1588 -3.279382
-102.14627 -107.17284 -3.305649
-101.71176 -107.19352 -3.333684
-101.37693 -107.19491 -3.3538511
-100.61902 -107.09659 -3.422214
-100.15356 -107.07874 -3.4152551
-118.08437 -107.03941 -4.1514111
-100.7449 -107.0696 -4.957911
-118.04895 -107.04685 -5.095366
-101.76098 -107.15246 -5.0116868
-106.45674 -107.04555 -5.618145
-117.96181 -107.02896 -7.9088292
-100.66455 -107.16732 -9.7234993
-106.01102 -107.19265 -11.699494
-117.95695 -107.19392 -13.603127
-116.24385 -106.86673 -3.213433
-103.4302 -106.97529 -3.35203
-100.90032 -106.80299 -3.57533
-116.93523 -106.63818 -3.1999221
-117.42867 -106.63395 -3.2573371
-112.80006 -106.69988 -3.3257599
-111.2814 -106.72874 -3.498698
-117.15494 -106.63025 -4.0938969
-105.97961 -106.61314 -7.3978062
-115.73486 -106.51164 -3.2333081
-111.18318 -106.59585 -3.4907291
-110.582 -106.55814 -3.5100329
-110.2374 -106.52767 -3.5202839
-109.5634 -106.50317 -3.543391
-106.65063 -106.50295 -3.5491819
-117.10762 -106.59659 -4.180697
-117.12875 -106.56853 -5.0424271
-117.43531 -106.30613 -3.228971
-115.01109 -106.36743 -3.2470369
-118.04707 -106.24393 -4.0924301
-106.21778 -106.36133 -4.3207788
-117.785 -106.20049 -7.7832961
-109.28362 -106.14875 -3.5220649
-108.97162 -106.17955 -3.536433
-106.231 -106.07417 -3.628324
-103.43047 -106.06866 -3.6199701
-102.34946 -106.13895 -4.8215861
-106.09385 -105.94115 -3.621027
-103.78877 -105.89971 -3.6101129
-103.07889 -105.98573 -3.6437061
-118.0294 -105.88082 -4.0788879
-111.67051 -105.81078 -4.0820608
-102.26649 -105.9447 -5.2210479
-117.633 -105.7605 -7.7408009
-106.47702 -105.56245 -4.2049012
-106.52138 -105.57395 -4.8124938
-106.29529 -105.22342 -4.582942
-106.14722 -105.16869 -11.534992
-117.99438 -104.86403 -3.9092929
-105.7228 -103.32866 -4.4084702
-116.93208 -100.5872 -4.2335658
-102.71959 -113.08777 -4.9838881
-103.33618 -112.84459 -4.3115611
-102.97476 -112.81488 -4.9383841
-102.74966 -112.9874 -5.6567731
-101.77662 -112.97204 -5.709867
-102.76227 -112.97059 -6.1039162
-101.78638 -112.9461 -6.0709562
-100.66233 -112.90546 -6.5828671
-102.8213 -112.82881 -6.6198559
-100.25847 -112.86874 -7.562253
-101.36485 -112.81462 -8.2167435
-108.46983 -112.62207 -3.357439
-104.21895 -112.75363 -3.6858821
-107.01438 -112.67285 -4.1176081
-106.04475 -112.71672 -4.1579981
-105.94237 -112.73055 -4.1710529
-105.01759 -112.75338 -4.2698102
-103.8875 -112.69572 -4.4426808
-104.94602 -112.62325 -4.8692589
-107.04193 -112.64059 -5.498641
-106.90343 -112.61293 -6.1345692
-106.63668 -112.60308 -6.8055992
-104.13085 -112.65611 -8.5160341
-103.8327 -112.68573 -8.493432
-100.72687 -112.79578 -8.6077423
-102.28458 -112.70948 -8.8387775
-108.93434 -112.59928 -4.032619
-108.49593 -112.58563 -4.7531991
-106.59071 -112.54909 -4.7878728
-107.4234 -112.52708 -4.8307629
-102.85455 -112.51315 -5.4469352
-107.34969 -112.59437 -6.1498308
-110.14214 -112.47139 -6.9593792
-108.46072 -112.48933 -7.5964208
-106.63895 -112.58954 -7.4752378
-106.34061 -112.59534 -7.4553108
-110.26279 -112.38341 -6.9596152
-113.84062 -112.24815 -7.958632
-112.96364 -112.30022 -7.900239
-112.59557 -112.31287 -7.866282
-112.56421 -112.2883 -8.6942997
-110.75852 -112.15764 -3.156708
-100.97054 -112.03458 -3.76983
-119.49307 -112.14929 -5.4574242
-113.2427 -112.14779 -5.4592109
-109.36815 -112.19248 -6.174397
-112.57267 -112.12513 -7.0542679
-116.23657 -112.13492 -8.126379
-114.48042 -112.19326 -8.0123959
-109.45638 -112.10745 -9.1135082
-109.06142 -112.12432 -9.077301
-112.79431 -111.82707 -3.849844
-119.50336 -111.86779 -6.3964529
-114.57919 -111.98344 -6.3313208
-117.52843 -111.84959 -9.1193047
-110.7393 -111.78733 -3.892858
-103.04292 -111.43799 -3.0767839
-100.66245 -111.49421 -3.2834351
-100.33691 -111.53944 -3.2553549
-103.82076 -111.22091 -3.0177591
-110.72298 -111.23737 -3.856606
-118.41669 -111.29562 -7.2702651
-103.03555 -111.00508 -2.9461911
-112.98803 -111.04927 -3.762023
-111.12501 -110.85714 -3.05739
-116.659 -110.85939 -3.5892379
-116.6456 -110.84853 -4.4899158
-103.4233 -110.60013 -2.9504769
-102.88039 -110.66946 -2.9293411
-117.92604 -110.44454 -4.416853
-103.14031 -110.25308 -2.9643109
-110.91779 -110.20899 -3.032057
-118.04286 -110.02245 -7.1838269
-117.80544 -110.19492 -9.0430603
-109.39256 -109.86609 -3.019938
-117.91995 -109.95837 -10.899119
-117.88462 -109.93591 -13.791542
-117.23564 -109.60967 -9.8494167
-106.66046 -109.66801 -9.9448128
-109.95603 -109.42361 -3.0362189
-109.33614 -109.51482 -3.007587
-106.33735 -109.21611 -10.474886
-117.70596 -109.31057 -13.688627
-118.06255 -109.08178 -8.0490475
-105.97051 -109.05016 -11.812123
-117.59456 -109.15916 -13.669715
-118.30368 -108.87608 -4.344523
-108.57254 -108.71896 -2.9819019
-118.00601 -108.6284 -11.782236
-107.4727 -108.51457 -5.7668438
-105.2187 -108.50197 -5.7213359
-105.03948 -108.57142 -5.6945992
-107.73897 -108.4331 -7.1625409
-105.69643 -108.51617 -10.340612
-105.95573 -108.54197 -11.076
-104.86237 -108.58839 -11.502178
-108.14275 -108.30261 -2.9690621
-116.57514 -108.28137 -3.3286819
-117.85033 -108.25806 -4.2732601
-106.28682 -108.31003 -9.7972536
-116.55775 -108.12871 -3.4075489
-117.99352 -108.10906 -10.842086
-104.30229 -108.10526 -11.352231
-109.36755 -107.8264 -2.958492
-107.07245 -107.94026 -2.962888
-118.02142 -107.86372 -7.0125842
-100.04986 -107.93103 -8.6702461
-105.77915 -107.85665 -10.306934
-100.91305 -107.89739 -10.521237
-117.62752 -107.77537 -3.3241839
-117.46594 -107.75242 -3.344337
-117.99591 -107.67635 -7.053328
-100.55968 -107.6487 -9.8450346
-103.92822 -107.76576 -10.598619
-100.77036 -107.79462 -10.461706
-117.96671 -107.6053 -13.641859
-117.45969 -107.46547 -3.3230159
-118.42474 -107.42703 -6.1169329
-105.86853 -107.53995 -9.6567402
-100.86381 -107.55006 -10.476831
-117.95673 -107.41935 -12.64428
-117.68204 -107.35898 -3.2993951
-117.98985 -107.32012 -6.9964032
-117.68143 -107.08464 -3.2734261
-100.1679 -107.00253 -4.9854512
-107.49867 -107.09046 -5.1025748
-100.66762 -107.15539 -5.985044
-117.96376 -107.10337 -10.712591
-105.08338 -107.06834 -10.79645
-116.74167 -106.89721 -3.197638
-104.92852 -106.98073 -10.098004
-107.91614 -106.79477 -3.513592
-103.02855 -106.77899 -3.4917541
-102.27826 -106.60864 -3.502739
-117.96691 -106.70681 -4.0732551
-117.46084 -106.66296 -4.1808252
-117.8165 -106.6104 -5.0160952
-117.41569 -106.54095 -3.253962
-109.82966 -106.54492 -3.58043
-109.6084 -106.58131 -3.6060359
-117.12198 -106.58796 -4.15835
-117.06009 -106.51462 -7.7607541
-102.91076 -106.28427 -4.855896
-106.27593 -106.13278 -3.6494091
-105.04906 -106.17065 -4.8715611
-102.55414 -106.16987 -4.842381
-118.07249 -105.83232 -13.565105
-118.02013 -105.41866 -4.0684218
-106.34396 -105.45758 -4.8005381
-102.23939 -105.5518 -4.8828669
-101.77638 -103.71068 -4.1371412
-107.21732 -103.60745 -4.7646441
-100.90589 -103.71179 -5.2777739
-112.72863 -113.34753 -10.430037
-102.23443 -113.06173 -6.6949649
-104.06224 -113.02288 -10.496033
-102.2439 -112.90466 -3.7628889
-101.3945 -112.95113 -3.846081
-101.71047 -112.91521 -4.3657441
-101.01328 -112.93474 -5.0285082
-100.4946 -112.9187 -6.0216398
-100.3429 -112.92818 -6.5952249
-100.86632 -112.84341 -7.5806279
-101.42188 -112.83104 -7.7154632
-100.39495 -112.88238 -7.6701131
-100.60094 -112.8584 -8.1830025
-101.86665 -112.80682 -8.2738161
-100.20017 -112.84608 -8.6504307
-107.798 -112.67054 -3.4067669
-106.48744 -112.70827 -4.1669011
-103.67592 -112.63159 -5.5188479
-103.69786 -112.69731 -5.8528872
-104.47188 -112.66184 -6.0901432
-101.85864 -112.79326 -7.7241621
-105.69566 -112.61826 -8.0427866
-101.77525 -112.78629 -8.246048
-102.0641 -112.78045 -8.7955666
-102.16042 -112.67479 -8.8933563
-101.53016 -112.76482 -8.8134174
-110.47833 -112.42752 -3.9428439
-109.82315 -112.55935 -4.0855241
-107.71043 -112.51999 -4.7737131
-107.7361 -112.51009 -8.2429485
-111.21309 -112.31251 -3.9623971
-100.64592 -112.20929 -3.866365
-116.50982 -112.20848 -4.5515261
-115.39568 -112.28844 -4.5942159
-111.32299 -112.33154 -8.5505886
-113.33948 -112.23978 -8.7600288
-111.73679 -112.3108 -8.6137142
-117.04153 -112.10741 -4.5423722
-114.37231 -112.18869 -6.3043652
-111.43643 -112.08234 -6.9961791
-100.68568 -112.1305 -6.9786181
-100.2355 -112.14945 -6.9294581
-100.15258 -112.12209 -6.986558
-115.22314 -112.00399 -7.17097
-101.02704 -112.075 -7.044384
-115.12389 -112.18464 -8.9080696
-114.74824 -112.17552 -8.8839846
-109.89459 -112.09849 -9.146533
-103.24506 -111.85754 -3.0984631
-112.83093 -111.81391 -3.8119731
-110.86485 -111.90329 -3.9081731
-114.97156 -111.90442 -7.1500392
-118.95251 -111.6722 -9.2613144
-113.60586 -111.55357 -7.0769129
-110.7074 -111.3904 -3.1109641
-110.59325 -110.95677 -3.0715389
-103.0613 -110.7248 -2.9602339
-110.05715 -110.65961 -3.062819
-116.65248 -110.66493 -3.5600851
-102.20279 -110.56152 -2.9445441
-110.26125 -110.52195 -3.0635979
-109.75548 -110.41112 -3.0602789
-117.88254 -110.47633 -3.5110619
-117.39624 -110.55324 -3.5137861
-117.91831 -110.22677 -3.477314
-117.90616 -110.27549 -5.3321028
-117.83023 -110.34008 -7.181643
-117.79516 -110.3365 -10.022273
-117.81796 -110.28819 -13.819948
-103.48781 -110.03503 -2.9192841
-101.83289 -110.17414 -2.938241
-117.86529 -110.16142 -7.185461
-117.74994 -110.15823 -12.786137
-118.05222 -109.85003 -7.1725149
-117.98116 -109.84557 -14.753143
-101.5014 -109.74325 -2.9231391
-118.07095 -109.73526 -7.1576371
-118.07037 -109.73633 -10.919866
-104.06883 -109.49475 -2.905549
-108.62859 -109.45452 -3.013648
-106.80879 -109.5127 -9.8928242
-117.59177 -109.43555 -13.657825
-110.19778 -109.39206 -3.013845
-109.11132 -109.29115 -3.0012939
-117.57838 -109.32216 -13.655622
-108.93371 -109.11506 -2.996222
-101.44508 -109.01084 -2.891161
-118.04852 -109.07295 -7.1156201
-117.9322 -109.09567 -14.69645
-117.89494 -108.96547 -9.8878555
-106.52699 -108.90277 -9.8788128
-106.22028 -108.87252 -11.155707
-107.86575 -108.69716 -2.988847
-102.97157 -108.6381 -2.891994
-118.33869 -108.6926 -8.9920406
-106.64163 -108.61099 -9.169837
-117.44606 -108.72372 -9.793314
-109.78699 -108.55769 -2.9682081
-107.74252 -108.46517 -5.878839
-118.03674 -108.59503 -7.0826988
-107.80247 -108.49119 -8.6226025
-101.87711 -108.21882 -2.859782
-117.8425 -108.24178 -5.1856928
-105.65112 -108.2696 -6.4256129
-117.44144 -108.30614 -9.7763643
-106.7342 -108.24592 -11.256943
-104.83495 -108.25673 -11.464977
-104.66489 -108.26453 -11.438345
-109.30139 -108.16821 -2.99211
-101.53069 -108.03756 -2.871228
-105.06891 -108.11599 -5.7436399
-118.01027 -108.10052 -7.048265
-106.42129 -108.14296 -7.792459
-117.07484 -108.01695 -7.9386911
-100.03496 -108.04412 -9.2434015
-105.05858 -108.02602 -9.5657845
-106.12564 -108.10959 -10.384483
-117.11578 -108.06537 -10.636031
-102.23253 -107.90764 -2.90853
-101.53967 -107.92369 -2.939183
-116.5654 -107.88666 -5.169065
-118.03481 -107.83563 -6.1027031
-104.47592 -107.91585 -10.104519
-109.02037 -107.73445 -2.9762981
-100.72166 -107.72138 -2.9072499
-118.10848 -107.72239 -4.2325969
-105.24106 -107.64519 -6.9965539
-117.40457 -107.74692 -9.7353258
-104.63035 -107.76584 -10.110686
-104.39942 -107.61862 -10.074832
-100.89871 -107.75161 -10.59428
-117.99864 -107.69012 -10.743467
-106.31782 -107.40964 -5.6428161
-104.78972 -107.57673 -6.2407908
-104.4119 -107.53371 -10.051455
-100.96415 -107.42117 -10.582741
-117.96585 -107.44637 -13.636944
-108.65588 -107.39616 -2.9822359
-105.49828 -107.37427 -2.999377
-104.93786 -107.24452 -3.018997
-101.48131 -107.2288 -3.2187951
-101.63854 -107.28314 -5.064569
-107.75255 -107.06949 -3.0173631
-103.03486 -107.13074 -3.2482569
-118.0871 -107.03912 -4.170506
-117.9996 -107.05624 -6.9209051
-117.52729 -106.9954 -3.2874129
-109.14841 -106.91737 -3.4805429
-108.24449 -106.84623 -3.506654
-117.9456 -106.82602 -13.589796
-117.00365 -106.60045 -3.2707591
-118.06154 -106.7357 -4.1339231
-117.94057 -106.62891 -8.8549013
-109.55927 -106.52377 -3.564625
-107.81377 -106.36412 -3.5118871
-106.7494 -106.09091 -3.6107619
-104.78123 -105.96526 -3.542707
-102.62231 -105.76589 -4.0055389
-101.35965 -105.60668 -11.576235
-111.78536 -105.23494 -4.1576381
-103.37868 -105.02275 -10.091806
-117.61502 -104.21877 -4.7980161
-104.24152 -104.34649 -10.024847
-101.2886 -104.20576 -10.345861
-101.62042 -104.18945 -10.385666
-101.28986 -104.18703 -10.552248
-101.52212 -104.19646 -11.344756
-103.87875 -103.83195 -10.371909
-103.8044 -103.80296 -10.916448
-100.77175 -103.81609 -11.655467
-107.23392 -103.92429 -13.695843
-103.33311 -103.73662 -4.737813
-104.59639 -103.64101 -12.317282
-102.51387 -103.68759 -12.293934
-119.81723 -103.67091 -13.322424
-105.70158 -103.77471 -13.374062
-105.92952 -103.70811 -13.957736
-118.99339 -103.67926 -15.384964
-118.25749 -103.72986 -15.24754
-105.02303 -103.54702 -10.475946
-104.78995 -103.4843 -10.697674
-110.15593 -103.5726 -11.84997
-103.29582 -103.47699 -12.125887
-102.2104 -103.58091 -12.038134
-106.31001 -103.54564 -12.59594
-106.56857 -103.41148 -12.619091
-105.88676 -103.49876 -13.027097
-102.58763 -103.4126 -13.680967
-101.42216 -103.35486 -12.042566
-106.83597 -103.31596 -13.176269
-105.02142 -103.19395 -12.033322
-106.27757 -102.96796 -11.159143
-106.70847 -102.89433 -12.298902
-105.3767 -102.97388 -13.071022
-107.37827 -102.91624 -14.114181
-106.73407 -102.67031 -11.9842
-106.42319 -102.27388 -11.581652
-111.17796 -102.08524 -12.235592
-106.54021 -102.12993 -12.410402
-106.98976 -102.03622 -14.188707
-107.89011 -101.9292 -11.011066
-108.43628 -101.85781 -12.402941
-110.90785 -101.82494 -13.281406
-106.05153 -101.81976 -13.634418
-108.21042 -101.65033 -10.461143
-116.85699 -101.72791 -12.150143
-117.25885 -101.65615 -12.205164
-106.37267 -101.69556 -12.844613
-108.5368 -101.29917 -11.051312
-111.20806 -101.2032 -11.20935
-111.28461 -101.28435 -12.40731
-108.76913 -101.12291 -12.74341
-112.16266 -100.88991 -11.52621
-107.59863 -100.42238 -13.20303
-107.38459 -100.37114 -12.59725
-108.38496 -100.25012 -12.773508
-107.23781 -100.35779 -13.325846
-112.71313 -113.16016 -10.412077
-103.6544 -112.87871 -3.6637881
-100.21304 -112.97981 -4.5442772
-100.5907 -112.95498 -5.0423808
-101.74768 -112.97526 -5.507751
-100.90749 -112.902 -5.4746408
-100.66983 -112.92181 -5.4848962
-100.15603 -112.92474 -6.5508881
-100.12618 -112.90092 -6.9803691
-100.44502 -112.8201 -7.009593
-100.17266 -112.88985 -7.6499791
-101.01479 -112.81107 -8.7195625
-106.19314 -112.7477 -3.5246699
-105.84518 -112.74722 -3.567807
-104.32645 -112.75669 -4.427763
-104.25981 -112.69069 -4.8755679
-106.54271 -112.64907 -5.464993
-104.41329 -112.69189 -5.4722152
-106.75381 -112.63046 -6.1469531
-104.95107 -112.60458 -6.1260271
-104.32677 -112.66267 -6.1155791
-109.45434 -112.60271 -6.9375968
-103.67673 -112.6499 -7.003911
-102.61763 -112.75992 -7.7744932
-103.63897 -112.62814 -7.8665729
-103.37272 -112.70741 -8.3879929
-103.31972 -112.71281 -8.4374723
-101.76376 -112.73924 -8.8437166
-110.3772 -112.48292 -3.1915281
-109.46591 -112.50943 -3.9964769
-106.33856 -112.56606 -4.7911348
-106.73601 -112.56039 -4.8250761
-110.20077 -112.44434 -5.4580469
-107.71155 -112.59859 -5.4636068
-109.54868 -112.42369 -8.4140606
-106.21089 -112.57362 -8.7671967
-105.78247 -112.58581 -8.7158909
-100.51974 -112.27557 -3.8857961
-112.89703 -112.2993 -4.6465001
-112.85124 -112.26962 -5.452776
-110.40578 -112.22378 -7.720469
-110.18921 -112.35469 -7.7051291
-114.46887 -112.20856 -7.9954481
-112.15706 -112.29789 -8.641037
-117.01841 -112.08047 -6.413846
-114.38777 -112.13485 -7.1384888
-102.23013 -112.03696 -7.109982
-108.64016 -112.17019 -9.02314
-116.57717 -111.94553 -9.043457
-117.68652 -111.78865 -9.140625
-110.80412 -111.56647 -3.8815351
-116.27618 -111.40601 -7.1904421
-119.0462 -111.51285 -9.2730064
-112.15085 -111.11095 -3.05161
-112.76368 -111.1179 -3.768934
-119.08307 -111.04112 -6.3435779
-102.61865 -110.50987 -2.9370029
-117.84761 -110.44 -6.2826681
-119.02809 -110.59649 -7.2777839
-103.28389 -110.24471 -2.967396
-117.83627 -110.32007 -6.2572889
-117.84892 -110.28789 -9.97472
-117.91574 -110.37335 -10.9792
-117.78451 -110.25136 -13.753955
-118.07281 -110.04807 -6.2670012
-117.78793 -110.16399 -10.009501
-117.75365 -110.13802 -11.846877
-118.4082 -109.95822 -4.384233
-118.08505 -109.7833 -6.2803679
-106.9053 -109.70477 -9.9819889
-106.99464 -109.72327 -10.010435
-117.72308 -109.75655 -14.73908
-103.38422 -109.42612 -2.909626
-101.84656 -109.49214 -2.9055851
-117.22356 -109.5163 -8.0149059
-117.15982 -109.53951 -8.9516153
-117.13475 -109.50398 -10.804825
-117.12088 -109.48383 -11.701805
-118.05385 -109.28978 -10.893252
-118.05148 -109.36775 -12.797798
-102.63065 -109.02534 -2.8980119
-118.06836 -109.04965 -9.9361782
-118.02264 -109.07574 -11.84787
-100.75056 -108.86246 -2.8938949
-106.16603 -108.95689 -9.7995739
-110.05428 -108.74049 -2.982033
-102.20184 -108.63395 -2.872025
-105.10423 -108.64037 -5.7020912
-106.08195 -108.71049 -11.100815
-117.55792 -108.69356 -13.633209
-105.65135 -108.44861 -9.6363268
-117.87334 -108.57081 -14.680199
-107.14232 -108.35707 -5.8416042
-105.11128 -108.2687 -6.3159032
-108.24757 -108.31512 -8.6254301
-105.75072 -108.20277 -9.6865788
-116.55508 -108.08234 -4.2668791
-116.54493 -108.11936 -5.2076869
-117.1142 -108.09804 -8.789752
-101.33813 -108.02217 -10.603439
-105.85516 -108.04356 -11.001563
-101.90219 -107.83362 -2.922627
-116.55283 -107.96315 -3.387836
-105.10255 -107.93088 -5.672451
-106.17828 -107.81863 -7.080874
-118.01678 -107.68687 -8.888895
-103.97042 -107.62504 -9.3095093
-101.5666 -107.69255 -10.885878
-117.9258 -107.64473 -14.619292
-101.40034 -107.48634 -2.9693551
-101.47919 -107.44037 -5.1001129
-117.98071 -107.50652 -8.8844709
-107.80876 -107.23743 -2.9928329
-118.07117 -107.36404 -6.0623989
-118.01273 -107.31645 -6.9409781
-100.69653 -107.38985 -10.572791
-100.26539 -107.19405 -2.956594
-104.86092 -107.04692 -3.1501839
-102.9845 -107.17194 -3.125627
-100.04256 -107.07679 -5.2504869
-103.57683 -107.18388 -9.2321835
-117.97638 -107.12625 -13.603354
-117.91098 -107.18948 -14.63866
-105.65826 -106.98926 -3.1262529
-118.01176 -106.95941 -5.976367
-111.42465 -106.65129 -3.512357
-116.58916 -106.57513 -3.2071569
-106.67371 -106.40505 -13.48168
-117.94098 -106.40137 -13.621086
-102.65118 -106.22748 -3.643415
-106.32698 -106.29124 -11.011177
-108.96252 -106.14319 -3.55691
-102.02481 -106.0782 -9.9839773
-108.28865 -105.98608 -13.334213
-102.12718 -105.69114 -5.196455
-101.45893 -105.75497 -10.682323
-105.87629 -105.57414 -3.5946231
-118.02704 -105.51114 -3.9669139
-106.53868 -105.56584 -3.923655
-101.43402 -105.40248 -9.9995594
-102.40947 -105.57062 -10.77611
-101.6217 -105.49622 -11.340023
-104.22913 -105.33665 -10.143993
-104.48982 -105.36702 -10.340396
-107.0899 -105.20035 -14.805662
-118.04031 -105.12242 -4.0347571
-106.55043 -104.9002 -3.8593049
-103.40918 -104.88434 -9.99786
-102.13807 -104.7675 -9.5398197
-104.38307 -104.2556 -9.9477501
-101.37773 -104.23094 -11.100266
-100.71254 -104.3204 -11.726341
-101.80607 -104.08683 -9.7230587
-104.80379 -104.14382 -9.9806805
-104.53484 -104.19011 -10.038795
-101.42072 -104.15485 -12.005104
-105.5863 -104.07508 -12.690711
-104.31744 -103.85508 -13.274659
-117.51953 -103.82962 -14.049828
-104.55972 -103.62656 -12.44209
-104.30162 -103.74276 -12.417225
-106.17177 -103.79263 -13.164071
-119.08048 -103.65348 -14.000474
-118.65208 -103.72654 -14.075113
-105.18168 -103.49682 -5.103375
-102.33582 -103.45187 -10.129402
-102.09746 -103.43866 -11.928545
-104.64003 -103.50604 -12.976326
-105.39954 -103.38272 -10.501237
-105.08591 -103.3616 -11.654125
-102.89613 -103.25266 -12.897764
-101.8895 -103.05225 -11.126907
-101.98191 -103.03436 -11.840891
-105.27632 -103.19113 -13.339399
-106.41357 -102.94948 -10.572144
-106.48273 -102.68272 -10.356234
-106.37769 -102.47599 -10.315435
-106.2543 -102.54622 -12.426068
-106.71553 -102.28513 -10.883177
-106.67338 -102.30517 -11.722291
-106.78523 -102.36157 -13.887968
-108.03662 -102.11256 -12.372889
-110.74599 -101.81545 -11.426979
-106.53067 -101.96493 -12.919767
-109.01111 -101.75995 -13.289413
-106.61407 -101.4975 -12.858095
-106.53156 -101.40825 -13.662874
-111.22305 -101.3045 -12.308186
-108.67602 -101.37874 -13.007875
-109.02757 -100.95199 -12.772228
-111.95656 -100.78829 -11.278811
-108.91046 -100.69714 -13.752602
-107.22095 -100.51617 -12.588371
-107.83372 -100.26089 -13.479797
-103.0582 -112.87353 -3.8603661
-101.85912 -112.94006 -3.8332491
-101.50986 -112.9345 -4.4169369
-106.14706 -112.82894 -5.4625068
-101.10831 -112.90254 -5.4846659
-100.21887 -112.95477 -5.5089188
-101.22784 -112.86699 -6.0225921
-101.03433 -112.85246 -7.6855421
-108.27355 -112.65558 -3.4526329
-105.18829 -112.77782 -3.640254
-108.2885 -112.63011 -4.0815229
-107.45122 -112.6552 -4.097425
-102.77534 -112.72505 -4.8761001
-109.48013 -112.64529 -5.4706001
-107.26335 -112.62241 -5.4582119
-102.77363 -112.70421 -6.0493002
-104.26875 -112.62169 -6.6799502
-103.30179 -112.74377 -6.622066
-103.63611 -112.63837 -7.339921
-110.22066 -112.5524 -3.2136271
-110.29865 -112.4874 -3.9644091
-100.13834 -112.5251 -3.9183469
-105.85882 -112.59879 -4.7994952
-107.35806 -112.56711 -6.8285179
-107.99272 -112.51627 -7.5655179
-110.15784 -112.41509 -7.6846962
-109.03761 -112.47546 -7.631639
-107.26662 -112.52828 -8.1762819
-109.94874 -112.4198 -8.4409285
-107.36515 -112.48789 -8.8896122
-106.98344 -112.51711 -8.8525724
-102.95429 -112.46815 -8.9433517
-110.74461 -112.34805 -4.690896
-109.36729 -112.20448 -5.4420171
-109.95134 -112.39722 -8.4167995
-112.65849 -112.2456 -9.5135813
-113.28287 -112.16804 -4.6214442
-117.02722 -112.09142 -6.3607631
-115.94455 -112.14005 -8.0972948
-115.35536 -112.17645 -8.062212
-115.84526 -112.08029 -8.9830685
-119.49639 -111.73164 -6.413136
-115.44418 -111.69948 -7.1599441
-113.02666 -111.76634 -7.0770812
-100.40828 -111.53416 -3.2990971
-110.73354 -111.44241 -3.8794191
-114.17736 -111.50783 -7.0920882
-100.59859 -111.36349 -3.1854899
-119.06126 -111.2365 -7.3112292
-117.14411 -111.34544 -7.2357302
-103.40118 -110.94909 -3.0184319
-116.65247 -110.81862 -5.369092
-119.0598 -110.9834 -10.180713
-103.30351 -110.64806 -2.969269
-111.70049 -110.67137 -3.0576501
-119.04048 -110.63711 -9.2382221
-117.89801 -110.32455 -4.4128628
-103.70927 -110.06465 -2.922215
-109.74928 -110.11492 -3.0350189
-101.68064 -109.97099 -2.930995
-118.08158 -109.82622 -9.0443707
-118.06126 -109.84493 -12.82336
-108.8997 -109.70531 -3.020061
-110.56691 -109.59099 -3.020963
-118.07573 -109.37378 -6.2043839
-106.51347 -109.2942 -9.8593979
-105.31053 -109.21703 -10.315361
-103.26502 -109.17004 -2.9029419
-108.26135 -109.08064 -3.0011909
-118.3394 -109.12334 -9.0192003
-106.08557 -109.07773 -11.840246
-105.4927 -108.9548 -10.347632
-118.37038 -108.96318 -12.832595
-117.82397 -108.72906 -3.3675909
-118.31175 -108.7742 -4.3024068
-105.09214 -108.7085 -6.3618722
-118.04039 -108.72621 -8.0303392
-117.73547 -108.62112 -13.64158
-102.60898 -108.55553 -2.9035261
-117.8407 -108.46298 -5.2214398
-106.22272 -108.45605 -6.470037
-118.03468 -108.53201 -7.9795222
-100.42781 -108.43332 -8.7480774
-106.09413 -108.53973 -9.7721949
-117.80924 -108.29817 -3.3669109
-107.89812 -108.29105 -9.3394661
-118.01428 -108.35364 -10.807521
-106.24008 -108.22901 -11.107376
-109.07556 -108.12857 -2.9999299
-101.82278 -108.12704 -2.8555059
-106.50598 -108.16678 -9.1385164
-117.33016 -108.05511 -9.7460613
-117.10474 -108.02462 -9.7054319
-105.89288 -108.1824 -10.369761
-106.81413 -108.18079 -11.227242
-107.75616 -107.88596 -2.9526899
-116.56221 -107.91481 -4.248919
-117.09111 -107.97961 -8.8199396
-105.65031 -107.99246 -9.0102596
-100.13988 -107.89361 -9.0821533
-117.65155 -107.82272 -13.584394
-118.00471 -107.85433 -14.630964
-117.08974 -107.69595 -3.304255
-101.46651 -107.7646 -10.699922
-105.05386 -107.41832 -6.884429
-102.24791 -107.35703 -2.9911089
-101.79234 -107.26994 -3.1075461
-117.06031 -107.29672 -3.281774
-100.90059 -107.22955 -3.37972
-100.61184 -107.24419 -3.270469
-108.25433 -107.09863 -2.9977939
-105.46683 -107.03709 -3.0927801
-102.09902 -107.15685 -3.332406
-100.13194 -107.00784 -11.939268
-115.86705 -106.84316 -3.2253189
-110.74129 -106.84105 -3.4149041
-107.06659 -106.94826 -5.6297541
-102.09782 -106.89705 -11.599398
-115.38033 -106.61159 -3.238924
-107.39515 -106.67496 -3.520771
-117.1608 -106.62567 -4.0933881
-117.96684 -106.71909 -7.8817859
-117.97131 -106.74832 -10.683297
-106.2193 -106.52641 -3.548378
-117.43779 -106.27301 -3.2292581
-109.24869 -106.32104 -3.5651901
-101.18352 -105.80162 -10.654511
-104.0525 -105.83733 -11.061398
-101.35466 -105.7281 -11.022913
-118.61758 -105.58189 -4.9521642
-118.25406 -105.56117 -4.917634
-100.93337 -105.52689 -9.9593582
-104.35829 -105.25989 -10.6272
-118.01871 -105.12217 -3.9322009
-111.63155 -105.15348 -4.1539259
-106.42242 -105.05278 -4.079474
-106.18951 -105.09343 -11.511747
-107.23489 -105.1045 -14.81777
-111.48985 -104.99808 -4.1278949
-106.40995 -104.97426 -4.484787
-100.61407 -104.60051 -4.2997651
-100.81416 -104.78922 -9.4891605
-100.6059 -104.78059 -9.4667492
-100.63042 -104.60524 -11.372654
-100.4928 -104.62512 -11.700434
-105.56958 -104.27773 -6.3635278
-107.98169 -104.20091 -6.474741
-101.79033 -104.3425 -12.574892
-108.5977 -104.05708 -14.910736
-104.5872 -103.85754 -9.9213371
-103.71817 -103.82568 -11.51689
-104.1204 -103.84554 -13.034182
-101.88584 -103.62373 -5.2196932
-104.04121 -103.77759 -10.988598
-104.3127 -103.71373 -12.281058
-108.5414 -103.7097 -14.834057
-118.55479 -103.71049 -15.303167
-105.46051 -103.59975 -10.801616
-103.86594 -103.56741 -12.247624
-102.43915 -103.43071 -12.234335
-105.47299 -103.58141 -12.524302
-106.14238 -103.48904 -13.048496
-105.09483 -103.47212 -13.032589
-104.90851 -103.58884 -13.339324
-108.2784 -103.34779 -13.48501
-106.30748 -103.05994 -10.573195
-102.17839 -103.02219 -11.093953
-104.11266 -103.13943 -11.473484
-102.21054 -102.90227 -11.841463
-106.25186 -102.98424 -12.219839
-106.94614 -102.72742 -13.127053
-106.66011 -102.25919 -12.160727
-107.98672 -102.00735 -10.47835
-107.09834 -102.09676 -11.378683
-107.00916 -102.11212 -11.671194
-107.81165 -101.75326 -11.373639
-106.37392 -101.59424 -12.828005
-117.86601 -101.28494 -3.577312
-110.8513 -101.29433 -11.164403
-108.61485 -101.14061 -11.056215
-112.52465 -100.93982 -11.847773
-107.06988 -100.55223 -13.628629
-117.68444 -100.14614 -12.108589
-113.77287 -113.85083 -10.619097
-100.21202 -113.00856 -3.9497211
-102.74419 -113.00784 -5.5159721
-101.34958 -112.9357 -4.3795509
-101.06194 -112.93784 -4.3877392
-101.88127 -112.91884 -4.4003658
-100.99652 -112.95964 -4.423924
-101.14024 -112.8802 -5.815661
-101.11036 -112.9016 -6.0498028
-100.26236 -112.93762 -6.0315151
-101.10224 -112.87862 -6.5891352
-101.75392 -112.81937 -7.7373281
-100.65996 -112.86551 -7.6514931
-100.19098 -112.87691 -8.1325951
-107.29723 -112.70068 -3.441932
-105.50844 -112.76391 -3.7165649
-107.85458 -112.63733 -4.0784159
-105.45982 -112.74655 -4.1902218
-105.88644 -112.614 -4.8402419
-102.87299 -112.66261 -5.4960871
-102.7619 -112.7751 -5.4606581
-103.65759 -112.69682 -6.6999369
-100.53915 -112.70044 -6.9968958
-103.08706 -112.78241 -7.3117628
-105.35257 -112.63309 -8.0338869
-102.9367 -112.73963 -8.376791
-102.98444 -112.72572 -8.4165277
-109.43839 -112.56921 -3.296418
-108.28557 -112.48537 -4.7564192
-107.29741 -112.53141 -4.784543
-106.28939 -112.57596 -4.832274
-107.06282 -112.5777 -6.8190179
-100.19507 -112.57496 -6.9561911
-108.00225 -112.52321 -7.568377
-107.53888 -112.54074 -7.5357819
-109.85542 -112.4398 -7.687305
-109.42946 -112.4534 -7.6618581
-108.57338 -112.49706 -7.6077018
-106.53 -112.57112 -8.1314316
-106.09102 -112.59429 -8.0932617
-109.26515 -112.44612 -8.3770561
-108.11804 -112.5014 -8.2753296
-110.12637 -112.41183 -8.46171
-110.76525 -112.27721 -3.9536009
-116.21121 -112.28309 -5.4599991
-110.76237 -112.3009 -5.4477692
-111.13028 -112.20914 -6.2251372
-111.14146 -112.34798 -8.5600386
-100.60691 -112.15077 -3.8273029
-119.90015 -112.09763 -4.4809818
-111.03377 -112.19313 -6.9815412
-111.88704 -112.02553 -7.025198
-102.91327 -112.00656 -7.1331358
-101.75038 -112.09465 -7.0598722
-116.26408 -112.06729 -9.0158024
-117.08669 -111.95696 -6.3680501
-113.5188 -111.82877 -7.081141
-110.74147 -111.69536 -3.155107
-118.76117 -111.66839 -9.2216606
-119.48895 -111.5739 -6.3763628
-115.37119 -111.4756 -7.1427569
-103.48344 -111.3293 -3.047698
-116.63709 -111.3821 -7.192358
-117.64646 -111.34689 -7.2478962
-111.11308 -111.1077 -3.846056
-119.0551 -111.07152 -8.2509069
-119.0427 -111.14799 -11.20025
-102.36623 -110.8352 -2.956624
-116.64106 -110.65077 -5.3610492
-119.05233 -110.70432 -10.160139
-119.02934 -110.61781 -11.11661
-119.00055 -110.60158 -12.08102
-103.77613 -110.46693 -2.984755
-117.8659 -110.44025 -8.1461048
-117.81946 -110.31271 -8.1134548
-118.98402 -110.3577 -12.063032
-104.20692 -110.1447 -2.928581
-118.08299 -110.01891 -8.1029615
-117.85217 -110.14241 -10.909303
-117.75925 -110.0955 -13.744461
-118.07672 -109.81561 -9.9709492
-111.38025 -109.66546 -3.020679
-117.20438 -109.62434 -8.0178204
-118.0728 -109.79585 -10.019886
-118.05294 -109.76559 -12.832716
-118.07817 -109.41568 -8.0715113
-118.02386 -109.5078 -13.764654
-118.0641 -109.31501 -9.9614058
-106.43097 -109.21047 -11.880346
-110.19314 -109.00271 -2.996634
-106.45184 -109.14918 -11.941203
-103.88528 -108.99692 -2.893539
-109.51324 -108.84595 -3.0229959
-118.21539 -108.811 -12.792719
-117.5719 -108.76508 -3.333216
-106.64609 -108.61848 -6.467411
-118.41344 -108.7364 -8.9961243
-107.0864 -108.65144 -9.2101889
-103.95648 -108.75584 -11.99679
-117.86359 -108.48603 -4.2962861
-105.83919 -108.30809 -5.8015862
-106.53406 -108.39397 -6.4824858
-118.35138 -108.22269 -8.9679127
-118.35325 -108.24867 -12.786125
-104.99815 -108.13522 -6.944509
-118.03116 -108.18085 -7.9843259
-101.66178 -107.92476 -2.898962
-105.09509 -107.85881 -6.290606
-105.81604 -107.9032 -8.29986
-117.96912 -107.85433 -8.9389267
-117.0865 -107.92754 -9.7455626
-105.84592 -107.87535 -9.6781673
-105.41122 -107.85912 -10.263905
-117.07405 -107.92249 -10.649371
-117.55139 -107.9192 -13.616249
-108.77432 -107.68522 -2.986706
-101.75616 -107.71538 -2.9333849
-101.49165 -107.67127 -2.9540069
-117.98863 -107.68584 -7.9571271
-105.84314 -107.76247 -11.037771
-109.1562 -107.57505 -2.953649
-117.98448 -107.4526 -9.8213348
-105.49341 -107.59605 -10.23276
-101.42805 -107.43837 -10.253551
-101.70336 -107.58855 -10.660542
-108.2661 -107.26672 -2.9895749
-100.20569 -107.24953 -3.315762
-118.06821 -107.3885 -5.129251
-101.56916 -107.31932 -5.5815859
-101.37235 -107.33395 -11.549139
-104.25606 -107.14729 -3.0488329
-104.23786 -107.04865 -3.2240019
-102.59758 -107.13649 -3.3411779
-101.71951 -107.15685 -3.355983
-100.22233 -107.1368 -3.4782159
-100.68352 -107.13088 -5.0366511
-107.0881 -107.10943 -11.217468
-101.39828 -107.08264 -12.416933
-117.15265 -106.95625 -3.277519
-111.29799 -106.8141 -3.3918869
-110.12988 -106.87178 -3.4402621
-103.97757 -106.90777 -10.554392
-101.72411 -106.96233 -11.497742
-114.70475 -106.67868 -3.2532899
-114.21333 -106.61538 -3.2655921
-118.00888 -106.656 -5.9524632
-117.96184 -106.76266 -8.785718
-117.90802 -106.66353 -14.56132
-116.11376 -106.55085 -3.2227321
-108.45106 -106.5529 -3.6230321
-100.31816 -106.51739 -6.306015
-117.48194 -106.51475 -7.8050232
-100.35329 -106.58949 -12.773488
-118.04106 -106.22557 -4.1138248
-106.22189 -106.33853 -4.3324919
-102.827 -106.1954 -4.269022
-106.64976 -105.97094 -3.6385331
-102.90103 -105.94968 -5.2393031
-105.86036 -105.71624 -3.608556
-104.80636 -105.75478 -5.276907
-101.54014 -105.44293 -10.648315
-101.65882 -105.45935 -10.838017
-102.4558 -105.06374 -5.0392151
-102.86673 -105.17573 -10.132557
-106.61459 -104.65207 -3.8341279
-110.68303 -104.73515 -4.1162372
-100.92588 -104.61521 -9.8453169
-101.12894 -104.40714 -11.110498
-106.84499 -104.24097 -3.7902901
-117.69548 -104.37427 -3.982203
-101.07676 -104.30292 -10.653337
-100.91689 -104.25871 -11.11363
-105.68256 -104.10197 -6.9969468
-106.04318 -104.07825 -7.6781778
-101.68591 -104.19728 -9.4315205
-100.71613 -104.14128 -11.312415
-111.20128 -103.8434 -5.0600648
-105.17747 -103.93334 -12.464655
-105.01888 -103.93204 -14.122511
-100.88603 -103.69432 -4.995904
-105.27608 -103.65102 -10.784276
-103.89011 -103.73112 -10.71323
-105.1812 -103.60685 -11.704863
-117.86617 -103.77052 -15.176752
-106.58775 -103.43366 -13.094893
-109.16924 -103.38725 -4.436481
-101.58251 -103.36095 -11.320459
-105.40491 -103.33302 -12.119376
-105.01759 -103.02959 -9.8683634
-101.90865 -103.1984 -11.392345
-104.57858 -103.10191 -12.746616
-117.9203 -102.98165 -3.9457991
-102.17206 -102.9144 -11.429487
-107.45119 -102.25167 -10.441809
-106.36383 -102.04655 -12.901587
-105.89713 -102.19294 -13.979643
-106.99104 -101.95325 -12.169827
-108.55473 -101.64684 -11.535023
-111.06906 -101.39923 -11.519795
-106.96687 -101.23383 -12.056009
-106.77515 -101.24997 -12.848323
-106.83461 -101.17033 -12.636868
-106.91911 -101.04821 -12.843159
-107.31582 -100.53938 -12.657911
-107.35762 -100.53451 -13.164946
-107.71521 -100.22425 -12.638557
-108.53012 -100.16031 -12.672853
-102.61285 -113.00537 -6.675281
-104.04416 -113.07671 -9.8114185
-100.95667 -112.96896 -3.9466109
-103.69927 -112.83763 -4.297327
-102.71861 -112.86485 -4.3264899
-101.76028 -112.97214 -4.9808249
-100.20755 -112.9699 -5.0464778
-102.80294 -112.89159 -5.4543662
-100.71254 -112.90401 -6.0416598
-112.70186 -112.95262 -10.393681
-108.95821 -112.62946 -3.346678
-106.87802 -112.70328 -3.451154
-106.61487 -112.71944 -3.4839029
-105.65189 -112.7468 -3.606889
-103.68331 -112.71732 -4.3438039
-103.61441 -112.64071 -4.863596
-102.88455 -112.67253 -4.8923759
-104.40179 -112.72344 -5.7132492
-109.48132 -112.61277 -6.205884
-106.82164 -112.60902 -6.782701
-102.95819 -112.75529 -6.629981
-103.32188 -112.75791 -7.3265419
-103.06133 -112.73759 -7.8148508
-102.63096 -112.74515 -8.3562202
-104.93121 -112.63126 -8.6295319
-100.93663 -112.78262 -8.6978455
-101.87719 -112.71963 -8.8459673
-109.90536 -112.53549 -4.7189388
-109.62566 -112.53025 -5.4559011
-104.97617 -112.55996 -5.456522
-107.77311 -112.57661 -6.165832
-102.86354 -112.53679 -6.07125
-109.81918 -112.5006 -6.945406
-107.8667 -112.54608 -6.8619199
-107.03254 -112.56234 -7.5013041
-102.55047 -112.55906 -8.9245415
-113.85915 -112.53889 -9.6715565
-109.58755 -112.24365 -3.2315061
-116.27808 -112.25617 -4.5819778
-110.96825 -112.28579 -4.6875868
-110.74537 -112.25449 -6.2136989
-100.70589 -112.27902 -6.9745889
-113.92352 -112.23636 -8.7999496
-103.3076 -112.37678 -9.006319
-101.40233 -112.07443 -7.0550351
-100.86006 -112.11251 -7.024117
-119.0249 -111.98544 -8.3144722
-100.22282 -111.75443 -3.3775389
-112.78635 -111.57625 -3.831733
-103.39127 -111.03345 -2.9830489
-111.30061 -111.00238 -3.0582869
-119.07307 -111.07919 -9.2178078
-119.03677 -111.07986 -12.145616
-103.77838 -110.65345 -2.9939821
-110.52428 -110.6838 -3.079031
-116.6395 -110.71062 -3.616642
-116.63504 -110.66882 -4.4642062
-111.01852 -110.50616 -3.046113
-117.87271 -110.45092 -7.2223339
-102.42639 -110.24387 -2.9286859
-102.03006 -110.32619 -2.936487
-118.80602 -110.33213 -11.056197
-103.26302 -110.12897 -2.9153619
-103.19556 -110.06986 -2.9465351
-118.22988 -110.03479 -5.3434639
-103.04514 -109.82588 -2.9261611
-118.11802 -109.9151 -3.5123229
-118.31975 -109.97227 -5.3080559
-117.76084 -109.96826 -12.78015
-117.18721 -109.6364 -8.9809227
-103.08884 -109.43644 -2.9160471
-106.68266 -109.47473 -9.938982
-117.16083 -109.51423 -10.758459
-118.04767 -109.55481 -11.848325
-108.72163 -108.90048 -2.9895549
-103.00751 -108.97865 -2.9053071
-109.77938 -108.97253 -3.0165579
-118.28745 -108.80711 -5.2736449
-105.20096 -108.88684 -6.360693
-105.86848 -108.81952 -7.7046819
-118.04166 -108.99325 -10.864236
-104.73297 -108.9453 -11.456205
-100.61682 -108.69251 -2.886631
-100.50689 -108.6176 -2.887507
-118.05134 -108.70912 -9.9198303
-105.53644 -108.64575 -10.345816
-104.68581 -108.71515 -11.454758
-103.95773 -108.7064 -12.110493
-118.06006 -108.51129 -6.15447
-109.84811 -108.39938 -2.9866979
-102.53618 -108.22759 -2.8951809
-117.48929 -108.2919 -3.315516
-116.5495 -108.20229 -3.422308
-105.24712 -108.29044 -5.7424002
-105.18738 -108.31522 -5.770566
-106.19359 -108.29515 -7.7131462
-102.06078 -108.01411 -2.899559
-116.60568 -108.09011 -3.386378
-116.57013 -108.17403 -3.3744831
-106.0612 -108.17787 -10.411788
-102.45727 -107.95301 -2.8879011
-104.92403 -107.89047 -6.9478588
-107.78574 -107.96597 -8.5468521
-104.43929 -107.93986 -11.390589
-108.96411 -107.71884 -2.9425831
-118.08667 -107.63879 -5.1211572
-108.99574 -107.49348 -2.9577839
-118.08871 -107.42499 -4.2011309
-103.10338 -107.53635 -5.9726501
-104.38509 -107.41124 -10.657953
-105.86974 -107.4342 -11.702252
-117.98567 -107.3168 -7.8891602
-101.75522 -107.20945 -11.098089
-100.97856 -107.2542 -11.530963
-107.04074 -107.03581 -3.0318489
-103.47446 -107.15816 -3.0956321
-104.84565 -107.01875 -3.2219059
-100.87556 -107.00021 -3.5083809
-100.73773 -107.1481 -3.492883
-100.84705 -107.19452 -4.7259212
-106.88701 -107.16419 -4.953619
-118.05925 -107.06674 -5.104506
-117.96183 -107.07812 -8.8520603
-107.28889 -107.07465 -10.695847
-110.2454 -107.19543 -13.867714
-108.51317 -106.92547 -3.504504
-100.04691 -106.91125 -12.124062
-113.47223 -106.65324 -3.2965519
-118.03281 -106.7183 -5.0688791
-106.32298 -106.66523 -10.53853
-100.7067 -106.64511 -12.852485
-106.43535 -106.59075 -3.547015
-103.065 -106.53313 -10.976498
-101.71018 -106.40479 -12.587635
-106.23016 -106.32726 -3.5656469
-104.96169 -106.21205 -4.2755871
-103.67888 -106.34973 -10.330862
-109.88862 -106.09824 -3.5262921
-105.15887 -106.10196 -3.5434
-112.30414 -106.01939 -4.092392
-118.437 -106.15049 -5.069447
-118.13299 -106.11716 -7.8043771
-108.92382 -105.95578 -3.555249
-107.01509 -105.98556 -3.624774
-105.10643 -105.89891 -4.9377589
-118.5361 -105.72033 -4.962996
-117.5691 -105.04958 -4.8684549
-106.24651 -105.11587 -10.837009
-109.0766 -104.92896 -3.8210001
-102.5222 -104.89705 -11.390333
-100.5742 -104.70796 -11.057456
-100.82629 -104.41567 -10.58415
-106.71994 -104.37792 -3.8056729
-101.79737 -103.89496 -9.8550396
-104.54576 -103.88259 -10.002977
-100.23065 -103.99436 -11.600096
-104.47195 -103.82723 -13.148861
-102.42128 -103.66272 -4.7220941
-105.04877 -103.6757 -10.987387
-101.8105 -103.72552 -12.07242
-105.82365 -103.61086 -12.656187
-119.5322 -103.68453 -13.280571
-103.48122 -103.50617 -11.830675
-102.86095 -103.40987 -12.331244
-105.40159 -103.43738 -13.356712
-104.85204 -103.33321 -9.8867302
-104.9259 -103.38059 -10.274662
-101.78185 -103.29668 -11.089983
-105.85369 -103.14154 -10.526466
-106.78078 -103.06766 -13.139778
-112.7282 -103.06674 -13.548494
-105.84006 -102.63319 -13.738448
-105.44977 -102.7458 -13.832178
-107.54815 -102.42173 -11.025484
-106.71875 -102.52226 -12.211521
-107.46877 -102.43718 -14.366558
-108.67918 -102.10413 -10.57922
-106.98372 -102.1842 -11.127499
-111.00052 -101.86349 -11.723574
-109.04089 -101.95202 -13.170324
-110.97954 -101.77458 -12.160851
-106.07779 -101.65823 -13.610864
-108.77773 -101.46754 -11.32746
-106.48528 -101.58026 -12.618268
-107.87186 -101.32584 -11.100787
-106.75912 -101.34998 -12.057279
-111.11596 -101.23785 -12.562565
-106.95527 -101.30592 -13.735521
-111.94823 -101.12167 -11.354882
-116.86536 -100.20415 -11.927365
-107.5189 -100.02705 -13.100934
-104.0573 -113.03149 -10.374294
-102.66253 -112.90987 -3.743001
-100.59571 -112.9918 -3.906101
-102.98141 -112.868 -4.329268
-102.27329 -112.89071 -4.359962
-100.65419 -112.96805 -4.5252681
-101.37005 -112.93583 -5.0197091
-101.21034 -112.89109 -5.448513
-101.46156 -112.89229 -5.9976602
-100.62832 -112.92625 -5.8412991
-106.07495 -112.84656 -6.7960119
-100.53838 -112.83204 -8.7124367
-100.15646 -112.81958 -8.6270285
-104.63162 -112.78944 -3.598403
-104.72684 -112.76737 -3.6527219
-103.65092 -112.77658 -3.7118881
-105.33348 -112.60575 -4.823997
-104.60855 -112.64651 -4.841053
-103.3112 -112.69794 -4.858356
-104.26219 -112.68768 -5.4946628
-104.33236 -112.78531 -5.7167559
-106.22664 -112.67224 -6.1628799
-103.65163 -112.63427 -6.3557591
-106.17167 -112.68697 -6.7850261
-103.11327 -112.70459 -6.6465979
-105.32191 -112.61205 -8.663353
-104.4945 -112.62778 -8.6656313
-101.72873 -112.75465 -8.7622061
-101.32196 -112.78067 -8.7595205
-110.29686 -112.44066 -4.7106509
-109.04935 -112.57501 -4.739419
-107.7836 -112.51451 -4.8225069
-107.04769 -112.54521 -4.8396392
-107.05272 -112.54185 -8.1877747
-107.82568 -112.4296 -8.9335041
-106.66652 -112.54723 -8.8274097
-113.85268 -112.49656 -10.512055
-110.86804 -112.30014 -3.933001
-115.80514 -112.28885 -4.5794082
-112.91083 -112.20093 -6.2631679
-113.4424 -112.27361 -7.9251771
-111.52191 -112.34569 -7.801095
-110.13271 -112.34833 -8.4582462
-112.90395 -112.27563 -8.7089424
-114.06171 -112.20864 -8.8249598
-102.98055 -112.3903 -8.9831076
-103.86951 -112.05395 -3.0507979
-100.59531 -112.13216 -3.8400209
-119.10725 -112.12044 -4.5031648
-117.02946 -112.12635 -5.454577
-119.51363 -112.08994 -6.4238958
-100.98007 -112.09772 -6.9978838
-115.4944 -112.13126 -8.9564018
-119.5123 -111.93096 -5.4510431
-117.01248 -111.95755 -8.1612568
