# .PCD v0.7 - Point Cloud Data file format
VERSION 0.7
FIELDS x y z
SIZE 4 4 4
TYPE F F F
COUNT 1 1 1
WIDTH 1485
HEIGHT 1
VIEWPOINT 0 0 0 1 0 0 0
POINTS 1485
DATA ascii
-103.34962 -10.833219 -1.013819
-103.374 -10.919533 -1.726498
-103.36164 -10.945168 -2.375241
-103.38918 -10.988469 -2.4538519
-103.30731 -10.950424 -3.1019361
-103.25571 -10.905024 -3.8088191
-100.76553 -10.877767 -4.6454911
-103.45859 -10.904463 -8.7172356
-108.10441 -10.658695 -0.053796999
-103.30786 -10.715588 -0.35108799
-100.80089 -10.716736 -0.42334601
-100.12575 -10.602263 -0.45226601
-103.3712 -10.678924 -0.61089098
-103.36296 -10.749947 -1.327809
-103.34031 -10.739554 -2.039897
-103.30247 -10.725395 -2.5871069
-103.28235 -10.728521 -3.0817599
-103.23808 -10.736729 -3.448015
-103.25494 -10.669814 -3.765584
-100.03436 -10.612601 -4.561944
-103.29346 -10.686543 -8.6773243
-101.72406 -10.479941 -0.42256299
-103.50955 -10.296244 -0.29564801
-102.64712 -10.230372 -0.340864
-101.36913 -10.340168 -0.42936701
-100.20112 -10.223557 -7.3229852
-119.10494 -10.253305 -8.9118843
-102.50941 -10.122617 -0.58929098
-103.94029 -10.011166 -3.4262719
-103.41355 -10.091654 -3.6906481
-100.41613 -10.127758 -5.4921479
-102.09097 -10.095333 -5.6975098
-103.47597 -9.9517374 -3.682368
-100.34841 -9.8260231 -7.1828971
-100.62888 -9.6790438 -0.32119101
-104.69035 -9.7676086 -0.46145901
-103.79482 -9.6345978 -3.0020649
-103.42658 -9.7126551 -3.37939
-103.82707 -9.7936916 -3.4044659
-103.38026 -9.7327204 -3.706233
-102.24607 -9.6448689 -5.685184
-100.61396 -9.7195158 -8.037508
-103.52377 -9.4906015 -2.9810619
-103.51311 -9.5525627 -3.0228579
-105.69374 -9.4127512 -9.0901251
-103.8223 -9.2232265 -3.0039549
-103.30351 -9.3784876 -3.6963141
-110.62671 -9.2752743 -4.0877719
-103.09161 -9.2881441 -4.340724
-103.94717 -9.2486629 -4.4378548
-110.81235 -9.0232182 -4.0769238
-102.83276 -9.0203476 -4.3002191
-105.29335 -9.1070299 -8.8377237
-103.92142 -8.9811516 -2.9489651
-103.23021 -8.9426861 -3.58599
-103.62149 -8.9128695 -3.639816
-103.20204 -8.9404793 -3.6547229
-102.77366 -8.8545427 -4.3163438
-106.86226 -8.827836 -4.558856
-104.09123 -8.677784 -2.9649551
-100.16245 -8.7822533 -6.4448171
-104.47034 -8.5707016 -2.8926959
-104.22488 -8.5826015 -3.3146181
-103.9086 -8.5981674 -3.593801
-103.37086 -8.5198088 -3.5288229
-103.5114 -8.472744 -3.633193
-104.52692 -8.2697811 -2.6587591
-104.9277 -8.2350178 -2.9149809
-104.55049 -8.2129879 -2.901387
-103.57205 -8.3235474 -3.624285
-109.74892 -8.1038666 0.31022099
-105.38054 -8.0324125 -2.200702
-104.36039 -8.1945057 -2.5373499
-109.41237 -7.9139438 0.31036699
-105.547 -7.8551998 -2.185807
-104.97303 -7.9486661 -2.8915119
-104.46808 -7.8572941 -2.905422
-104.10736 -7.8456678 -3.271754
-108.96608 -7.717164 0.304883
-106.61611 -7.641902 0.26499701
-105.72725 -7.687674 -2.131896
-105.54176 -7.7395682 -2.929167
-105.15234 -7.716867 -3.5877831
-104.62502 -7.6974592 -3.468142
-104.73666 -7.7732849 -4.2327251
-105.32315 -7.566545 -3.5845859
-104.69012 -7.5121088 -3.456862
-105.68317 -7.2950768 0.248383
-105.80205 -7.3964748 -2.868993
-105.05705 -7.3335309 -4.0545621
-102.75288 -7.2200298 -4.124979
-103.76711 -7.3245282 -4.996356
-111.71967 -7.0352612 -2.1363981
-105.52529 -7.0100121 -2.08026
-105.64929 -7.1392159 -2.4953921
-106.13121 -7.1010451 -2.716172
-106.05786 -7.083612 -2.8496549
-105.76928 -7.050179 -2.8763361
-103.99519 -7.1385722 -3.391969
-104.03555 -7.1051741 -3.5503409
-112.46983 -6.9123831 -2.6599131
-105.79704 -6.9353528 -3.283422
-103.65413 -6.8408589 -4.164855
-107.3735 -6.677783 0.32454199
-104.22185 -6.7608399 0.223269
-103.72299 -6.624867 0.209897
-105.58047 -6.6840839 -2.0772879
-106.20089 -6.7850518 -2.8669159
-118.68344 -6.746964 -3.166795
-106.32449 -6.7556481 -3.4809239
-103.15031 -6.4071708 0.202066
-112.10051 -6.4642172 -1.914948
-111.12009 -6.4633689 -1.908407
-105.73623 -6.5739479 -1.952232
-104.86774 -6.5128918 -1.97426
-104.75595 -6.4331789 -1.862323
-118.69643 -6.4911571 -2.129678
-104.94911 -6.5767522 -2.192894
-105.67458 -6.4766021 -2.453172
-106.82684 -6.4842162 -3.4852669
-104.10254 -6.420866 -4.1676812
-107.27901 -6.3420558 0.356576
-107.00565 -6.2108321 0.35538399
-103.36898 -6.2815452 0.22961999
-105.06843 -6.2011662 -1.6033421
-105.82147 -6.332736 -1.860368
-104.6631 -6.3584261 -1.9579459
-104.90371 -6.3201628 -2.0370131
-104.60552 -6.2649012 -2.504307
-106.70428 -6.3042388 -2.8409901
-103.8459 -6.3021059 -4.1349101
-103.03587 -6.162312 0.224438
-105.56985 -6.0769658 -1.249177
-104.0808 -6.1093998 -1.4912961
-113.05934 -6.0605502 -1.648891
-104.10136 -6.1372008 -1.866048
-118.12422 -6.1451049 -2.140285
-110.6083 -6.1625381 -2.0746391
-104.11427 -6.0830908 -2.1371341
-104.63904 -6.1974602 -2.2021339
-118.00262 -6.182539 -2.7387061
-106.33643 -6.1543841 -2.640826
-106.12933 -6.0307059 -2.7208779
-106.50945 -6.1509862 -3.432512
-103.43091 -6.1286302 -4.1401901
-106.40958 -5.9280891 0.35278201
-111.2597 -5.897295 -1.598786
-104.16634 -5.9509339 -1.812821
-104.26173 -5.816021 -2.2470989
-105.0098 -5.6772542 0.300771
-104.53366 -5.609715 0.281279
-104.23299 -5.6079731 0.26426601
-102.40078 -5.7833929 0.23321401
-109.09921 -5.7889161 0.187971
-108.70697 -5.6391349 0.18888099
-110.6115 -5.7920289 -1.953344
-104.2671 -5.7635121 -1.943434
-103.92164 -5.6614699 -1.844853
-104.93118 -5.6550822 -2.702631
-106.60046 -5.7740479 -3.408026
-106.21873 -5.7797852 -3.5243151
-108.26952 -5.7910728 -3.6733069
-105.16566 -5.7019358 -4.1906419
-105.52743 -5.7449522 -4.2944832
-104.20802 -5.4774408 0.27809501
-101.81709 -5.561728 0.226788
-116.17494 -5.5095978 0.126012
-116.10802 -5.4641171 -0.037074
-116.22997 -5.428854 -0.56247801
-106.13927 -5.5719018 -1.791272
-104.51189 -5.4329238 -1.817644
-103.98393 -5.474998 -1.948877
-113.87091 -5.4382272 -2.0369949
-105.0739 -5.4999938 -2.6807909
-104.759 -5.5050392 -3.38831
-106.82653 -5.429234 -3.4026849
-104.02692 -5.444077 -4.016726
-103.85709 -5.4711499 -4.1136122
-103.52029 -5.4902401 -4.6395998
-119.81908 -5.2523251 0.35949701
-108.44926 -5.243114 0.222311
-103.60839 -5.3442898 0.25959
-103.37619 -5.2104149 0.262261
-104.87241 -5.3853822 -1.426895
-104.01646 -5.3779159 -1.940028
-104.56295 -5.3098741 -2.213078
-106.11037 -5.3553681 -2.5656631
-104.24133 -5.2217622 -2.445858
-103.83612 -5.349515 -2.472337
-104.58438 -5.3712392 -2.6310649
-103.10778 -5.3220811 -3.9210441
-119.43782 -5.0370302 0.367203
-105.39298 -5.1100421 0.23499399
-104.22883 -5.00666 0.201371
-103.0118 -5.0549579 0.26017201
-104.77748 -5.0456729 -1.39551
-104.90869 -5.1459308 -1.405035
-114.98216 -5.0107288 -1.799606
-103.6656 -5.181653 -1.918103
-104.25201 -5.0347471 -2.5552969
-105.01527 -5.0818429 -3.2837319
-103.54681 -5.0177689 -3.204515
-103.89893 -5.1964459 -3.9904661
-104.16827 -5.0654678 -4.7582059
-102.86183 -4.9476838 0.26454899
-102.4788 -4.9414868 0.243811
-102.09167 -4.9068871 0.226327
-109.52374 -4.8700218 0.045694001
-104.3024 -4.8354831 -0.345449
-104.32193 -4.809402 -0.57076001
-114.11942 -4.984592 -1.905894
-103.98699 -4.9246478 -2.2607429
-106.41424 -4.9216208 -2.537221
-103.93178 -4.944581 -2.567205
-105.83501 -4.9889288 -2.698982
-103.8414 -4.9887791 -3.1030979
-103.83071 -4.974524 -3.3357251
-103.41611 -4.926672 -3.90523
-106.44835 -4.7440901 0.317909
-104.14203 -4.7384181 0.11511
-103.85475 -4.7366571 0.104703
-101.72569 -4.705482 0.157987
-101.48483 -4.605567 0.15881599
-104.21719 -4.654922 -0.30399701
-109.68319 -4.6552348 -0.67241102
-104.22422 -4.6830258 -1.045188
-106.31355 -4.6044788 -1.805149
-104.07806 -4.6803842 -1.803537
-105.26932 -4.6873589 -2.576992
-104.18055 -4.6702242 -2.4509039
-103.88012 -4.7443738 -2.5776589
-103.78522 -4.6529608 -3.0994561
-103.48553 -4.6843729 -3.152355
-103.57132 -4.661366 -3.2943671
-114.96721 -4.524858 0.20442
-109.3943 -4.539845 0.077234998
-109.41541 -4.5459638 -0.133114
-109.38934 -4.5508418 -0.134582
-102.8744 -4.4961338 -0.154173
-114.97534 -4.404213 -0.73724401
-109.43852 -4.5178618 -0.63373703
-115.02749 -4.453712 -0.86407
-109.39807 -4.481051 -0.96338898
-106.26704 -4.5750771 -1.356004
-109.69084 -4.5926518 -1.47471
-104.17094 -4.5746689 -1.449916
-109.48929 -4.5526819 -1.852643
-104.53935 -4.4689651 -1.8178281
-104.14422 -4.4723821 -2.3037381
-104.51918 -4.469347 -2.5349989
-106.10173 -4.525279 -3.3806281
-114.96103 -4.2910442 0.13675199
-109.53359 -4.2031932 0.082244001
-109.51477 -4.2336278 -0.095487997
-104.12158 -4.3168478 -0.089492999
-102.62007 -4.2667699 -0.232733
-114.87167 -4.2337132 -0.57830697
-109.48368 -4.3067341 -0.64035898
-114.86102 -4.2366309 -0.892914
-109.45709 -4.23001 -0.93703598
-104.45103 -4.3819952 -1.6066231
-104.20581 -4.398231 -1.606497
-103.91395 -4.3086071 -1.7967449
-104.65194 -4.3305092 -2.3815069
-104.65716 -4.3699241 -2.4389291
-104.05905 -4.2110028 -2.407949
-103.85186 -4.3284359 -2.4120281
-103.74518 -4.3846679 -2.9901559
-103.35863 -4.2660179 -3.036598
-104.15652 -4.3556118 -3.337002
-103.45211 -4.3650379 -3.229239
-109.53102 -4.2668982 -3.618819
-104.98205 -4.3837719 -3.858253
-104.06122 -4.3355212 -3.868542
-103.77106 -4.3020449 -3.8735621
-103.52162 -4.3791871 -3.8140531
-109.57999 -4.2332249 -4.3368778
-101.3568 -4.3987389 -5.2057729
-103.72315 -4.1993022 -0.16877501
-101.89667 -4.152389 -0.148295
-102.97823 -4.0932431 -0.30727899
-102.27377 -4.176476 -0.234203
-106.02822 -4.1091161 -1.591403
-108.90063 -4.0585408 -2.5839441
-103.71333 -4.1565409 -3.2619679
-102.6977 -4.0316639 -5.297709
-115.33303 -3.882674 0.184236
-103.71115 -3.982111 -0.31628901
-102.61114 -3.9769161 -0.35262999
-103.121 -3.856318 -0.59743601
-103.50619 -3.8025441 -2.9382341
-105.86024 -3.986979 -3.3251929
-106.14452 -3.898036 -3.4073269
-106.05042 -3.953172 -3.903652
-104.96022 -3.9160111 -3.9048131
-104.78883 -3.8002911 -4.0981359
-103.32522 -3.640233 -0.763901
-106.15692 -3.620882 -1.794188
-105.73447 -3.6940341 -1.729381
-104.55214 -3.638123 -1.738513
-103.95267 -3.7359819 -2.337712
-105.36359 -3.6725931 -3.1929009
-103.72672 -3.6516161 -3.08605
-104.58341 -3.606837 -3.2284751
-104.90674 -3.707381 -4.0329051
-104.10976 -3.6838269 -4.7917771
-105.69716 -3.7926841 -4.9533381
-103.07641 -3.572506 -0.76015002
-102.77318 -3.496706 -0.75624502
-103.32171 -3.57441 -0.82240802
-103.09942 -3.4718599 -0.814457
-105.77306 -3.545563 -1.566588
-105.48475 -3.5964091 -1.539171
-105.65437 -3.5555911 -1.647884
-106.07289 -3.4739859 -2.3484111
-106.04225 -3.4550569 -2.4005091
-103.65517 -3.598217 -2.9306569
-104.71381 -3.466285 -3.033813
-106.13251 -3.4619081 -3.797766
-104.52986 -3.4396801 -3.804987
-104.04772 -3.5232799 -4.7148652
-104.49834 -3.200352 -1.554029
-113.82315 -3.3349781 -1.747952
-105.30119 -3.2166221 -1.747237
-104.88184 -3.2813611 -1.749251
-105.77749 -3.293829 -2.2488019
-104.17433 -3.386411 -2.277025
-104.55937 -3.324312 -4.6512008
-111.41243 -3.0308759 0.357393
-100.97438 -3.086102 -0.053392
-105.22813 -3.0771711 -1.547964
-105.08317 -3.128896 -1.491919
-104.62234 -3.1329589 -1.489054
-105.03373 -3.0731659 -1.6467741
-104.64954 -3.162045 -1.651884
-104.26471 -3.0223861 -2.1631579
-104.57732 -3.0471649 -3.6744981
-104.38739 -3.0109961 -3.73716
-105.62524 -3.179229 -4.6251841
-100.85749 -2.8036599 0.012594
-101.33439 -2.9913721 -0.249744
-101.55445 -2.8502309 -0.55742699
-105.12636 -2.931808 -2.1266761
-104.53222 -2.958595 -2.1139109
-104.88755 -2.814548 -2.8465941
-104.63769 -2.946672 -2.929579
-112.66545 -2.605341 0.37426701
-110.7693 -2.7817941 0.36164799
-109.98433 -2.6284029 0.35031399
-101.87035 -2.7036901 -0.71548599
-105.09779 -2.7121141 -1.511977
-104.20204 -2.692158 -1.992901
-104.826 -2.6995771 -2.0079081
-104.23753 -2.632992 -2.0799141
-104.98694 -2.7232361 -3.7209401
-103.73541 -2.647923 -3.7736421
-101.31207 -2.4815271 -0.26083899
-101.48728 -2.5110531 -0.52210599
-104.96436 -2.470216 -2.8686559
-103.65249 -2.553185 -3.588136
-109.08604 -2.3636889 0.347985
-101.03992 -2.3858531 -0.063770004
-104.26897 -2.3794479 -1.969159
-113.76979 -2.257822 -3.5089951
-103.35831 -2.3670039 -3.559294
-104.12292 -2.3896241 -3.781147
-101.40028 -2.100101 -0.25457999
-103.81809 -2.002986 -2.3754311
-103.60187 -2.1858039 -2.74823
-104.88766 -2.105989 -3.816313
-110.10862 -1.862391 0.36609799
-103.72316 -1.99332 -2.740267
-114.23222 -1.954736 -3.508956
-103.73566 -1.9068789 -3.557251
-101.41887 -1.7575279 -0.133307
-116.3521 -1.367381 0.51466101
-115.89565 -1.326882 0.50292301
-118.63173 -1.055215 0.52208197
-110.53923 -1.188777 -3.2378571
-112.40288 -1.048611 -4.2756648
-101.65189 -0.87568599 -0.65930098
-110.17166 -0.880867 -3.1711011
-110.55779 -0.96329999 -4.1621289
-110.12857 -0.93990099 -4.1079869
-101.5031 -0.65359902 -0.32091799
-100.19393 -0.774014 -0.35139599
-103.702 -0.63885301 -0.50165898
-103.01525 -0.64379299 -0.510149
-101.52533 -0.60238999 -0.67660099
-103.29658 -0.62765402 -1.0638911
-101.68285 -0.698174 -1.103555
-101.52515 -0.67998898 -1.100894
-101.6841 -0.68100899 -1.38059
-101.58228 -0.68789101 -1.257807
-110.12289 -0.77398902 -3.1606901
-110.20621 -0.64223701 -4.0940971
-113.43964 -0.51089299 0.50862998
-101.5359 -0.49424899 0.021671999
-103.34012 -0.59135401 -0.14151099
-103.14149 -0.50681901 -0.208895
-103.39245 -0.554847 -0.62807101
-102.98055 -0.481709 -0.60451299
-103.11408 -0.41741201 -1.0849349
-101.50777 -0.52120602 -1.085593
-110.09904 -0.58863401 -3.927983
-109.54314 -0.46170801 -3.9273951
-117.83842 -0.39971599 0.56624401
-113.63478 -0.340132 0.059053
-103.12066 -0.345393 -0.44353101
-109.21967 -0.26757801 -1.248206
-116.17404 -0.090737998 0.54315197
-119.55219 -0.163523 -0.16155501
-119.50357 -0.020569 -0.45507199
-109.03361 -0.086328998 -1.055874
-103.04156 -0.193975 -1.06322
-100.93208 -0.121085 -1.106161
-107.03384 -0.022678001 -3.1519041
-115.92085 0.031374 0.548123
-119.35551 0.194892 -0.1278
-119.12801 0.178886 -0.208637
-107.86856 0.182491 -1.376515
-101.05685 0.114594 -1.2021199
-109.06974 0.16530401 -1.43047
-107.38185 0.122826 -2.2204399
-107.20936 0.178119 -3.1456859
-114.743 0.390095 0.15442701
-108.67081 0.25879699 -1.417333
-108.8042 0.34790999 -2.328727
-108.24576 0.32664001 -2.228977
-107.06816 0.328677 -3.050529
-119.62446 0.462143 0.120306
-109.93268 0.56240797 -0.50880998
-110.82219 0.44966099 -1.014739
-108.23715 0.543118 -1.324983
-107.8283 0.586972 -1.316753
-117.53615 0.67112702 0.23476499
-119.51303 0.63764399 -0.15571199
-117.53825 0.71816099 -0.10126
-116.23428 0.764759 -0.24989299
-116.22272 0.79647601 -0.41138199
-110.20723 0.67709601 -0.49358001
-115.42409 0.771694 -0.88803601
-110.15012 0.69205099 -0.98878503
-116.95488 0.93082398 0.250541
-115.25733 0.96124703 -0.40571901
-107.30614 0.93083203 -3.016382
-115.35754 1.150395 -0.38476801
-115.23737 1.034743 -1.014708
-103.82694 1.069755 -6.0916491
-104.30361 1.339471 -2.9048431
-104.08674 1.52297 -2.7401781
-103.91724 1.5238971 -2.7985139
-103.94657 1.536894 -2.8790219
-103.80691 1.581684 -3.51596
-116.41525 1.6055911 -1.187421
-105.68346 1.976778 0.54980898
-105.41451 1.99992 0.54456103
-106.25409 2.187243 0.48706099
-105.18898 2.0463121 0.54352599
-103.62544 2.0596621 0.49911201
-104.12316 2.0167999 -2.567996
-103.94364 2.1878819 -2.548315
-103.83713 2.1794069 -4.319313
-100.69366 2.272048 0.33981901
-100.29622 2.30861 0.333893
-103.96053 2.4107201 -2.8064449
-100.68034 2.426955 -4.8255548
-100.30696 2.538305 -6.3340001
-100.34256 2.7863979 0.047212001
-103.83925 2.658735 -2.7091081
-103.45854 2.729862 -3.5349481
-103.9313 2.752552 -3.712214
-108.98651 2.8861401 0.167135
-107.5361 2.9664609 0.155495
-107.12877 2.960604 0.149288
-105.62368 2.962523 0.12946101
-105.09545 2.856081 0.110931
-103.36583 2.9108701 0.095427997
-103.15501 2.8763599 0.131262
-102.75018 2.8225541 0.12072
-102.17285 2.8806219 0.078010999
-101.66111 2.8695281 0.114104
-100.14151 2.8334539 0.094584003
-101.41765 2.9974329 -3.529891
-102.38868 2.8963909 -5.813066
-108.02982 3.007782 0.166807
-106.54767 3.0153301 0.147433
-106.0488 3.0518041 0.144814
-104.46078 3.1243711 -0.046629
-101.7563 3.094337 -0.055144999
-100.68261 3.160253 -0.042270001
-101.75224 3.158139 -2.386641
-103.27495 3.007549 -2.592577
-101.83537 3.0618379 -2.4838591
-103.29346 3.0730669 -3.318943
-102.86206 3.184114 -3.4333031
-111.30904 3.3901789 0.096786
-110.47832 3.2489951 0.071129002
-101.51765 3.2777629 0.017208001
-100.41968 3.294847 0.02086
-100.00563 3.3368151 0.026355
-105.27931 3.2011509 -0.036144
-102.92315 3.35094 -0.043747
-102.51315 3.327183 -0.039363999
-102.14381 3.368324 -0.059441
-101.6407 3.3474891 -0.044693001
-101.0332 3.3539829 -0.059664998
-100.1858 3.32605 -0.027303001
-111.96307 3.2806189 -0.96926498
-111.30196 3.3656819 -1.173986
-111.72263 3.3880589 -1.9775881
-101.01344 3.273766 -5.640625
-109.02573 3.5029199 0.081465997
-108.76134 3.481039 0.075967997
-108.02409 3.5564561 0.075796001
-107.46217 3.5413461 0.067790002
-106.83403 3.4095571 0.046197001
-106.91113 3.439081 -0.011348
-104.21178 3.427418 -0.044881999
-101.34682 3.4608729 -0.066223003
-100.65791 3.4366469 -0.202039
-106.84986 3.5344961 -0.72884601
-107.17989 3.5271111 -0.86486602
-106.73673 3.5687661 -0.91354102
-112.33131 3.5024381 -1.07465
-110.99179 3.4711559 -1.160333
-107.33136 3.485445 -1.025702
-103.00238 3.4090459 -3.4292331
-109.40289 3.6701379 0.035804
-108.03923 3.7221389 0.026652001
-107.43496 3.7501831 0.02337
-105.36584 3.7951989 -0.101663
-101.86972 3.784584 -0.13135
-101.48824 3.7533319 -0.13773499
-106.69274 3.658808 -0.71597099
-109.39421 3.746578 -0.96161699
-107.26019 3.6699181 -0.910133
-106.73138 3.6638491 -1.026161
-111.19025 3.766628 -1.632037
-111.26031 3.710712 -1.882463
-100.94153 3.7658069 -4.1319509
-113.88803 3.995625 0.123774
-113.40793 3.9582591 0.113898
-112.92908 3.9087851 0.102757
-105.6758 3.8004069 -0.098318003
-104.41637 3.862469 -0.102257
-103.90604 3.842813 -0.108749
-101.06992 3.809227 -0.13425
-100.65723 3.858989 -0.131309
-100.22286 3.8237751 -0.085661002
-111.53856 3.8989961 -0.58572102
-101.29976 3.8981271 -0.70846999
-101.19395 3.888016 -0.77418399
-112.21146 3.9256721 -0.89832598
-101.2169 3.8839281 -0.82863802
-101.06072 3.921808 -0.87740999
-114.28098 3.9853401 -1.046285
-111.70495 3.8615 -1.033142
-111.37856 3.8684571 -1.0267971
-110.57586 3.8011391 -1.1235501
-106.85651 3.9494791 -1.0670919
-101.9722 3.975924 -1.599937
-101.98671 3.9299431 -1.726813
-101.40745 3.9953821 -2.3981459
-101.38038 3.8404329 -2.442173
-100.89664 3.8125989 -3.9540529
-119.9745 4.1073489 0.213717
-114.28641 4.0285091 0.014855
-114.30147 4.0484991 -0.089146003
-109.80322 4.1470528 -0.020126
-108.99356 4.1666069 -0.026031001
-106.99822 4.1262932 -0.99545401
-101.04559 4.0695939 -0.89660001
-101.90057 4.052608 -1.591413
-101.83229 4.1950741 -1.694746
-100.36051 4.1347332 -7.141984
-106.78185 4.2291889 -0.040022001
-103.34258 4.387404 -0.15027399
-103.065 4.3909979 -0.151821
-101.69086 4.336359 -0.167252
-111.65221 4.3184862 -0.61407202
-111.30756 4.269556 -0.68419701
-101.23148 4.3286529 -0.77320403
-111.56766 4.2200952 -0.91505897
-101.28735 4.2119541 -0.84080201
-111.77823 4.3131652 -1.004957
-101.34492 4.26125 -1.55812
-102.04003 4.262867 -1.695158
-101.35445 4.2771158 -1.656535
-110.83627 4.250895 -1.964694
-101.39374 4.2923179 -2.3766539
-101.43298 4.2580318 -2.4148321
-101.43893 4.250402 -3.207499
-100.60887 4.3690782 -3.941781
-102.82776 4.5272422 -0.137964
-107.51491 4.437263 -0.778534
-101.25728 4.514853 -0.70848
-119.87482 4.568738 -0.89671201
-101.21381 4.4875598 -0.85643101
-101.34286 4.5136018 -1.549192
-101.33124 4.5486622 -1.651763
-101.34932 4.475534 -2.361757
-100.47685 4.4081249 -3.930388
-107.49232 4.711997 -0.081446998
-106.78538 4.78122 -0.079612002
-106.38794 4.788753 -0.081987001
-105.64055 4.7090011 -0.096844003
-104.72891 4.666224 -0.108625
-111.53198 4.7080188 -0.78581703
-110.9939 4.6463652 -0.65008199
-107.61568 4.6403689 -0.759471
-111.40945 4.609386 -0.85583001
-107.64623 4.6663251 -0.91045803
-107.63766 4.718009 -1.858876
-111.68135 4.9937391 -0.91984302
-111.35687 4.827044 -1.930181
-111.38956 5.09444 -0.0044880002
-118.49547 5.9127169 0.15521
-117.03159 5.8289208 0.13094699
-116.05945 5.8066902 -3.010577
-104.5557 10.622467 0.002017
-107.20917 10.797791 -0.025903
-117.30634 10.738821 -4.2680969
-105.55935 10.827242 0.01341
-108.0657 11.699987 -2.1980109
-105.90771 11.65156 -6.2076802
-107.87074 11.835724 -2.1624889
-107.52007 11.980709 -3.1347899
-105.76498 11.866327 -3.0139971
-116.52809 12.186457 0.043099001
-116.55371 12.239193 -0.30198801
-116.59386 12.267231 -1.1811481
-108.83344 12.256357 -3.175422
-107.45266 12.430478 -2.0124769
-112.4073 12.756674 -1.193295
-108.6052 12.751099 -2.1489861
-104.51139 12.789482 -3.1591489
-112.08464 12.923174 -1.008227
-112.47737 12.960649 -1.4074399
-116.27051 12.920862 -2.4566159
-110.16094 13.130976 -0.94307101
-112.15467 13.006813 -1.239174
-110.57114 13.288763 -0.94049299
-110.15044 13.218216 -0.94125199
-109.62166 13.336631 -1.0405689
-109.22243 13.343709 -1.035926
-106.15158 13.352584 -1.880801
-108.60893 13.22541 -2.0037911
-112.22558 13.422503 -0.97370303
-111.70572 13.434687 -1.091622
-111.50052 13.478495 -1.1050839
-112.013 13.536024 -1.341884
-108.45612 13.50312 -1.978978
-108.276 13.461472 -1.9840699
-111.70859 13.586617 -2.234915
-116.42548 13.420355 -2.428328
-104.02486 13.933876 0.058711
-104.12631 13.886261 -0.713898
-109.26918 13.915188 -0.86173898
-116.75132 13.924112 -1.167786
-109.49104 14.011683 0.128198
-109.65103 14.090277 -0.92794102
-104.04134 14.003909 -0.99302298
-116.65721 14.038391 -1.155441
-108.58617 14.154892 -1.941259
-115.20798 14.303965 0.162155
-115.19466 14.292658 -0.118237
-115.0078 14.258524 -1.392285
-107.97898 14.271509 -1.882699
-116.13876 14.357151 -2.2488151
-119.02059 14.572629 0.091233
-118.96421 14.593616 -0.076742001
-112.9586 14.424356 -0.050037999
-109.19222 14.412123 -0.72770703
-116.70094 14.582207 -0.992993
-109.12418 14.5578 -0.80515498
-119.03703 14.43655 -1.188161
-116.83901 14.467287 -1.124072
-119.37259 14.482167 -1.3829941
-111.37439 14.739809 0.064856999
-109.30195 14.605702 -0.875067
-119.24068 14.675028 -1.049015
-107.72035 14.655816 -1.841961
-101.79984 14.640511 -3.6789391
-110.28537 14.849022 -0.930323
-119.17885 14.852912 -1.347309
-112.60606 15.122239 0.088555001
-111.66605 15.168644 0.105105
-109.83965 15.019195 -0.90310401
-111.63466 15.341808 0.123252
-109.81927 15.368628 -0.75219899
-109.74948 15.329958 -0.85248399
-109.35935 15.229217 -0.87150198
-108.70547 15.551073 0.44966099
-108.70189 15.509617 0.26264501
-103.16656 16.453474 -3.720706
-108.3067 16.641603 0.43503299
-108.31416 17.700912 -3.187458
-105.73299 19.728506 0.66053897
-101.43533 -17.569206 -9.5180426
-114.39055 -16.916029 -10.611341
-101.35108 -16.4771 -0.68007499
-101.27609 -16.487305 -1.044594
-101.28732 -16.448288 -1.5864069
-101.26413 -16.447805 -1.856387
-101.31224 -16.437563 -2.2726631
-101.2635 -16.442158 -2.788116
-101.32451 -16.424854 -3.05812
-101.37648 -16.426712 -3.3982241
-118.35054 -16.406044 -8.0504856
-104.96591 -16.206551 -0.62814701
-101.2598 -16.207739 -0.72751403
-103.0947 -16.220514 -1.096388
-101.23003 -16.21176 -1.152945
-103.26672 -16.354858 -1.246559
-101.28571 -16.24601 -1.4483989
-103.08147 -16.20997 -2.1741419
-103.27461 -16.323763 -2.8348899
-101.28148 -16.205029 -3.0497749
-101.19554 -16.289434 -3.202667
-103.24371 -16.290947 -3.6337709
-103.09556 -16.244652 -3.714628
-101.29782 -16.31205 -3.6613021
-101.03844 -16.356297 -3.6040549
-101.31883 -16.273552 -4.0487671
-103.2678 -16.332031 -4.399116
-101.11916 -16.373833 -4.473351
-101.26568 -16.249529 -4.699666
-101.29478 -16.227747 -5.062695
-101.22014 -16.275032 -5.4772072
-101.27623 -16.264698 -5.7368412
-103.25346 -16.246149 -6.0499601
-101.17056 -16.379471 -6.0798531
-101.22972 -16.256937 -6.2948771
-101.2686 -16.284645 -6.5231051
-100.97166 -16.310955 -7.3445468
-104.19523 -16.201973 -7.5329142
-102.28499 -16.26881 -7.533051
-101.77207 -16.260843 -7.4549112
-100.68478 -16.311554 -7.5610309
-100.17707 -16.317089 -7.5558629
-101.32341 -16.264568 -7.7580228
-101.0262 -16.278156 -7.759922
-100.61606 -16.292206 -7.750937
-102.68865 -16.208927 -7.887197
-102.12226 -16.253109 -7.897397
-100.20319 -16.282684 -7.8968382
-102.99539 -16.203293 -8.1228199
-102.60046 -16.209679 -8.1428785
-102.20737 -16.217075 -8.1034317
-101.40553 -16.231659 -8.1791306
-101.05399 -16.250092 -8.1686926
-100.61861 -16.270437 -8.121974
-100.26427 -16.31316 -8.1660042
-101.79884 -16.241194 -8.2358541
-102.23362 -16.231506 -8.5934238
-101.84673 -16.237595 -8.5096626
-100.97684 -16.256847 -8.541605
-100.61875 -16.267532 -8.5760403
-100.13725 -16.278564 -8.5158539
-102.61999 -16.210609 -8.6365337
-100.49327 -16.268032 -8.6263351
-108.58558 -16.109137 -0.492955
-118.16618 -16.157383 -0.72269601
-103.09832 -16.180408 -0.68409401
-108.74187 -16.187286 -0.913647
-106.78123 -16.162035 -0.97883999
-101.19293 -16.135128 -0.837713
-104.94521 -16.133207 -1.113053
-106.76556 -16.053633 -1.249367
-104.96236 -16.167366 -1.480497
-101.04071 -16.075562 -1.47008
-101.2186 -16.11277 -1.7978311
-108.74649 -16.170849 -1.883516
-104.88293 -16.089003 -1.928952
-104.95425 -16.14986 -2.11147
-101.26891 -16.164843 -2.272403
-103.06328 -16.09341 -2.6976349
-101.22818 -16.132267 -2.6562929
-104.9904 -16.154705 -2.9523079
-103.11737 -16.128395 -2.926733
-103.06471 -16.10741 -3.5856259
-101.28542 -16.178782 -3.5739801
-103.07228 -16.128386 -4.3463311
-105.0043 -16.081707 -4.485569
-102.99472 -16.036127 -5.0083899
-101.23405 -16.110199 -6.905632
-105.19437 -16.172813 -7.5554628
-107.87611 -16.041502 -7.6913881
-106.63287 -16.112843 -7.675539
-106.27895 -16.129545 -7.695179
-105.86328 -16.137606 -7.640739
-105.09645 -16.169798 -7.612185
-104.1925 -16.108891 -7.9436212
-103.34449 -16.104317 -7.9062462
-102.97707 -16.196888 -7.8236151
-107.56781 -16.005203 -8.3837337
-106.23156 -16.07077 -8.2929401
-105.40115 -16.104279 -8.3018036
-104.96186 -16.128719 -8.3135452
-104.61247 -16.153965 -8.2918777
-106.31806 -16.069439 -8.5221043
-105.81712 -16.081009 -8.439332
-108.16576 -16.014439 -8.6620579
-103.35675 -16.14859 -8.646059
-101.43444 -16.1758 -8.7087746
-101.47472 -16.152073 -8.8292637
-118.61842 -16.079195 -10.561165
-106.58499 -15.898792 -0.56076998
-118.18233 -15.872145 -0.66708899
-101.18843 -15.807783 -0.83859098
-108.57042 -15.932412 -1.008298
-106.74754 -15.813724 -1.059792
-101.23684 -15.800906 -1.147278
-108.55565 -15.846761 -1.308014
-106.73769 -15.82238 -1.2489001
-101.27188 -15.817662 -1.4909019
-118.16414 -15.845924 -1.759989
-108.57014 -15.918075 -1.92327
-104.89378 -15.803121 -1.94366
-102.1796 -15.824722 -1.838437
-104.92093 -15.859204 -2.2356191
-101.19253 -15.886553 -2.4079609
-106.74402 -15.815501 -2.8987911
-101.22739 -15.840369 -3.100332
-101.26511 -15.840753 -3.5551281
-101.276 -15.848873 -3.9386041
-101.26826 -15.819014 -4.3112912
-106.75381 -15.811871 -4.5187221
-104.92638 -15.914715 -4.4959879
-101.23657 -15.842911 -4.6833119
-101.23099 -15.824007 -5.400806
-103.0789 -15.874471 -5.9021268
-104.91116 -15.869923 -6.050108
-101.23872 -15.831362 -6.1699939
-103.06676 -15.847746 -6.976594
-100.69306 -15.882853 -7.004436
-106.9989 -15.942008 -7.5748978
-108.98775 -15.926244 -7.7943578
-108.59966 -15.949209 -7.7450671
-108.21587 -15.956862 -7.7017951
-109.717 -15.888777 -7.8940859
-111.07651 -15.85448 -8.1395407
-110.67288 -15.871828 -8.0876522
-107.01084 -15.974264 -8.3661709
-106.51865 -15.977105 -8.3280897
-106.19992 -15.983034 -8.2792711
-111.70438 -15.818752 -8.5390882
-110.90163 -15.864007 -8.4210405
-108.63992 -15.907001 -8.612608
-118.80766 -15.888254 -10.13999
-118.22729 -15.733377 0.120501
-110.04299 -15.728466 -0.417988
-108.57904 -15.77544 -0.45465299
-104.641 -15.679659 -0.50319099
-102.16679 -15.641914 -0.57776499
-101.83653 -15.653339 -0.590581
-114.0565 -15.705435 -0.72608697
-104.91737 -15.77184 -0.63005501
-103.07254 -15.739713 -0.70999599
-101.25056 -15.750832 -0.72887701
-114.08086 -15.61942 -0.89619702
-101.73657 -15.608852 -0.81417602
-118.16478 -15.772554 -1.118683
-112.24252 -15.661289 -1.024534
-110.42265 -15.728271 -1.087505
-110.38184 -15.631443 -1.058645
-104.91342 -15.78746 -1.088191
-103.07818 -15.67844 -1.063843
-114.02164 -15.617781 -1.274217
-103.91727 -15.618704 -1.341795
-118.2713 -15.615812 -1.578104
-104.9072 -15.775797 -1.4742841
-103.02074 -15.718275 -1.5006419
-102.58815 -15.754585 -1.539065
-102.20901 -15.771684 -1.530742
-101.894 -15.672219 -1.4072419
-101.03104 -15.715329 -1.4315979
-100.58952 -15.74409 -1.448065
-100.14578 -15.782061 -1.458068
-114.03728 -15.673422 -1.805115
-112.22668 -15.702337 -1.894114
-110.41357 -15.708114 -1.9274909
-110.36726 -15.658212 -1.898906
-105.82919 -15.617474 -1.985359
-103.89906 -15.692934 -1.936198
-103.0287 -15.669549 -1.828099
-102.69023 -15.780241 -1.950245
-101.22925 -15.760108 -1.870199
-108.58091 -15.787516 -2.187777
-106.71515 -15.774724 -2.106868
-103.06995 -15.708138 -2.1544371
-102.58276 -15.779627 -2.0713
-102.27926 -15.782949 -2.069068
-101.26023 -15.752505 -2.2650621
-118.17101 -15.765537 -2.7137949
-106.74045 -15.703323 -2.7215879
-104.89825 -15.788293 -2.7440131
-103.07154 -15.753996 -2.771364
-101.23053 -15.732708 -2.6781471
-118.18313 -15.795121 -2.867409
-110.40623 -15.72626 -2.8447659
-104.91307 -15.782527 -2.878051
-103.08868 -15.736404 -2.9173701
-108.54321 -15.765299 -3.594789
-106.72668 -15.70776 -3.5562811
-104.9003 -15.66665 -3.504458
-103.07389 -15.697004 -3.581598
-108.54448 -15.716093 -3.7172611
-106.75038 -15.778298 -3.682765
-104.92316 -15.750298 -3.683882
-103.08765 -15.766617 -3.7399909
-118.17263 -15.792039 -3.8881831
-104.90018 -15.791275 -4.3134222
-103.07973 -15.693045 -4.363687
-103.09035 -15.723993 -4.4496741
-110.37504 -15.67876 -4.6625319
-104.89107 -15.764851 -5.0057292
-101.24303 -15.746813 -5.014267
-101.09534 -15.626372 -5.0801172
-100.86397 -15.621613 -5.0633912
-100.63043 -15.653467 -5.0487428
-100.22795 -15.669638 -5.021172
-104.6786 -15.691398 -5.2169089
-104.39907 -15.696387 -5.276124
-103.05244 -15.634732 -5.2199392
-104.55419 -15.685867 -5.7478652
-101.23203 -15.750935 -5.7969942
-104.88718 -15.769823 -5.8830619
-108.52781 -15.610481 -6.111352
-101.25163 -15.777479 -6.5700979
-106.71292 -15.643044 -6.7630892
-101.21091 -15.713978 -6.9157691
-111.78003 -15.797714 -8.1532164
-113.78322 -15.743771 -8.2271652
-113.38331 -15.715361 -8.3590412
-112.91628 -15.741569 -8.2992439
-113.30959 -15.740754 -8.7764549
-112.50328 -15.788437 -8.6580181
-101.48006 -15.789662 -8.7660522
-118.24077 -15.599554 0.47466099
-106.68105 -15.460846 -0.54537398
-103.10271 -15.448589 -0.59848797
-101.34285 -15.443024 -0.58498102
-101.04105 -15.530359 -0.50050497
-118.26522 -15.425835 -0.60379201
-112.20831 -15.436301 -0.72197199
-104.92844 -15.436613 -0.66428399
-103.08353 -15.482386 -0.72450799
-101.29306 -15.534822 -0.75981498
-101.23663 -15.575993 -0.90190798
-118.28018 -15.489536 -1.063328
-108.53642 -15.437938 -1.0780489
-106.73402 -15.471523 -1.056296
-104.90429 -15.505553 -1.037709
-103.11359 -15.488802 -1.10509
-101.22375 -15.576271 -1.155876
-108.47439 -15.451066 -1.377661
-104.93152 -15.450305 -1.340284
-103.71094 -15.593926 -1.358412
-103.54927 -15.573919 -1.370751
-103.10603 -15.51865 -1.338277
-101.29853 -15.533485 -1.37927
-118.26855 -15.436018 -1.572361
-107.86137 -15.426033 -1.435709
-107.43129 -15.566023 -1.46117
-106.73728 -15.454365 -1.4156621
-106.28908 -15.516916 -1.472622
-105.8971 -15.559168 -1.48364
-103.09006 -15.46593 -1.555429
-101.28754 -15.543236 -1.491676
-118.25513 -15.410245 -1.746677
-101.24751 -15.549398 -1.684566
-112.20853 -15.412876 -1.865647
-108.55228 -15.424973 -1.9515539
-106.6178 -15.465306 -1.922639
-106.21679 -15.55629 -1.952635
-105.88934 -15.552433 -1.951982
-104.88806 -15.479265 -1.96736
-103.11494 -15.462147 -1.936538
-101.33697 -15.503534 -1.962141
-112.23329 -15.49111 -2.0891399
-106.71258 -15.471208 -2.112365
-104.90422 -15.427149 -2.0498121
-103.10482 -15.462234 -2.0930171
-101.29282 -15.507683 -2.1372271
-108.56599 -15.474246 -2.2362461
-101.29182 -15.55436 -2.2557909
-108.5407 -15.426494 -2.715894
-104.89992 -15.479248 -2.7290061
-103.08679 -15.487443 -2.7328219
-101.2881 -15.520927 -2.7749059
-118.24864 -15.471172 -2.8096809
-114.03069 -15.410356 -2.838861
-110.36642 -15.441369 -2.881762
-104.91832 -15.469139 -2.8599639
-103.11738 -15.448385 -2.882292
-101.27338 -15.527338 -2.9406819
-100.66879 -15.519477 -3.3923731
-100.30328 -15.512787 -3.39501
-100.11537 -15.479061 -3.3878651
-106.70624 -15.408907 -3.48226
-104.90755 -15.473551 -3.5245891
-103.74727 -15.409069 -3.4429021
-103.08109 -15.430998 -3.5648379
-102.4225 -15.462292 -3.4216659
-106.73465 -15.422781 -3.6753759
-104.91789 -15.477299 -3.682018
-103.0914 -15.450636 -3.7016251
-101.62799 -15.516412 -3.667201
-106.71844 -15.448262 -4.3143492
-104.89397 -15.482845 -4.34305
-103.09776 -15.405329 -4.3461518
-104.90094 -15.538856 -4.5216889
-103.10444 -15.405333 -4.5559311
-101.3514 -15.420738 -4.5796428
-118.25951 -15.462714 -4.7463951
-100.42561 -15.457286 -4.688272
-118.23961 -15.499733 -4.9340739
-106.36919 -15.400308 -5.0681891
-104.8537 -15.454026 -5.0697179
-104.79251 -15.454187 -5.1097708
-102.99988 -15.459223 -5.1214948
-102.53464 -15.530409 -5.0978742
-101.72326 -15.509807 -5.075212
-103.09045 -15.417132 -5.381393
-101.23267 -15.43083 -5.3542881
-101.34585 -15.401447 -5.51438
-103.05482 -15.512785 -5.8432379
-106.71224 -15.422862 -6.1211081
-103.0619 -15.470263 -6.3072119
-103.0658 -15.442789 -6.5601978
-101.31461 -15.433118 -6.5930409
-119.85675 -15.533525 -6.9665198
-104.89143 -15.402103 -6.8696361
-101.00326 -15.4278 -7.025146
-100.56098 -15.418689 -7.0759091
-100.22733 -15.479639 -7.0054278
-118.92962 -15.416401 -10.248399
-115.96608 -15.525354 -12.172363
-118.26801 -15.394974 0.094825
-100.87625 -15.251642 -0.234043
-106.47889 -15.288134 -0.59002697
-103.49364 -15.282526 -0.53589499
-114.04489 -15.353641 -0.73895401
-110.39035 -15.317701 -0.65226698
-106.36258 -15.265631 -0.72511202
-119.99392 -15.26547 -0.82689798
-114.06483 -15.389963 -0.87375498
-110.37946 -15.365123 -0.93943399
-112.23141 -15.394054 -1.0194269
-110.40472 -15.269272 -1.07485
-108.56907 -15.277514 -1.143827
-104.921 -15.373505 -1.111077
-114.05795 -15.357986 -1.249936
-111.42223 -15.214437 -1.306712
-110.38441 -15.247737 -1.394982
-108.55672 -15.244469 -1.212073
-106.74227 -15.350929 -1.24157
-112.14648 -15.204764 -1.437505
-109.32876 -15.39901 -1.405432
-109.03271 -15.395725 -1.4137191
-108.19376 -15.358614 -1.47023
-108.28094 -15.293384 -1.76754
-114.04314 -15.368991 -1.827479
-110.37305 -15.314011 -1.887767
-106.77094 -15.302691 -1.98585
-110.3808 -15.299333 -2.1330321
-118.25724 -15.34551 -2.72856
-106.72849 -15.376793 -2.7162299
-104.90056 -15.396526 -2.7417071
-108.54651 -15.35468 -2.8415101
-107.86743 -15.224002 -2.8191171
-105.0121 -15.334658 -2.8180239
-103.38068 -15.383394 -3.398037
-101.48965 -15.296076 -3.37977
-106.21347 -15.255478 -3.440557
-105.84271 -15.270506 -3.4349
-105.48839 -15.292961 -3.430037
-104.49709 -15.336537 -3.4150889
-101.47151 -15.347734 -3.518779
-108.55783 -15.27906 -3.695951
-106.71722 -15.289787 -3.676455
-101.491 -15.344289 -3.645474
-118.24988 -15.362141 -3.841877
-110.35904 -15.325916 -4.3863759
-108.55353 -15.380038 -4.3428812
-104.94457 -15.340232 -4.3599439
-101.40118 -15.389301 -4.2969131
-107.82722 -15.309462 -4.5487719
-106.72601 -15.378588 -4.502553
-104.90632 -15.344391 -4.4168892
-101.43391 -15.318473 -4.4467378
-108.53671 -15.267922 -5.1601701
-107.78144 -15.345377 -5.1402001
-101.3583 -15.384328 -5.0433459
-106.70317 -15.293415 -5.3033891
-114.01057 -15.218191 -5.5836172
-112.17783 -15.332645 -5.5131688
-101.49301 -15.261889 -5.5245218
-114.01025 -15.328506 -5.710289
-101.34735 -15.363622 -5.784214
-118.23892 -15.358901 -5.8272538
-108.55392 -15.393481 -5.9774208
-110.40148 -15.34659 -6.1237378
-108.51984 -15.378552 -6.186646
-101.34677 -15.389791 -6.3602328
-104.95067 -15.276089 -6.5370078
-106.72228 -15.378307 -6.7033281
-110.28445 -15.260624 -6.9856482
-103.04265 -15.326172 -7.0218759
-101.40633 -15.347217 -7.0431471
-101.3828 -15.314204 -7.0456939
-101.39014 -15.25612 -7.8055182
-118.86627 -15.388382 -9.0116444
-117.84232 -15.386669 -11.504463
-117.43955 -15.231963 -11.408707
-103.68733 -15.123755 -0.164601
-101.02498 -15.135083 -0.064225003
-108.06039 -15.004647 -0.28011101
-106.53008 -15.049749 -0.37156501
-105.37282 -15.050357 -0.393078
-105.12363 -15.06762 -0.22996201
-103.44216 -15.16114 -0.24547701
-103.00555 -15.126472 -0.216639
-102.60945 -15.172941 -0.274528
-106.15175 -15.031345 -0.44616899
-105.42725 -15.061619 -0.44971499
-114.03979 -15.12797 -0.74890101
-112.25989 -15.079163 -0.718799
-111.73166 -15.009583 -0.62623101
-119.94577 -15.024176 -0.82370698
-114.05214 -15.085989 -0.87967402
-112.24626 -15.082067 -0.94044697
-110.41002 -15.079926 -0.958318
-118.29484 -15.045537 -1.086139
-108.21078 -15.190144 -1.031706
-114.06795 -15.083551 -1.249317
-112.23686 -15.07412 -1.334275
-118.25288 -15.056493 -1.771325
-110.38686 -15.118322 -1.6360151
-112.22292 -15.125783 -1.815056
-118.27839 -15.014782 -2.154918
-114.04555 -15.046478 -2.1777389
-110.38124 -15.139458 -2.1657419
-107.87828 -15.193745 -2.139328
-118.25545 -15.053251 -2.7524559
-108.55342 -15.168166 -2.6907799
-107.88506 -15.171198 -2.863791
-118.27216 -15.051609 -3.2068009
-114.04395 -15.118944 -3.571224
-108.56219 -15.175097 -3.525228
-107.85874 -15.158878 -3.461581
-106.74017 -15.198938 -3.4931321
-118.25023 -15.045395 -3.8228109
-108.58086 -15.156723 -4.3596778
-108.51695 -15.161448 -4.5082049
-118.23999 -15.059465 -4.931386
-113.94319 -15.016796 -5.1840639
-108.56903 -15.072772 -5.1780491
-112.19592 -15.032109 -5.4141631
-110.36314 -15.124804 -5.7494531
-106.75674 -15.197886 -5.855268
-114.0431 -15.045972 -6.4768429
-110.36597 -15.146694 -6.519278
-110.18872 -15.014459 -6.9862409
-108.54979 -15.077817 -6.8963232
-109.77737 -15.119005 -7.0400391
-101.42358 -15.187937 -7.6658502
-101.45892 -15.155247 -8.1015978
-118.95622 -15.08287 -9.5381117
-117.42736 -15.090097 -11.414337
-118.27007 -14.87779 0.54032099
-118.28133 -14.940372 0.089296997
-102.37431 -14.96269 0.049957
-111.87609 -14.819332 -0.171141
-111.38556 -14.826531 -0.075827003
-111.11586 -14.826384 -0.018819001
-110.56287 -14.835101 -0.025087999
-109.09637 -14.873495 -0.26111099
-107.70537 -14.975843 -0.28675601
-107.37267 -14.98155 -0.30366799
-106.89108 -14.971106 -0.34963799
-111.34628 -14.98145 -0.475243
-118.25969 -14.984746 -0.61514401
-114.44559 -14.821413 -1.802215
-114.45773 -14.877867 -2.0187819
-118.24405 -14.975952 -2.7178309
-118.2719 -14.90418 -3.1531661
-118.26297 -14.874267 -3.674104
-118.26212 -14.956324 -4.1886139
-118.24573 -14.952066 -5.3066301
-114.02106 -14.980025 -5.5272322
-118.24578 -14.997417 -5.799891
-118.25288 -14.843447 -6.241415
-117.25302 -14.865381 -8.2226686
-113.80737 -14.866845 -11.454023
-118.24819 -14.684214 0.253748
-113.27763 -14.763758 0.055569999
-112.15855 -14.707331 -0.24068201
-111.72543 -14.695318 -0.27147999
-110.83854 -14.762634 -0.317274
-112.32088 -14.71512 -0.497031
-111.11497 -14.795641 -0.498826
-118.27982 -14.658573 -3.6679201
-118.25632 -14.775906 -3.945303
-118.25858 -14.770983 -4.2153702
-118.25268 -14.776175 -5.2167382
-117.75124 -14.682058 -9.1485558
-117.59818 -14.624278 -10.372074
-111.86256 -14.795465 -11.22205
-119.92743 -14.532562 0.352525
-119.50937 -14.551558 0.32811099
-101.88806 -14.468179 -0.074340999
-100.25362 -14.453462 -0.72202301
-100.11902 -14.485594 -0.75651097
-114.45799 -14.585666 -1.6226161
-117.3758 -14.460196 -8.7287807
-119.07664 -14.578851 -9.4038525
-117.12287 -14.530079 -10.174429
-113.11629 -14.547342 -10.496769
-111.98251 -14.551719 -10.979481
-118.21516 -14.399661 0.445995
-100.20956 -14.253649 -0.56087101
-100.03489 -14.234388 -0.772425
-100.13786 -14.226815 -0.84275198
-113.25014 -14.393013 -10.249755
-118.72629 -14.345394 -10.505434
-100.24528 -14.067826 -0.112444
-107.59124 -14.105829 -0.22812501
-105.71098 -14.075571 -0.32124099
-102.14041 -14.109522 -0.29989201
-103.98187 -14.122612 -0.52577502
-102.10701 -14.081341 -0.599347
-100.28183 -14.058918 -0.69777399
-104.00703 -14.131071 -0.86101401
-102.13723 -14.130815 -0.819049
-116.77179 -14.112844 -8.8734112
-119.65773 -14.016983 -9.587513
-119.38174 -14.185226 -9.4161358
-112.53817 -14.12378 -11.06354
-106.92467 -13.837951 -0.026365999
-107.63823 -13.806684 -0.258118
-107.47443 -13.876748 -0.31084701
-105.89012 -13.824263 -0.37133399
-107.62823 -13.86677 -0.53888798
-105.80567 -13.931643 -0.438155
-104.06656 -13.882314 -0.456608
-102.04683 -13.996304 -0.42258599
-107.53379 -13.84824 -0.70789802
-107.50575 -13.854148 -0.95967102
-117.35023 -13.900496 -8.9805603
-112.27544 -13.899786 -10.151474
-112.2731 -13.833735 -10.859209
-117.67882 -13.681174 0.42312199
-106.28052 -13.635492 0.10152
-115.16867 -13.735404 -0.70840502
-111.99057 -13.788415 -9.0367165
-119.51427 -13.705856 -9.5186996
-111.81163 -13.795472 -9.9149923
-117.58667 -13.525319 0.44774199
-119.29504 -13.432528 0.33306101
-104.42341 -13.581228 -9.4284182
-111.80304 -13.453497 -9.9069748
-118.45403 -13.492679 -10.210508
-118.00056 -13.357158 0.42712
-118.64197 -13.30979 0.25844201
-119.70222 -13.359448 0.118074
-114.3337 -13.278435 0.047905002
-106.24292 -13.399144 0.118838
-105.1358 -13.309019 0.035801999
-114.4352 -13.34414 -0.133301
-114.33803 -13.258791 -0.187178
-115.18715 -13.38806 -0.39795101
-114.59714 -13.237713 -7.7361879
-119.87794 -13.395361 -8.2213106
-114.9203 -13.278141 -9.5173702
-113.77998 -13.226892 -10.292846
-113.19666 -13.350667 -11.109774
-115.73213 -13.277804 -11.577995
-117.70633 -13.04496 0.440795
-118.49493 -13.199879 0.39258701
-114.31554 -13.09362 0.21506201
-118.89519 -13.047921 0.13052
-114.37309 -13.155096 0.051881
-105.44119 -13.121439 -0.088711001
-111.4863 -13.103277 -9.0874319
-119.78669 -13.14686 -9.5113983
-111.64978 -13.045989 -9.7811022
-115.99115 -13.021124 -11.703206
-117.55214 -12.840581 0.46122199
-100.28676 -12.942623 -0.53906
-102.46114 -12.84828 -6.009119
-114.72704 -12.886215 -8.5369415
-119.50569 -12.904139 -9.4282656
-111.83956 -12.894457 -10.731319
-117.99495 -12.997453 -12.054977
-118.3006 -12.634299 0.28865001
-118.29697 -12.60598 0.111523
-107.82678 -12.701662 -0.28735599
-107.49406 -12.629484 -0.20400099
-103.17572 -12.643681 -0.26077399
-100.30598 -12.671281 -0.495713
-101.6146 -12.641249 -5.3598628
-102.43166 -12.602524 -5.9395852
-101.30403 -12.632362 -6.220418
-111.61536 -12.714832 -8.8842106
-114.22166 -12.613684 -9.5559053
-111.34218 -12.705397 -9.9185219
-113.15709 -12.734541 -10.360716
-118.3531 -12.443995 0.40102601
-114.35596 -12.486427 0.24562199
-113.26695 -12.590818 0.164566
-118.30536 -12.552967 -0.069945
-105.46722 -12.450998 -0.123836
-106.70415 -12.512358 -0.20490301
-100.25462 -12.599888 -0.32002801
-103.22258 -12.576755 -0.428451
-101.79496 -12.422299 -5.1441751
-110.68867 -12.516483 -9.5709877
-110.60471 -12.515223 -9.7139969
-112.34987 -12.529432 -10.85707
-118.37961 -12.336452 0.102835
-118.35131 -12.36997 -0.10296
-107.2664 -12.203379 -0.29575801
-107.13944 -12.229284 -0.234565
-106.7095 -12.30336 -0.229637
-100.42784 -12.273552 -0.61806101
-118.92702 -12.164081 0.254774
-103.94188 -12.120498 -0.39938799
-103.41236 -12.179282 -0.39191201
-100.26999 -12.05324 -0.71255302
-100.22859 -12.166477 -5.1117282
-101.43951 -12.156849 -6.6210399
-112.5865 -12.085989 -10.795374
-114.2706 -12.19895 -11.174072
-114.47494 -12.051738 -11.208316
-119.86356 -11.845673 0.183548
-106.95374 -11.871994 -0.157287
-100.12537 -11.908978 -0.65653998
-100.51434 -11.96106 -5.5746312
-112.1297 -11.92941 -9.0366383
-118.41832 -11.734902 0.42272401
-118.83648 -11.788203 0.29111701
-117.5985 -11.774258 0.33597499
-103.60496 -11.644292 -0.38276899
-103.06408 -11.716148 -0.50689697
-102.23473 -11.764727 -0.514902
-101.67088 -11.772639 -6.6151409
-110.95566 -11.764668 -9.5479574
-111.48953 -11.713861 -9.9193621
-119.73207 -11.550269 0.31237799
-113.90079 -11.55018 0.33274099
-106.85606 -11.42518 -0.086450003
-103.6642 -11.523643 -0.33343199
-103.51805 -11.459011 -0.45948899
-102.09261 -11.467514 -0.57322103
-102.16045 -11.45707 -1.241449
-100.11047 -11.497026 -5.722404
-117.44507 -11.337259 0.47075701
-119.71565 -11.325401 0.33175999
-114.11401 -11.359237 0.22163001
-102.44768 -11.32513 -1.020196
-102.26105 -11.314772 -1.073483
-101.10309 -11.360868 -4.3439531
-111.82327 -11.327781 -9.7562199
-115.35149 -11.337107 -10.566183
-117.42336 -11.013468 0.48331001
-100.69052 -11.031311 -0.38901499
-102.16074 -11.155861 -0.53368503
-102.76614 -11.066559 -0.61963302
-102.1504 -11.177242 -1.135591
-100.29548 -11.186559 -4.2726479
-116.2477 -11.081891 -9.4761429
-106.85518 -10.829992 -0.051013
-100.28144 -10.81148 -0.15413301
-101.81728 -10.954729 -0.490895
-103.3149 -10.894231 -0.63640201
-103.32214 -10.875183 -1.1019551
-103.34686 -10.892849 -1.429998
-103.3123 -10.860709 -1.88898
-103.30429 -10.958618 -3.1223731
-103.29034 -10.932372 -3.277215
-101.7515 -10.830469 -4.3250222
-101.55796 -10.880835 -4.3807292
-100.68722 -10.954934 -4.545754
-119.36991 -10.981649 -7.9212332
-103.27278 -10.820524 -7.950798
-103.38976 -10.865546 -8.7525253
-116.90381 -10.824114 -9.8827782
-117.7506 -10.610397 0.26067099
-108.12465 -10.62969 0.026749
-108.0995 -10.688318 -0.035964999
-103.36874 -10.691772 -0.350364
-101.18623 -10.692413 -0.38342401
-103.36273 -10.644978 -0.471432
-100.14497 -10.65621 -0.429378
-103.38309 -10.692352 -0.631639
-103.35867 -10.760248 -0.852871
-103.4347 -10.719598 -1.1472729
-103.36458 -10.721134 -1.070202
-103.37379 -10.731974 -1.417477
-103.35349 -10.740083 -1.899435
-103.33188 -10.746311 -2.3171451
-102.21893 -10.782172 -4.3653498
-102.17117 -10.628297 -4.424592
-100.06321 -10.679235 -6.6873608
-103.31535 -10.606248 -8.7401857
-103.3241 -10.791077 -8.9420547
-117.74205 -10.554024 0.41112101
-117.22359 -10.561751 0.48943299
-115.83884 -10.519266 0.44809499
-110.54644 -10.433249 0.25455201
-108.74039 -10.482768 0.057353001
-101.77893 -10.446621 -0.33475199
-101.67673 -10.473417 -0.419211
-103.29968 -10.583639 -4.4300961
-103.22067 -10.599932 -7.9452338
-117.90521 -10.348473 0.42748699
-117.20361 -10.326609 0.49865299
-103.15439 -10.230015 -0.42981201
-101.35315 -10.279115 -0.44333601
-101.79761 -10.228687 -5.7800112
-100.4321 -10.227968 -7.3676538
-100.19334 -10.210225 -7.3659892
-113.13701 -10.091924 0.20171501
-111.5553 -10.018459 0.16627701
-110.95422 -10.027023 0.121781
-110.61681 -10.088504 0.095751002
-110.13153 -10.063869 0.110562
-107.28017 -10.066051 0.035193
-107.30057 -10.05732 -0.179901
-107.10248 -10.072285 -0.064897001
-101.78981 -10.062805 -0.18694399
-100.62534 -10.107065 -0.087467998
-100.29185 -10.084064 -0.049401
-104.6276 -10.116988 -0.318652
-103.87245 -10.029611 -0.225217
-103.37054 -10.100033 -0.264375
-103.06184 -10.144864 -0.33461601
-102.45335 -10.172449 -0.33508399
-101.39647 -10.169813 -0.215444
-100.99275 -10.166333 -0.394844
-101.18829 -10.106895 -0.43391699
-103.42223 -10.095558 -3.80423
-116.17291 -9.9776764 0.39897901
-112.35508 -9.8064728 0.254632
-111.47912 -9.9587002 0.160951
-107.39725 -9.8625755 0.0092749996
-103.64789 -9.8606873 0.113838
-102.9993 -9.9288187 0.090143003
-101.89989 -9.8802643 0.034727
-107.50288 -9.9090538 -0.030893
-106.21081 -9.9316015 -0.131668
-100.98775 -9.9432812 -0.033087
-100.18742 -9.8718739 -0.019307001
-104.68694 -9.8086033 -0.24956401
-102.1852 -9.903121 -0.32468599
-103.84719 -9.930315 -3.323245
-112.08847 -9.8741026 -9.6765327
-113.69907 -9.7545481 0.333875
-113.4227 -9.7581711 0.33455801
-112.42854 -9.7886696 0.222082
-110.252 -9.7903748 0.227595
-109.43944 -9.6923885 0.220092
-104.57643 -9.7095814 0.236755
-107.73758 -9.696866 0.068117
-103.48104 -9.7584534 0.127994
-102.49437 -9.7854443 0.053879
-100.71823 -9.6033268 -0.051460002
-100.56427 -9.7468233 -0.13515399
-103.69664 -9.7934589 -3.0832951
-103.56948 -9.703619 -3.029489
-103.47529 -9.7715311 -3.305855
-103.3056 -9.651125 -3.7780409
-103.39128 -9.7514954 -3.8281641
-106.54477 -9.6603966 -4.636014
-111.36539 -9.7646437 -8.5866041
-115.03165 -9.4955006 0.44224301
-111.51586 -9.4156322 0.24501
-110.86683 -9.4689732 0.232416
-110.55888 -9.4072571 0.26469901
-110.15949 -9.4818821 0.230819
-109.48647 -9.4292202 0.24164499
-104.15475 -9.4185495 0.207717
