# .PCD v0.7 - Point Cloud Data file format
VERSION 0.7
FIELDS x y z
SIZE 4 4 4
TYPE F F F
COUNT 1 1 1
WIDTH 422
HEIGHT 1
VIEWPOINT 0 0 0 1 0 0 0
POINTS 422
DATA ascii
-123.65216 -59.212772 -7.1740589
-130.40714 -58.659538 -2.533824
-122.15797 -58.500042 -2.5901339
-123.67296 -58.41468 -3.48123
-121.09279 -58.412868 -3.56988
-123.62354 -58.400764 -3.6716659
-122.66668 -58.417595 -3.606467
-121.10317 -58.447586 -3.69188
-120.20122 -58.449387 -3.6630189
-120.21151 -58.44503 -5.7704949
-120.411 -58.408188 -6.8382268
-125.61862 -58.261559 -3.7110889
-124.41528 -58.28241 -3.681602
-124.38878 -58.252728 -3.6393819
-123.51306 -58.207603 -3.6510739
-125.86281 -58.220654 -4.789258
-124.70775 -58.282112 -4.739182
-121.0134 -58.294144 -4.738965
-125.89349 -58.221916 -4.9519711
-125.57828 -58.238441 -4.8949242
-123.00696 -58.319809 -5.9257059
-122.60365 -58.337818 -5.8602271
-121.04179 -58.337776 -5.8309488
-120.13618 -58.234528 -5.847477
-124.72071 -58.244728 -6.1290822
-126.97754 -58.203384 -6.2757149
-130.32312 -58.110832 -3.7639401
-126.97124 -58.195831 -3.703388
-130.41122 -58.155266 -3.8289881
-126.96889 -58.198612 -4.9600129
-128.99899 -58.067474 -5.1004968
-128.45273 -58.086525 -6.4314342
-120.112 -58.150379 -6.91717
-123.52578 -58.171764 -7.0877881
-126.84033 -58.060104 -7.3617802
-120.16708 -57.820007 -2.8619559
-133.68651 -57.894638 -3.758821
-133.65881 -57.89394 -5.3129959
-133.00676 -57.984333 -5.2684302
-131.84885 -57.939095 -5.2845421
-131.43138 -57.963978 -5.2370749
-135.40157 -57.837471 -5.402185
-134.74757 -57.804951 -5.4089589
-120.1226 -57.946098 -5.63202
-122.59695 -57.896049 -6.9880142
-123.45365 -57.893776 -7.0601301
-123.09344 -57.859543 -7.0274282
-138.20145 -57.73851 -2.5069139
-137.04607 -57.796745 -5.3730021
-126.5777 -57.704807 -7.3906898
-126.08442 -57.744961 -7.3500628
-120.13063 -57.420109 -5.6791749
-120.09166 -57.479263 -6.7502508
-120.12009 -57.406242 -6.861208
-120.12503 -57.058311 -5.696116
-139.57491 -57.133354 -7.1258278
-120.08416 -56.870728 -6.7069731
-120.0747 -56.658394 -5.5957818
-120.04988 -56.587444 -6.6834459
-120.06036 -56.282951 -5.5510702
-120.06886 -56.079124 -6.6504579
-120.07757 -55.89069 -5.9159889
-120.02274 -55.78027 -6.627944
-120.02361 -55.458462 -5.501843
-120.01067 -54.924175 -5.398437
-123.67092 -59.316715 -7.171906
-122.79955 -59.298203 -7.7695642
-130.36478 -58.818134 -2.5622821
-130.41187 -58.601246 -2.583473
-121.61769 -58.50013 -2.9568379
-123.58403 -58.405811 -3.1254389
-122.83119 -58.413044 -3.740082
-121.34755 -58.568657 -3.7433801
-123.68036 -58.433571 -4.7432919
-120.34389 -58.47496 -4.7217808
-121.08763 -58.427784 -5.7028942
-123.69258 -58.40226 -5.8474731
-120.26986 -58.415062 -6.9573631
-123.60301 -58.391869 -2.5302441
-126.96841 -58.25399 -3.694073
-125.09229 -58.259644 -4.7556939
-122.82828 -58.367554 -4.727756
-120.97484 -58.31575 -4.8150368
-126.02287 -58.216717 -5.963891
-124.53181 -58.218452 -5.9886909
-120.58168 -58.382576 -5.853682
-127.02534 -58.248913 -6.874002
-123.5343 -58.222454 -7.0231519
-133.77986 -58.003113 -2.6188581
-130.35059 -58.173664 -2.629168
-133.74026 -58.000931 -3.7870381
-130.41994 -58.107803 -4.912663
-127.01443 -58.181816 -5.035296
-125.7394 -58.197273 -6.1760392
-127.83317 -58.08231 -6.3670039
-130.26503 -57.883095 -3.9172511
-126.82307 -57.87236 -7.19315
-137.0466 -57.741924 -5.3797641
-133.54527 -57.743217 -5.2889681
-137.0157 -57.759335 -6.9375749
-130.16676 -57.757381 -7.5111499
-136.89424 -57.552151 -7.498322
-120.08265 -56.512253 -5.6012931
-120.02766 -54.662933 -5.8326211
-120.1188 -51.689384 -13.616716
-120.8783 -47.936356 -9.8841572
-125.7939 -41.296993 -9.6822519
-126.19543 -59.91391 -15.814473
-130.10545 -59.959358 -18.04459
-120.03076 -59.757378 -8.6691732
-131.62309 -59.632324 -18.27947
-131.56006 -59.516445 -18.263275
-124.15894 -59.261986 -7.892118
-120.08185 -59.328644 -8.6075563
-125.77786 -59.309963 -15.650862
-125.71138 -59.078144 -15.607782
-122.2709 -58.968006 -9.9337759
-126.21967 -58.953217 -15.683228
-132.62462 -58.971767 -18.371229
-124.46208 -58.717865 -13.992638
-121.72426 -58.428314 -3.506701
-123.6385 -58.408829 -3.672435
-122.37219 -58.441143 -3.7320399
-120.56366 -58.435394 -4.6637168
-120.4061 -58.4067 -6.820621
-123.53816 -58.30098 -3.466712
-121.84119 -58.375042 -4.6094341
-123.63501 -58.342827 -4.8246331
-125.26732 -58.244053 -5.9235411
-127.03362 -58.236385 -6.1519132
-123.64968 -58.37751 -6.0648389
-121.24608 -58.356586 -8.9713192
-127.07159 -58.324062 -15.760433
-120.18797 -58.190212 -3.5497079
-124.32684 -58.197407 -4.8892751
-125.59343 -58.173244 -6.0515108
-130.27597 -58.030266 -7.080523
-125.70537 -58.092102 -15.48914
-132.22119 -58.123901 -18.042206
-120.15845 -57.892715 -3.409699
-131.08705 -57.956367 -5.1902118
-122.16256 -57.89423 -6.9512639
-123.03693 -57.900673 -7.0279841
-126.12238 -57.746284 -7.293447
-125.23016 -57.783451 -7.3855448
-120.14686 -57.594257 -5.5837898
-130.16391 -57.594421 -7.4366088
-132.75122 -57.462318 -18.07287
-120.10069 -56.904984 -5.641355
-120.02362 -55.516647 -6.1767421
-120.44791 -50.979465 -15.895362
-120.3425 -50.882832 -15.843035
-120.46947 -50.617226 -15.912024
-120.28751 -50.58902 -15.830095
-124.03741 -43.696102 -16.215523
-120.69285 -43.424866 -10.573005
-120.93573 -43.156509 -9.4686642
-121.15015 -43.16185 -10.592628
-121.29895 -42.722599 -10.589293
-125.764 -41.311058 -9.8198023
-120.04594 -41.067936 -12.391617
-120.66405 -40.568176 -12.562934
-125.82439 -59.825932 -15.56056
-132.79689 -59.889442 -17.043085
-123.22256 -59.747967 -15.145554
-131.65887 -59.780994 -18.263618
-123.7542 -59.467644 -7.2050738
-124.47749 -59.43465 -16.672462
-132.6814 -59.43639 -18.497807
-123.50529 -59.308716 -15.101795
-125.7682 -59.28936 -15.638198
-131.18518 -59.273705 -18.172615
-123.08276 -59.127308 -7.080327
-121.03629 -58.996284 -7.9041171
-122.45856 -58.833878 -8.3579569
-127.20052 -58.934227 -15.770559
-121.39055 -58.65789 -15.993249
-132.60176 -58.642765 -18.267632
-122.07899 -58.508163 -2.5673029
-121.04311 -58.494987 -2.9453139
-120.18173 -58.455914 -3.5551579
-122.53685 -58.491611 -3.731267
-123.68283 -58.45388 -4.8486481
-126.99281 -58.253098 -2.692539
-126.10839 -58.287617 -2.7021971
-126.95895 -58.301025 -3.1131761
-125.19322 -58.286674 -3.7023029
-125.80565 -58.309597 -3.8022139
-127.01676 -58.246536 -4.3103771
-125.81296 -58.227219 -4.7781892
-122.47698 -58.382088 -4.7830791
-122.29968 -58.386505 -4.6324768
-125.43533 -58.244572 -4.8573341
-124.81715 -58.234127 -4.8189168
-120.1983 -58.292797 -5.694818
-124.36967 -58.254005 -5.953032
-123.48285 -58.277596 -5.883822
-122.61489 -58.333252 -5.876976
-123.53281 -58.239235 -6.0237532
-120.03792 -58.378925 -15.706977
-121.34071 -58.214397 -15.923738
-120.16844 -58.163551 -3.656769
-130.3316 -58.111458 -3.815197
-125.07468 -58.199516 -6.0211301
-128.70168 -58.059052 -6.3900928
-126.96474 -58.131187 -7.2891002
-130.2193 -57.914776 -4.3504782
-132.4247 -57.950523 -5.276197
-132.05829 -57.9259 -5.2335892
-133.61252 -57.829109 -7.294395
-129.98123 -57.961689 -7.61555
-120.14134 -57.729889 -5.6677432
-133.13847 -57.462143 -18.296106
-120.10049 -56.996719 -5.590097
-120.07248 -56.627033 -5.5759339
-120.07278 -56.511574 -6.2434111
-120.06212 -55.551033 -5.7615938
-120.00917 -55.455055 -6.6381178
-120.04813 -55.141758 -5.7331638
-120.02469 -54.604134 -5.562202
-120.3864 -46.653267 -13.087813
-120.72406 -45.670578 -11.847118
-120.72242 -45.585239 -11.803948
-120.69788 -44.06097 -10.486952
-120.48982 -43.004597 -9.4230328
-121.22792 -43.051384 -10.637617
-120.91563 -42.921764 -11.657808
-121.26579 -42.633884 -8.3452578
-120.11948 -41.764217 -12.501987
-125.76257 -41.283157 -10.003391
-120.16483 -40.998093 -12.373063
-125.84167 -59.881535 -15.66078
-129.16296 -59.880093 -17.653347
-125.77629 -59.971165 -18.522959
-132.02344 -59.797882 -18.284485
-126.21629 -59.591805 -15.686642
-130.73 -59.420944 -16.535547
-123.74817 -59.104836 -15.105383
-126.64907 -59.090092 -15.658913
-131.38638 -59.169518 -18.200073
-120.276 -58.977406 -7.825336
-121.03633 -58.917641 -8.0387831
-124.24804 -58.991524 -13.896311
-121.3932 -58.663212 -4.1470451
-124.63737 -58.659706 -13.903301
-133.3847 -58.789871 -18.565813
-121.30234 -58.502068 -2.9509881
-128.25888 -58.48315 -3.290062
-123.69643 -58.438995 -3.5276699
-122.66257 -58.420555 -3.4544761
-121.43299 -58.432999 -5.301589
-121.74594 -58.411934 -5.7964988
-120.19255 -58.449554 -5.7611141
-124.6994 -58.594402 -14.028844
-125.93971 -58.425526 -15.576139
-124.89977 -58.348587 -2.5166171
-125.24408 -58.331932 -2.712606
-122.5873 -58.379295 -3.594348
-124.87526 -58.377029 -3.8776951
-120.16746 -58.320911 -4.6882601
-122.92132 -58.354118 -4.8350959
-121.01656 -58.333073 -5.2689748
-123.66425 -58.382362 -5.9469328
-122.93953 -58.342751 -5.922544
-121.39538 -58.399208 -5.8249431
-121.00919 -58.355736 -5.8077869
-123.63048 -58.386261 -6.9789252
-126.20874 -58.21788 -15.583987
-130.54361 -58.152168 -3.8880839
-123.52534 -58.176231 -4.6734519
-130.25003 -58.04047 -5.6506748
-128.25871 -58.084702 -6.361412
-133.73383 -57.946594 -3.8275869
-133.70419 -57.878746 -5.156179
-134.83698 -57.908501 -5.3432741
-131.41051 -57.923294 -6.5946798
-132.10843 -57.897133 -6.6683502
-121.90527 -57.98341 -16.00975
-137.07414 -57.79829 -3.771811
-126.71114 -57.779942 -7.3294139
-120.12265 -57.413971 -5.6515522
-120.12294 -57.413635 -6.727953
-120.09167 -56.904633 -6.269804
-120.08919 -56.776424 -6.818603
-120.06087 -56.269485 -6.2271619
-120.05427 -56.142666 -5.5291162
-120.05495 -56.099224 -6.6290798
-120.021 -55.840523 -6.6090822
-120.01146 -52.507668 -14.794807
-120.08051 -52.088749 -14.755814
-120.15118 -51.806381 -13.529981
-120.44134 -50.981693 -15.94277
-120.24808 -50.633102 -15.823561
-120.30338 -45.471367 -9.3592052
-120.94189 -43.150642 -9.4528561
-121.42192 -42.876488 -8.4122343
-123.25677 -42.974072 -15.983937
-121.17401 -42.736958 -8.3687973
-121.00494 -42.76059 -9.4151173
-120.93335 -42.026752 -8.2866755
-125.89355 -59.954502 -13.039213
-126.23309 -59.922016 -17.212194
-127.10513 -59.875015 -18.76486
-122.91487 -59.738846 -15.093506
-126.16458 -59.779781 -15.579305
-121.29523 -59.528351 -10.85482
-130.76622 -59.501534 -13.673057
-131.5416 -59.506744 -18.241705
-124.4189 -59.328949 -13.897541
-124.19367 -59.389404 -13.84628
-126.64253 -59.385506 -15.627524
-130.45117 -59.027557 -2.5817239
-120.26715 -59.023373 -8.57024
-132.55432 -59.046425 -18.367588
-124.52843 -58.849518 -13.86995
-132.64821 -58.960377 -18.415667
-127.34552 -58.68594 -15.677464
-121.36871 -58.762398 -16.029552
-132.97768 -58.615101 -18.417223
-121.07626 -58.490402 -2.58761
-122.88196 -58.427345 -2.638726
-122.15205 -58.463207 -2.963428
-122.31664 -58.424423 -3.521317
-121.09088 -58.450825 -3.5588109
-133.50677 -58.508476 -17.008595
-127.00292 -58.281776 -3.5930541
-125.29694 -58.294662 -3.5133481
-124.36705 -58.234932 -3.482733
-123.62355 -58.369671 -3.631954
-124.70255 -58.27491 -4.7685719
-126.21729 -58.209328 -4.9801531
-124.40864 -58.273411 -4.8692508
-122.64572 -58.376503 -4.894454
-124.632 -58.2463 -6.0661588
-133.03938 -58.378624 -18.356825
-130.36618 -58.069267 -5.165288
-134.67679 -57.907074 -2.542413
-136.53378 -57.820732 -3.2255599
-133.774 -57.99929 -3.243268
-131.73515 -57.91674 -6.5889068
-122.62311 -57.91827 -6.9886298
-125.78703 -57.876869 -15.381229
-120.14137 -57.70829 -4.0144072
-120.09696 -57.725178 -6.7559471
-136.98984 -57.722504 -7.5187621
-132.1622 -57.714199 -18.029438
-120.12294 -57.05743 -6.7070718
-120.06432 -56.175507 -5.7796259
-120.00644 -54.66901 -7.0429001
-120.37062 -50.28096 -15.898317
-120.70193 -43.821842 -10.467299
-121.25832 -43.371109 -10.60325
-121.18213 -43.290756 -10.610373
-120.61183 -43.333176 -12.717856
-121.48529 -42.384579 -12.896799
-123.60623 -40.45541 -14.134985
-127.22157 -40.307999 -12.498441
-126.32228 -59.968983 -14.253822
-126.14137 -59.955711 -15.719407
-125.8911 -59.99334 -17.027294
-132.42261 -59.919289 -18.286495
-120.43845 -59.596508 -8.7046099
-121.11254 -59.595543 -10.929317
-132.13588 -59.557655 -18.17934
-120.9489 -59.227516 -7.9110441
-126.16898 -58.920959 -15.661295
-121.41768 -58.946915 -16.045118
-126.0154 -58.60183 -15.605189
-132.82169 -58.782169 -18.364315
-133.74741 -58.727844 -18.633461
-123.67941 -58.487137 -2.638926
-128.24527 -58.453854 -3.1273849
-123.67261 -58.542011 -3.1389279
-122.51831 -58.464027 -3.1317339
-121.04881 -58.521145 -3.7429121
-120.21059 -58.510551 -3.637445
-126.41151 -58.413044 -3.904774
-121.20965 -58.434433 -5.8232269
-126.005 -58.548683 -15.573919
-124.39321 -58.287003 -3.6264451
-123.52773 -58.252678 -3.6557009
-125.48273 -58.236588 -4.772428
-125.8875 -58.211876 -4.8952422
-125.10008 -58.259277 -4.875598
-122.27348 -58.370369 -5.8220158
-121.63113 -58.362122 -5.8185692
-121.57494 -58.394691 -6.484374
-127.08623 -58.31926 -15.75054
-122.10051 -58.31443 -16.049057
-128.84782 -58.172523 -2.6714129
-129.06067 -58.091763 -5.055449
-125.77953 -58.090408 -15.455125
-126.32173 -58.02047 -15.607141
-137.04799 -57.847855 -2.5206461
-130.21492 -57.985367 -5.0413542
-136.15167 -57.829071 -5.3950529
-126.79956 -57.998421 -6.0959582
-123.41248 -57.930038 -6.991828
-120.41797 -57.899963 -15.664543
-133.54146 -57.761974 -3.9569919
-137.1335 -57.777695 -4.6537299
-125.72415 -57.74332 -7.2432089
-136.89696 -57.563038 -6.8756518
-132.603 -57.490555 -18.106464
-120.06531 -56.677628 -6.6810579
-120.04277 -55.854824 -5.5334349
-120.11913 -54.677795 -8.7688141
-120.00757 -54.265339 -5.8054361
-120.15341 -52.090717 -13.519861
-120.31117 -50.941589 -15.865247
-121.17613 -48.06744 -11.000574
-120.02008 -45.901665 -11.654974
-120.07735 -45.00692 -15.125144
-121.92561 -44.482834 -10.733404
-120.70732 -43.473846 -10.566067
-120.16948 -43.478874 -12.719377
-121.70374 -43.082069 -8.4181938
-121.16987 -42.86832 -8.3790731
-120.27621 -42.839836 -9.382576
-121.14751 -42.995987 -10.575598
-121.10445 -42.278126 -10.490823
-120.60559 -40.621346 -12.504066
