# .PCD v0.7 - Point Cloud Data file format
VERSION 0.7
FIELDS x y z
SIZE 4 4 4
TYPE F F F
COUNT 1 1 1
WIDTH 412
HEIGHT 1
VIEWPOINT 0 0 0 1 0 0 0
POINTS 412
DATA ascii
-139.50194 -199.9621 -14.317348
-136.84827 -199.88596 -14.254065
-135.95953 -199.88448 -19.364058
-136.74333 -199.60632 -13.955265
-137.01913 -199.74411 -15.615162
-129.94174 -199.45724 -11.975626
-136.31418 -199.40152 -13.889445
-137.03459 -199.45935 -20.939178
-129.94653 -199.38809 -11.024624
-136.15395 -199.26982 -14.140597
-136.47543 -199.31061 -16.816349
-138.74948 -199.31483 -19.954973
-137.70882 -199.3573 -21.100737
-135.92323 -199.11206 -15.410786
-136.38745 -198.92754 -14.087403
-136.23053 -198.96715 -16.710171
-137.74245 -198.9799 -19.713251
-136.57993 -198.62274 -18.109991
-129.89447 -198.46686 -12.144375
-129.91759 -198.3401 -10.753803
-122.99673 -198.03621 -11.135015
-120.19385 -198.15852 -11.055951
-122.1153 -198.07239 -11.315805
-121.65715 -198.095 -11.228989
-120.82321 -198.1106 -11.226232
-123.93398 -198.00627 -11.456577
-120.99477 -198.11337 -11.885321
-120.29752 -198.14487 -11.803183
-129.87967 -198.09268 -12.117889
-122.56872 -198.04144 -12.180176
-121.70706 -198.07565 -12.184429
-121.34355 -198.09329 -12.140366
-120.51248 -198.10716 -12.114636
-120.30876 -198.14763 -12.014086
-125.23504 -198.14441 -12.67244
-124.55157 -198.14996 -12.62733
-136.65694 -198.13266 -15.372559
-137.70366 -198.17178 -15.622205
-126.11171 -197.9169 -10.525818
-127.00849 -197.87398 -10.730653
-129.00131 -197.80307 -10.839204
-127.92195 -197.81757 -10.845377
-126.01755 -197.87163 -11.747816
-125.29359 -197.91019 -11.675402
-124.77425 -197.89761 -11.620861
-124.83336 -197.93134 -12.396519
-136.75514 -197.98746 -13.854171
-129.8631 -197.78696 -12.0959
-137.18877 -197.58092 -16.5369
-137.02682 -197.42984 -16.806301
-136.23053 -197.3819 -15.323964
-137.60545 -197.22348 -16.588539
-136.34436 -197.08762 -15.308993
-137.66615 -197.02901 -18.199291
-138.3232 -196.0542 -15.490728
-138.31842 -195.81682 -14.229166
-139.71225 -195.86311 -14.408647
-136.87717 -195.39285 -16.37401
-137.84668 -195.35033 -16.750076
-136.4407 -199.82335 -18.362848
-136.4045 -199.69882 -15.430779
-129.94194 -199.42868 -11.807371
-136.21262 -199.54713 -14.593336
-136.90556 -199.59094 -15.067348
-135.99146 -199.55249 -15.141672
-136.15527 -199.38403 -14.26952
-135.32097 -199.31439 -14.547337
-136.35611 -199.28674 -17.471256
-136.6136 -199.37883 -17.852442
-136.36307 -199.04234 -14.243667
-136.6275 -199.09618 -16.097023
-137.60208 -199.10265 -19.128479
-138.76468 -199.06047 -19.944925
-129.77625 -198.89932 -12.594653
-136.49139 -198.95079 -15.442068
-136.5769 -198.89697 -17.820408
-136.53568 -198.8118 -18.02577
-136.36177 -198.82399 -18.07756
-134.96198 -198.70062 -14.541692
-137.53079 -198.67484 -19.56559
-129.92058 -198.56024 -11.012863
-135.82108 -198.53775 -16.614437
-121.86032 -198.2608 -12.537404
-125.81583 -198.22141 -12.709099
-136.5498 -198.26591 -14.065143
-121.309 -198.10712 -11.86589
-123.23723 -198.00908 -12.090355
-120.55154 -198.09875 -12.195095
-129.88507 -198.1669 -12.240369
-120.95029 -198.10779 -12.449097
-127.69702 -198.1214 -12.756062
-135.77797 -198.13849 -17.188213
-127.4337 -197.85338 -10.624321
-124.76814 -197.88446 -11.704517
-129.83702 -197.82663 -11.857325
-126.03337 -197.86975 -11.836863
-123.72604 -197.98361 -12.20619
-126.01747 -197.87512 -12.537093
-123.54161 -197.97694 -12.489325
-136.78766 -197.86723 -15.158497
-139.50024 -197.92664 -16.47488
-135.93539 -197.94563 -17.204063
-129.06891 -197.77322 -10.982848
-138.0022 -197.45915 -14.687279
-137.73131 -197.10672 -13.919023
-137.35374 -196.65784 -14.111488
-136.8739 -196.69667 -17.293268
-137.63638 -196.31686 -16.65559
-137.65678 -196.03293 -16.045303
-137.68102 -195.83786 -15.483274
-138.68652 -195.60004 -17.383242
-138.62155 -195.45792 -14.197866
-137.92967 -195.4343 -15.795391
-135.80789 -199.96272 -16.949814
-135.50011 -199.97375 -20.04586
-136.62137 -199.69121 -14.844915
-136.27063 -199.73477 -17.111748
-136.58582 -199.44159 -14.82099
-136.4198 -199.47028 -18.338068
-138.02664 -199.56232 -21.104786
-137.59509 -199.22498 -16.695278
-136.46317 -199.35986 -16.923712
-136.06174 -199.28429 -17.045542
-129.92313 -199.06064 -11.9473
-137.37643 -199.189 -20.048822
-129.91211 -198.88672 -12.174351
-137.01437 -198.9248 -16.580025
-135.66783 -198.67407 -13.979956
-136.15903 -198.70903 -17.488003
-136.46782 -198.41594 -15.143764
-136.54399 -198.46236 -16.037369
-135.70355 -198.50511 -16.932756
-129.90916 -198.33392 -11.23313
-122.61391 -198.36426 -12.688191
-139.61609 -198.31744 -19.014534
-125.36378 -198.00314 -10.563456
-123.4286 -198.01788 -11.320831
-122.20122 -198.05257 -11.424704
-122.21652 -198.04147 -12.205786
-129.90538 -197.94537 -10.724843
-126.99615 -197.83398 -11.57678
-126.8909 -197.82376 -12.01326
-125.4098 -197.90172 -12.464808
-126.61017 -197.83969 -12.607067
-137.27415 -197.92245 -15.232515
-136.62134 -197.94595 -16.4603
-136.14853 -197.93335 -16.890705
-129.33643 -197.7545 -10.668051
-128.3268 -197.77487 -11.842598
-129.17857 -197.72672 -12.065712
-127.73119 -197.78462 -12.100807
-129.82079 -197.77245 -12.246277
-137.41399 -197.74861 -14.539079
-138.26938 -197.54102 -14.909864
-139.11546 -197.48436 -16.106012
-136.96429 -197.37204 -16.985008
-138.64969 -197.0578 -15.917304
-138.82149 -196.96182 -14.943016
-136.55725 -196.91582 -15.37599
-137.4191 -196.87035 -17.318104
-138.58911 -196.36969 -15.335367
-137.74492 -196.30865 -15.209448
-137.40474 -196.20239 -15.759985
-137.45229 -196.20192 -16.726067
-139.76892 -196.03864 -14.426609
-138.8365 -195.86942 -14.202385
-138.77792 -195.90326 -14.292666
-138.80623 -195.82181 -14.683712
-136.57861 -199.811 -16.142075
-137.12799 -199.85306 -16.426065
-135.80539 -199.82867 -19.432686
-136.66252 -199.70905 -15.866735
-135.75537 -199.70805 -19.848848
-129.94617 -199.46759 -11.398857
-136.53006 -199.57869 -18.553951
-137.65631 -199.23026 -18.953938
-137.72476 -199.08234 -19.824032
-136.27794 -198.81151 -16.019848
-138.28992 -198.92773 -20.534086
-129.90988 -198.63356 -11.91764
-136.24269 -198.66702 -15.387381
-138.22894 -198.75417 -20.606667
-129.89882 -198.52859 -12.265964
-129.89774 -198.27869 -11.893011
-137.49106 -198.22691 -15.99053
-139.35109 -198.33273 -19.445734
-129.90207 -198.18723 -10.984762
-121.49055 -198.11118 -10.992671
-120.58131 -198.15048 -11.014503
-121.62981 -198.08234 -11.345844
-120.878 -198.10178 -11.309386
-120.95189 -198.10593 -12.13111
-123.1053 -198.01575 -12.273917
-121.29121 -198.08145 -12.249486
-129.87111 -198.11284 -12.509064
-127.95654 -197.83212 -10.568649
-124.88176 -197.98967 -10.524082
-125.17184 -197.93187 -11.40289
-127.76743 -197.81816 -11.745113
-125.25031 -197.90579 -11.756615
-123.68623 -197.97916 -11.679951
-124.77846 -197.96367 -12.563171
-124.18417 -197.9646 -12.529231
-122.90315 -197.99472 -12.409728
-127.30008 -197.93974 -12.696915
-137.15303 -197.87138 -14.780989
-129.41267 -197.74388 -12.001934
-137.03008 -197.6093 -16.728724
-136.66711 -197.55261 -15.122919
-136.72812 -197.5033 -17.056892
-137.0112 -197.31038 -17.359671
-138.99037 -197.0052 -14.78857
-136.06638 -197.01004 -15.771693
-138.64331 -197.19615 -16.284805
-137.85847 -196.89932 -17.311569
-139.63187 -196.67868 -15.033497
-137.35539 -196.40891 -16.022766
-139.01292 -196.24042 -15.705882
-138.82881 -195.96196 -14.8713
-138.27634 -195.92831 -15.531538
-139.00595 -195.5901 -14.522285
-138.80934 -195.55879 -17.233004
-138.57019 -195.17757 -14.440181
-129.96002 -199.84427 -11.427771
-136.89604 -199.86667 -14.708075
-137.6723 -199.83138 -15.937634
-137.9104 -199.9212 -16.365242
-136.17001 -199.80394 -19.322388
-129.95747 -199.772 -11.670359
-136.39832 -199.66182 -15.516312
-135.92435 -199.40921 -15.384996
-137.03809 -199.49571 -16.616007
-137.27885 -199.44124 -16.876366
-136.30264 -199.38052 -15.440066
-135.26398 -199.04216 -14.608892
-136.24358 -199.10307 -17.067078
-136.54227 -198.89206 -15.79463
-137.67661 -198.96356 -16.917507
-136.50693 -198.91431 -17.472761
-137.53052 -198.93442 -20.99395
-129.93304 -198.72849 -10.782632
-135.95114 -198.75435 -15.088295
-136.13522 -198.63434 -16.52305
-136.84579 -198.73817 -17.335886
-138.10471 -198.7822 -20.19153
-120.71233 -198.44385 -12.752596
-135.5285 -198.57358 -14.046526
-135.14114 -198.5764 -14.322314
-122.48145 -198.05841 -11.086083
-121.08206 -198.12489 -11.062984
-122.25327 -198.06233 -11.975956
-121.7674 -198.0764 -11.918785
-127.20177 -198.09743 -12.69432
-137.5836 -198.11275 -15.51007
-137.07996 -198.03433 -15.520082
-137.66289 -198.02126 -16.09483
-129.89633 -197.91617 -11.202556
-125.76917 -197.89868 -11.459737
-124.59807 -197.96536 -11.43522
-122.99762 -197.99409 -11.607168
-127.13414 -197.85025 -12.671419
-136.36176 -197.82376 -15.354769
-137.03227 -197.67108 -13.868414
-137.42538 -197.78836 -16.13088
-136.44617 -197.77795 -17.109987
-137.39563 -197.21652 -16.770477
-137.76755 -197.26794 -18.188009
-137.65662 -197.12874 -14.22604
-136.30154 -197.06909 -15.256565
-137.40063 -197.03569 -16.761534
-137.0403 -196.72043 -14.594543
-137.74016 -196.59959 -13.88905
-137.76157 -196.42352 -15.437043
-137.88402 -196.44177 -16.857735
-137.41258 -196.24146 -17.362701
-138.45607 -195.79898 -15.284424
-137.65298 -195.03691 -15.72916
-137.35352 -194.62411 -16.71759
-129.98878 -199.95506 -10.233372
-136.43408 -199.80907 -18.643566
-137.74763 -199.9014 -19.216576
-129.95032 -199.7872 -12.09702
-136.5786 -199.77806 -16.861877
-136.23041 -199.76993 -17.798956
-135.64795 -199.71609 -20.062649
-136.67053 -199.40218 -16.126532
-136.52721 -199.44098 -17.232212
-135.75005 -199.5598 -19.697374
-129.78951 -199.33557 -12.628223
-136.01382 -199.22993 -15.125612
-136.89801 -199.35779 -16.351334
-129.93022 -199.01112 -11.363874
-135.00269 -199.18825 -14.226854
-137.37029 -199.01791 -16.403603
-137.82706 -199.00175 -21.112329
-137.73712 -199.17665 -21.414392
-136.37933 -198.98282 -14.575716
-136.10196 -198.86823 -15.334013
-136.99309 -198.89034 -16.236589
-129.9151 -198.6409 -11.335579
-136.43443 -198.75429 -14.08209
-135.32944 -198.79948 -14.421833
-136.89297 -198.56046 -15.827873
-136.51608 -198.59917 -16.994629
-122.82252 -198.3158 -12.579582
-136.07693 -198.38348 -16.391634
-122.05077 -198.07928 -10.986288
-123.53433 -198.01321 -11.125714
-121.92636 -198.0822 -11.092419
-121.39809 -198.08849 -11.284182
-120.29327 -198.13437 -11.326793
-120.67307 -198.10898 -11.902397
-120.25986 -198.14142 -12.183159
-137.25378 -198.19962 -13.928495
-137.06976 -198.07927 -13.89842
-136.21686 -198.18985 -16.609661
-136.08624 -198.19397 -17.070961
-125.45822 -197.94815 -10.38705
-128.29375 -197.82494 -10.784326
-126.38824 -197.87128 -11.519121
-124.07186 -197.95334 -11.423824
-126.64248 -197.86429 -11.76869
-126.50154 -197.86693 -12.119061
-128.6288 -197.79587 -10.617182
-128.98523 -197.74242 -11.767522
-137.15215 -197.66685 -14.102904
-137.11438 -197.63725 -17.40094
-137.05971 -197.47067 -14.738556
-136.76892 -197.51418 -16.678291
-136.04532 -197.24379 -15.784093
-137.23766 -197.14679 -14.080746
-136.28381 -197.09587 -15.449945
-137.4438 -197.02292 -16.856754
-137.57526 -196.88509 -13.886353
-137.79912 -196.80063 -16.817751
-137.0327 -196.70738 -14.334072
-139.62869 -196.37259 -15.48649
-137.71487 -196.38998 -15.819813
-138.30006 -196.04897 -13.923969
-139.62823 -196.09109 -14.990235
-139.77251 -195.90396 -14.530392
-139.75458 -195.9809 -14.821298
-137.75519 -195.78625 -15.789492
-137.70456 -195.78131 -16.035789
-137.45183 -195.08041 -16.455477
-137.82324 -194.96671 -15.456209
-137.0271 -194.87666 -16.585291
-129.96036 -199.78636 -11.054272
-129.80336 -199.72818 -12.658886
-136.74619 -199.77641 -13.868818
-136.5719 -199.74239 -14.254784
-137.01166 -199.67502 -15.717518
-136.39781 -199.7525 -16.29871
-136.25793 -199.77985 -17.488575
-136.36429 -199.62503 -18.122091
-136.45822 -199.55838 -14.137686
-135.82755 -199.59714 -19.53154
-129.92682 -199.39343 -12.224666
-136.61725 -199.28134 -14.444588
-136.50534 -199.34508 -15.726236
-136.33206 -199.39856 -15.794477
-138.20229 -199.24205 -20.633959
-129.9325 -199.00659 -10.996267
-135.8111 -199.12784 -15.499862
-137.78336 -199.02283 -18.713758
-136.18544 -198.81834 -13.836554
-135.44817 -198.97241 -14.27117
-135.74544 -198.87083 -16.663513
-137.81863 -198.90063 -18.215649
-129.88298 -198.50345 -12.538383
-120.31842 -198.43559 -12.696238
-136.76242 -198.53433 -17.215597
-135.87631 -198.3539 -17.221321
-122.69892 -198.04663 -11.374208
-128.34123 -198.10303 -12.833447
-137.68927 -198.11072 -15.724472
-135.84798 -198.17889 -17.877911
-126.68704 -197.88823 -10.476152
-129.8255 -197.80637 -10.951509
-125.20265 -197.94981 -11.583041
-123.24799 -197.998 -11.469517
-125.8217 -197.90712 -11.643777
-127.36619 -197.8273 -11.840914
-127.47106 -197.81839 -12.222744
-124.25549 -197.96461 -12.328293
-123.60987 -197.99925 -12.418716
-136.0865 -197.84943 -16.665632
-128.71524 -197.7876 -10.907111
-128.63628 -197.78847 -11.925076
-128.56863 -197.75912 -12.264295
-129.78485 -197.7487 -12.473537
-137.31329 -197.77631 -14.176659
-137.11734 -197.48141 -15.706371
-137.16412 -197.39348 -13.867357
-137.9066 -197.37245 -14.226178
-136.15387 -197.36627 -15.431101
-138.53079 -197.2607 -16.090471
-137.07373 -197.00369 -14.14427
-137.74951 -197.16678 -14.456612
-138.89883 -197.02008 -16.223076
-137.62251 -197.10226 -17.933617
-138.11044 -196.82965 -18.014595
-137.5742 -196.96336 -18.220984
-138.98624 -196.61513 -14.583483
-137.84561 -196.66341 -16.600126
-139.46614 -196.54062 -15.000674
-138.8577 -195.27069 -14.168167
-137.77322 -195.28165 -15.157375
-139.39726 -195.39017 -15.398404
-138.06606 -195.38828 -16.06712
-137.40164 -195.32104 -16.564896
-137.22708 -194.76147 -16.991276
