# .PCD v0.7 - Point Cloud Data file format
VERSION 0.7
FIELDS x y z
SIZE 4 4 4
TYPE F F F
COUNT 1 1 1
WIDTH 760
HEIGHT 1
VIEWPOINT 0 0 0 1 0 0 0
POINTS 760
DATA ascii
-130.05086 -71.203232 -2.413183
-122.97498 -71.397186 -2.5749309
-129.85928 -71.062164 -2.4073181
-122.94955 -71.090096 -3.64745
-122.91679 -70.990303 -2.5975709
-122.89754 -70.874641 -3.588356
-129.7964 -70.880264 -3.6448381
-122.98425 -70.968376 -4.706531
-123.12988 -70.703018 -2.5715909
-129.76276 -70.615952 -3.624403
-122.98707 -70.789658 -3.6624529
-129.77089 -70.633575 -4.7589769
-122.99173 -70.670837 -4.698071
-129.79735 -70.63726 -4.8656268
-122.96883 -70.621208 -5.7865009
-129.79446 -70.525101 -6.1219578
-120.87553 -67.815918 -6.5375342
-120.66563 -67.670479 -6.513515
-120.67895 -67.598129 -6.564579
-122.26501 -67.459694 -9.9201403
-121.68123 -67.297943 -5.5350838
-122.12331 -67.249413 -7.6664939
-121.76099 -67.281349 -9.8114719
-121.66168 -67.041809 -8.7238445
-121.08855 -66.656487 -10.789137
-122.80803 -66.43679 -8.8399696
-121.08463 -66.468704 -9.7141247
-121.62827 -66.43988 -11.950279
-120.89741 -66.390167 -9.6843395
-121.10315 -65.647598 -2.1579211
-121.40462 -65.759872 -11.935811
-120.93144 -65.580795 -2.1428721
-120.5851 -65.498169 -2.153219
-123.18283 -65.359016 -12.244652
-126.81779 -64.810883 -6.7028599
-126.661 -64.870186 -6.783164
-128.60352 -64.97065 -8.0961456
-127.24951 -64.672768 -5.4721861
-126.85182 -64.742523 -6.718925
-128.43787 -64.731827 -8.1425133
-127.04978 -64.415695 -5.5165811
-127.242 -64.56739 -6.6652632
-126.6294 -64.481651 -6.6659122
-128.08017 -64.513779 -8.0765905
-121.25081 -64.368568 -4.1741319
-121.05827 -64.231651 -4.1233959
-128.68536 -64.203018 -4.3222151
-121.63277 -64.311943 -5.255641
-125.63605 -64.365814 -5.4468179
-126.08691 -64.313736 -7.8619261
-125.58543 -64.355888 -9.0205097
-128.96555 -64.036873 -4.3528242
-122.89369 -64.19706 -5.2832732
-126.19739 -64.169502 -5.4888949
-127.03874 -64.136139 -6.7143359
-126.64474 -64.176331 -6.6286712
-126.44106 -64.036255 -7.8760958
-125.66134 -64.173889 -9.0370235
-120.8214 -63.820396 -4.156198
-129.07251 -63.835083 -4.265676
-122.5351 -63.868977 -5.2194791
-125.39535 -63.82357 -7.7875252
-125.19806 -63.811378 -7.7479868
-126.00214 -63.86293 -7.824708
-120.78386 -63.652283 -4.0404739
-122.09099 -63.66143 -5.1940751
-122.24819 -63.663345 -5.2219501
-127.89067 -63.633163 -5.4115672
-126.20061 -63.780422 -5.4019222
-122.36584 -63.737789 -6.2961121
-126.72884 -63.698318 -6.6277752
-123.24817 -63.539349 -4.0975938
-120.85965 -63.484604 -4.0693812
-128.6053 -63.514725 -4.275598
-122.50159 -63.4604 -5.1841068
-122.38689 -63.576656 -5.231009
-122.25124 -63.576851 -6.3030362
-126.57841 -63.335266 -2.973542
-126.58463 -63.277229 -4.2071471
-122.24334 -63.350811 -5.175035
-126.56142 -63.252937 -5.3646188
-120.8674 -63.334213 -6.1710262
-126.50075 -63.294064 -6.579186
-126.04961 -63.387096 -7.7980118
-126.37396 -63.292721 -9.0674114
-126.45557 -63.033039 -2.9879761
-126.3946 -63.027191 -2.916101
-126.4909 -63.113243 -4.1904268
-120.70068 -63.130913 -5.085145
-126.58026 -63.076824 -5.3765898
-120.0905 -63.049713 -6.100275
-122.24564 -62.971268 -5.1437631
-120.46042 -62.848072 -6.217567
-126.57134 -62.761803 -2.8902121
-121.28232 -62.670361 -3.991787
-121.32165 -62.69651 -4.0549459
-120.05679 -62.717773 -5.0485582
-126.29243 -62.680481 -7.7742252
-133.06575 -62.583824 -2.885684
-120.97643 -62.493401 -2.8957529
-120.88029 -62.465324 -3.986191
-132.9942 -62.405472 -4.159308
-138.88022 -62.506153 -4.391201
-127.81143 -62.404873 -5.3929219
-120.84309 -62.446262 -6.1905222
-139.45482 -62.220039 -2.7585731
-139.45311 -62.202492 -2.882791
-120.81252 -62.297775 -3.9532731
-138.78058 -62.335094 -4.441103
-122.10564 -62.16119 -4.0312109
-120.34837 -61.857086 -4.976438
-120.46566 -61.990089 -7.1034431
-120.47299 -61.638439 -6.0476079
-130.82877 -61.50491 -2.716265
-120.48072 -61.50737 -6.027658
-124.61338 -61.238831 -7.4015818
-120.41477 -60.936516 -7.1213999
-124.69418 -60.98481 -7.3900371
-122.95151 -76.924484 -5.838551
-122.89796 -75.709099 -4.1605148
-120.09447 -73.444 -3.391284
-122.11158 -73.445946 -4.47752
-122.75466 -73.347351 -3.3124709
-123.0677 -73.282364 -4.4525828
-126.00491 -73.262634 -4.8969002
-122.20956 -73.301231 -6.1645589
-120.19308 -73.393303 -6.050662
-121.51392 -73.333244 -6.6701298
-128.78339 -73.104393 -4.4215388
-127.40288 -73.060364 -6.8292112
-126.51233 -73.09845 -6.854454
-128.83028 -72.805412 -4.3979502
-122.57569 -72.876373 -4.9139171
-128.82001 -72.618446 -3.223464
-125.83287 -72.664253 -3.6585829
-121.44315 -72.591187 -2.2623429
-128.811 -72.575287 -6.3498478
-128.91864 -72.299774 -2.6369121
-128.93011 -72.297028 -3.1880109
-128.79587 -72.379303 -4.4200191
-128.7645 -72.284035 -6.9170041
-123.00089 -71.405922 -2.576483
-129.11472 -71.394524 -2.358582
-122.88482 -70.917091 -3.176614
-123.04247 -70.86586 -7.6845222
-122.77361 -70.640297 -2.4366231
-122.96248 -70.706299 -4.3034778
-129.47745 -70.522285 -2.3457639
-129.80069 -70.569046 -6.8186831
-129.90773 -70.328514 -8.0893269
-122.59868 -70.088593 -9.7907658
-120.84042 -69.680756 -2.0683229
-123.35926 -69.713181 -9.8988953
-120.69315 -69.530441 -2.0889339
-121.72287 -69.254433 -8.5486526
-122.36073 -69.099243 -10.153887
-121.02139 -68.510284 -7.6723309
-121.29359 -68.252487 -6.5408192
-122.65002 -68.3853 -6.7090168
-122.18317 -68.313759 -7.3514452
-120.92696 -68.213913 -7.7792702
-121.93858 -67.961365 -7.3017249
-121.47593 -67.495148 -6.100596
-121.13248 -67.529343 -6.6891699
-123.8187 -67.597282 -10.153851
-121.69755 -67.384537 -5.5194159
-121.87362 -67.084976 -7.1477032
-123.65111 -67.09079 -9.0483894
-122.02931 -67.174934 -12.135508
-121.84486 -66.81192 -6.6870618
-121.7391 -66.942856 -8.6380701
-121.65937 -66.695061 -9.5941992
-121.10185 -66.657227 -10.754457
-121.57408 -66.499382 -9.7440834
-123.83569 -66.177902 -12.339464
-123.59731 -65.623085 -1.9875261
-124.93414 -65.258141 -1.984705
-128.29967 -65.366119 -11.887638
-126.37483 -64.961594 -6.7884159
-126.74411 -64.607491 -6.812376
-126.26916 -64.727478 -7.2358618
-121.36713 -64.424675 -4.198813
-127.96341 -64.491295 -7.9348941
-125.90086 -64.412857 -9.0781794
-122.92725 -64.217239 -5.2905679
-126.30998 -64.213593 -7.7910881
-122.62642 -64.183098 -4.7607989
-121.69715 -64.101952 -4.7333689
-126.11304 -64.072983 -5.4198961
-127.08392 -64.065567 -6.0440841
-127.08719 -63.865337 -6.6933198
-125.95306 -63.918068 -7.721951
-125.30051 -63.849762 -7.7219529
-120.41757 -63.652744 -3.632113
-120.75175 -63.633713 -4.0879979
-128.80965 -63.774391 -4.4046659
-127.89488 -63.68576 -5.4010701
-134.30872 -63.74366 -10.015053
-120.93456 -63.545444 -3.9945021
-122.56448 -63.50013 -5.1390471
-122.25887 -63.578163 -6.299778
-126.45163 -63.204769 -4.7560401
-120.71568 -63.230694 -5.2571349
-126.57629 -63.337021 -6.61941
-126.60077 -63.00079 -5.4389272
-120.07181 -63.033989 -6.1818538
-126.49457 -63.051514 -6.4998932
-126.41357 -63.110287 -7.6576672
-126.54391 -62.926826 -3.556128
-126.72025 -62.73399 -2.7974589
-121.30206 -62.636822 -3.947593
-120.03433 -62.605003 -8.0545073
-121.01936 -62.541977 -3.0388091
-126.92583 -62.459541 -5.2951641
-132.78551 -62.469944 -7.6714129
-122.07104 -62.238045 -4.019568
-121.96294 -62.255428 -4.7736001
-125.53452 -62.234127 -6.3899398
-125.65034 -62.205757 -6.5547271
-139.99631 -62.049313 -7.4216042
-130.97838 -61.602467 -2.967901
-124.67694 -61.055122 -7.3932838
-120.77894 -60.706589 -6.7142181
-131.13228 -79.882858 -17.739759
-132.94321 -79.514595 -18.025993
-122.80911 -78.868332 -10.537531
-122.81813 -78.316406 -10.457462
-120.4799 -76.495903 -4.6838799
-120.67249 -73.42498 -3.3961141
-125.23564 -73.255348 -2.4934959
-124.73071 -73.338585 -2.5158861
-125.50612 -73.223358 -2.8126979
-125.8469 -73.244591 -3.312705
-124.55316 -73.277695 -3.300952
-123.77525 -73.303986 -3.3147719
-121.69554 -73.382309 -3.357729
-123.73027 -73.200462 -3.974885
-123.08766 -73.296402 -3.996897
-122.45531 -73.358223 -4.0075769
-123.35379 -73.281654 -4.423306
-122.64595 -73.351189 -4.4707541
-126.46439 -73.227844 -4.898416
-125.49173 -73.279861 -4.8939848
-127.52305 -73.176231 -2.403966
-125.75226 -73.12487 -6.82163
-128.78065 -72.561867 -6.902154
-128.74167 -72.511978 -8.1849604
-128.81213 -72.292801 -5.6498842
-128.77832 -72.23661 -7.5493531
-128.74284 -72.347298 -8.1720943
-122.89271 -70.983582 -2.715297
-122.90933 -70.977402 -3.7714729
-122.9744 -70.974487 -4.7082529
-123.02554 -70.667755 -4.878809
-122.9952 -70.64592 -5.4090471
-122.96008 -70.643944 -5.7397132
-122.95225 -70.518608 -6.56705
-122.17787 -70.456154 -7.5960269
-122.93618 -70.420242 -11.293486
-122.89456 -69.834335 -8.7188654
-121.5801 -69.635628 -7.4236169
-120.98623 -69.404022 -2.0645881
-121.67587 -69.367531 -7.4469032
-121.53331 -68.877396 -7.278481
-121.86505 -68.976311 -7.7139149
-121.14223 -68.635056 -7.308394
-121.3055 -68.690048 -7.7106409
-121.49574 -68.612549 -8.3065853
-121.06963 -68.232445 -6.4799528
-124.00081 -68.268051 -8.506772
-122.10767 -68.394943 -10.064357
-121.92123 -68.150246 -9.8741112
-123.8322 -67.97271 -8.9894915
-122.62459 -67.954704 -12.313646
-121.91311 -67.731346 -10.972587
-122.15137 -67.710045 -12.202419
-121.7131 -67.388962 -7.781395
-121.81322 -67.245453 -9.8755522
-121.12479 -66.591187 -9.7615929
-121.23598 -65.64637 -2.1517739
-121.06874 -65.5383 -2.166486
-127.0992 -65.33831 -6.589571
-123.54853 -65.002289 -15.572912
-120.92088 -64.911308 -12.949195
-139.57489 -64.406212 -2.1924019
-125.76007 -64.545464 -5.2930331
-127.93536 -64.479851 -8.0868282
-121.61658 -64.287987 -4.3143492
-128.94351 -64.245178 -4.410985
-126.44705 -64.118782 -7.7584419
-128.10857 -64.189735 -8.0582027
-120.92328 -63.816307 -4.2507882
-122.47934 -63.823368 -5.1892738
-126.25707 -63.921158 -5.5116358
-122.39046 -63.827721 -5.8112631
-122.1884 -63.755405 -5.3066831
-123.28249 -63.557323 -4.0638309
-128.63593 -63.532692 -4.242559
-121.50283 -63.588699 -5.333282
-126.57959 -63.306908 -3.0747061
-122.25652 -63.377628 -5.18786
-121.72354 -63.344357 -5.3373709
-120.34717 -63.317932 -5.2827058
-126.32632 -63.268425 -8.9613781
-126.39281 -63.063908 -2.9070611
-120.83786 -63.082123 -4.2281542
-121.04326 -63.115799 -4.6302562
-121.04181 -63.096214 -8.1934299
-122.68439 -62.883362 -5.3000531
-138.37317 -62.957336 -5.9264369
-120.33829 -62.809464 -7.3160372
-126.43361 -62.97591 -9.0366364
-126.6813 -62.76236 -3.7348549
-126.98531 -62.687946 -6.37286
-126.28799 -62.71896 -7.697125
-120.3127 -62.781441 -7.8820348
-121.38783 -62.386642 -4.771368
-127.61478 -62.272659 -9.1302729
-125.14577 -62.020569 -7.6205769
-120.30421 -62.133564 -7.8308401
-120.47247 -61.933884 -4.707377
-120.59434 -61.841648 -5.800509
-130.77789 -61.407562 -2.7060339
-127.30383 -61.466301 -14.159569
-124.22383 -60.665489 -8.0804863
-121.85376 -60.509327 -10.419601
-133.00191 -60.511372 -18.691917
-133.26254 -60.570885 -20.375301
-120.91795 -60.236053 -9.8752556
-129.39714 -60.38475 -17.931179
-126.12422 -60.150394 -13.04397
-132.98979 -79.192375 -18.000359
-122.81477 -78.591087 -10.525869
-120.57772 -76.380112 -4.675529
-122.88646 -76.275726 -5.8045869
-122.7748 -75.578827 -4.9729991
-121.27357 -73.416336 -3.3696699
-123.03232 -73.303528 -3.346988
-128.25011 -73.209045 -4.430419
-128.26108 -73.236511 -4.9121208
-123.04623 -73.172302 -6.1707268
-123.14977 -73.143211 -6.7035871
-127.04454 -73.085457 -6.820806
-128.82864 -72.617393 -2.5768061
-124.79642 -72.700775 -3.676069
-122.92316 -72.767303 -3.707252
-128.82285 -72.614975 -3.8894899
-122.44926 -72.296272 -8.735775
-122.48485 -72.335732 -8.804285
-129.31067 -71.605652 -5.5923438
-129.45673 -71.211227 -5.6203589
-129.81752 -70.603401 -4.2548952
-123.01617 -70.677231 -4.634171
-129.73914 -70.596451 -2.475174
-129.80627 -70.574821 -4.9443111
-129.82393 -70.462868 -6.7279711
-122.95866 -70.444603 -6.8585291
-123.1206 -70.348351 -6.505446
-122.80676 -70.033722 -9.8656311
-129.16586 -70.186623 -12.240261
-122.59122 -69.823639 -9.7664452
-122.19682 -69.182411 -9.9914188
-121.54251 -68.46608 -6.2452312
-124.7725 -68.525597 -12.741753
-121.66292 -67.819565 -6.1713901
-120.87326 -67.702141 -5.6584749
-121.39859 -67.791275 -6.1900001
-121.84921 -67.705475 -7.666646
-122.50195 -67.709 -9.9160519
-121.24274 -67.552917 -6.708971
-121.59691 -67.596214 -7.5174141
-121.47868 -67.47406 -8.8429251
-122.74963 -66.660919 -7.1619701
-121.71791 -66.780212 -13.085991
-121.58162 -66.716675 -15.932295
-121.89688 -66.568626 -9.8236599
-121.93544 -66.388741 -8.7590523
-122.76776 -66.381027 -8.8534088
-131.88255 -65.521454 -10.801981
-128.49164 -65.155373 -11.86369
-128.63156 -64.917252 -8.0593729
-139.65524 -64.462891 -2.9669061
-125.55305 -64.519348 -5.3662362
-127.05699 -64.425369 -5.5569739
-128.2045 -64.427162 -5.6726928
-125.31161 -64.555695 -8.4759121
-121.39758 -64.304764 -4.2475042
-126.69337 -64.352539 -5.5182061
-121.00768 -64.122505 -4.1889729
-128.90686 -64.086357 -4.30793
-128.43698 -64.090584 -4.8785501
-122.92375 -64.110504 -5.1634459
-129.0822 -63.777557 -4.234376
-128.19475 -63.704742 -5.0075598
-122.32986 -63.762074 -6.2525549
-126.66481 -63.402756 -2.5952401
-123.15384 -63.471352 -4.2627759
-125.81967 -63.546677 -7.6831298
-120.79459 -63.331738 -4.1149278
-125.96179 -63.315823 -7.5339499
-126.20695 -63.348015 -7.754498
-120.59396 -63.066818 -3.963187
-120.69527 -63.166191 -4.0216131
-120.51064 -63.161263 -5.0370049
-122.02831 -63.040394 -5.225162
-127.73413 -63.073784 -5.44242
-121.11438 -63.036629 -7.974328
-138.96597 -62.812565 -2.0608561
-121.17606 -62.963623 -5.010725
-121.90365 -62.867031 -5.2096038
-121.32812 -62.717361 -4.03755
-120.10278 -62.735485 -5.007092
-123.52286 -62.736885 -13.42042
-139.56865 -62.444595 -2.7876761
-121.98795 -62.455204 -4.0198932
-120.92503 -62.567612 -6.0841432
-121.43527 -62.437096 -6.895884
-127.90422 -62.577835 -7.7431011
-133.06387 -62.273945 -2.8606529
-120.77146 -62.286629 -3.9868879
-125.3058 -62.270996 -7.651885
-122.09523 -62.179337 -3.988538
-139.50105 -61.89579 -2.735703
-120.40797 -61.578293 -6.7571378
-124.59111 -61.266762 -7.3836741
-128.6904 -61.385094 -17.798666
-120.60339 -60.856113 -8.1089039
-120.70111 -60.931442 -8.7653189
-128.5146 -60.803925 -13.502389
-129.05507 -60.68438 -13.564531
-133.38403 -60.418686 -14.144351
-133.54028 -60.289726 -14.152236
-130.15704 -60.237137 -17.888916
-126.82579 -60.010487 -11.171217
-125.80925 -60.0896 -17.058456
-129.15163 -60.088799 -17.645922
-122.93014 -76.511253 -4.707582
-122.89897 -76.247589 -4.671145
-123.09444 -73.284843 -2.8936541
-124.32333 -73.28875 -3.3511341
-120.9742 -73.387718 -3.3675511
-125.19305 -73.345039 -4.895287
-131.7406 -73.327217 -18.245918
-126.54286 -73.192535 -3.2929609
-125.4381 -73.1464 -6.7538328
-126.27283 -73.039215 -9.2130909
-128.82843 -72.952667 -4.409555
-128.61832 -72.945236 -9.3558893
-125.29901 -72.679863 -3.6674509
-124.3045 -72.70359 -3.6835949
-128.82326 -72.575272 -5.1131172
-137.36575 -72.512154 -6.6636691
-129.32845 -72.26194 -2.446569
-128.79623 -72.376724 -3.2084501
-122.49808 -72.346138 -6.5819802
-129.33347 -71.333595 -13.086517
-122.92717 -71.013664 -3.2988901
-129.79138 -70.815269 -3.532232
-122.8912 -70.97049 -4.3129668
-122.93974 -70.878319 -5.343492
-129.43057 -70.886337 -5.557241
-122.94954 -70.839996 -6.5493932
-123.00283 -70.737289 -3.75049
-129.06598 -70.428101 -2.1863379
-120.61074 -70.222771 -2.178669
-129.86496 -70.305504 -2.3150361
-129.92276 -70.35714 -5.5034342
-129.82904 -70.363785 -6.7539368
-120.23561 -70.094353 -2.1320031
-120.52942 -69.813362 -2.0960331
-129.99648 -69.98381 -2.283869
-139.74416 -69.206635 -7.8173389
-122.06122 -68.876053 -9.4698238
-121.34998 -68.418869 -6.7775998
-120.51771 -68.238144 -5.5356841
-121.86692 -68.291229 -7.323771
-122.72577 -68.221634 -12.351549
-120.68846 -67.658722 -6.5196161
-121.72285 -67.726326 -8.8800516
-120.66222 -67.594872 -6.5468149
-122.35666 -67.498062 -10.016553
-139.94141 -67.37925 -7.6793008
-121.73003 -67.050583 -9.8336668
-122.77959 -66.866264 -7.3526001
-122.16951 -66.83741 -9.8425493
-121.57473 -66.906097 -13.087587
-121.53264 -66.895996 -15.951818
-122.13185 -66.769363 -9.8792124
-121.75856 -66.746483 -15.999447
-121.91406 -66.565628 -8.5411301
-121.47609 -66.341934 -7.6849999
-120.5985 -66.055695 -9.6258583
-120.85017 -65.903404 -12.904741
-127.20348 -65.201775 -6.322144
-120.0686 -65.110336 -2.3204629
-121.31261 -64.902687 -2.284622
-125.82153 -64.614471 -1.958299
-127.26833 -64.682343 -5.4782181
-126.99583 -64.605965 -6.7296081
-126.64757 -64.570084 -6.5730839
-125.66859 -64.323792 -5.3993702
-125.51505 -64.396141 -5.3809552
-127.04778 -64.294724 -6.6844778
-125.96465 -64.349236 -7.8931808
-128.65623 -64.101158 -4.4298091
-121.66179 -64.185013 -5.3092818
-127.51371 -64.077286 -9.2422924
-122.68507 -63.986324 -4.332335
-126.16525 -63.918983 -7.7910461
-126.52374 -63.869011 -7.8727059
-121.67374 -63.40818 -5.064075
-122.33618 -63.52058 -5.217072
-126.51556 -63.402103 -5.4499092
-120.40695 -63.503174 -6.0673761
-126.90182 -63.531391 -6.4945159
-126.59136 -63.252617 -4.1022272
-121.16835 -63.292652 -4.6490002
-127.73056 -63.248486 -5.470571
-120.06462 -63.356876 -5.6646452
-120.25943 -63.361473 -6.0791788
-135.17261 -63.234028 -15.990076
-126.41198 -63.035294 -3.052624
-122.08321 -63.018162 -5.1569762
-121.78011 -63.037247 -5.0929322
-126.35788 -63.177353 -9.0783787
-126.63995 -62.773727 -3.037534
-121.79894 -62.730259 -5.067008
-120.36957 -62.645039 -6.2659121
-139.67184 -62.444332 -2.931267
-133.06271 -62.583214 -2.852607
-133.01941 -62.441639 -4.1452289
-125.92296 -62.440575 -7.4642272
-139.44481 -62.248905 -2.645
-121.09258 -62.261528 -2.839128
-133.05064 -62.244049 -3.6874969
-120.84582 -62.272797 -3.8136101
-125.55982 -62.214355 -6.4613218
-130.90659 -62.08342 -2.987946
-120.05155 -62.15469 -5.757268
-125.15779 -62.122398 -7.5150919
-132.85698 -62.079128 -7.6588702
-127.10091 -61.928608 -5.3809662
-133.0889 -61.858692 -15.812411
-130.87415 -61.657574 -2.6465249
-133.47351 -61.669357 -15.85304
-128.79727 -61.402519 -14.901195
-130.11305 -61.555908 -18.28224
-130.9379 -61.299442 -2.941231
-132.67703 -61.26952 -18.535498
-120.36385 -61.153736 -8.8124857
-120.41864 -60.933258 -7.0747218
-128.82718 -60.813869 -17.675425
-127.61217 -60.601791 -13.264796
-120.29673 -60.543583 -7.636529
-127.03349 -60.507446 -13.175699
-132.96786 -60.556335 -18.58007
-130.14455 -60.264091 -18.081156
-126.19939 -60.076614 -14.187094
-125.49757 -60.11776 -18.414656
-123.00944 -78.862984 -5.8805642
-123.01633 -78.675842 -5.933578
-122.96703 -77.202492 -4.7534289
-122.95016 -77.280075 -5.888762
-120.21082 -76.29509 -4.2221618
-131.02373 -74.527267 -15.146708
-125.03728 -73.256889 -3.332402
-126.1868 -73.215088 -4.4807668
-125.16795 -73.345108 -4.4902129
-127.88756 -73.303238 -4.9131031
-120.33295 -73.329521 -8.2547302
-122.74646 -73.208572 -8.9025965
-127.06297 -73.197601 -3.2334831
-128.7863 -72.919998 -6.8825569
-128.75989 -72.639336 -9.3287888
-128.82066 -72.575134 -3.1488061
-128.80672 -72.570412 -4.4616179
-128.80063 -72.293617 -4.4428372
-128.79974 -72.274376 -5.0860171
-128.73676 -72.203064 -10.021555
-129.7928 -71.400406 -2.3604751
-122.58226 -71.255844 -2.547785
-122.9976 -71.237213 -3.1906741
-130.46059 -71.270576 -5.59126
-122.66869 -71.112625 -2.53319
-129.85312 -70.993057 -3.0162959
-129.80478 -70.86171 -3.691402
-122.94974 -70.909935 -5.8465419
-123.08412 -70.693703 -3.5168719
-129.80191 -70.529259 -3.495353
-129.79012 -70.571724 -5.5279341
-122.84369 -70.563538 -11.960235
-131.16704 -69.993927 -2.3766229
-125.21846 -69.933884 -16.934221
-120.23475 -69.718407 -2.144546
-122.8187 -69.47216 -9.8175049
-121.97237 -69.257927 -9.830883
-120.83263 -68.829018 -7.3805742
-128.53259 -68.991821 -10.642428
-121.53525 -68.511406 -6.8029728
-121.59834 -67.914818 -9.432188
-121.61781 -67.605461 -5.6670709
-121.7785 -67.762314 -9.9630537
-124.53208 -67.567192 -8.0399466
-121.62654 -67.271576 -8.7098751
-139.88063 -67.019341 -7.7780671
-121.66997 -67.130112 -7.7631721
-122.9931 -66.859718 -7.8380842
-122.14739 -66.817871 -16.075815
-121.97805 -66.66227 -6.6833482
-122.65122 -66.665367 -7.5287318
-122.7383 -66.305519 -8.7772732
-121.0289 -65.693474 -2.1168251
-120.72043 -65.650528 -12.800814
-120.58549 -65.328217 -2.2690589
-126.84976 -64.937973 -6.621851
-126.2364 -64.935722 -6.8073101
-126.67506 -64.421089 -7.2371759
-126.12479 -64.480835 -7.6972451
-128.12735 -64.55629 -8.0798798
-128.47133 -64.508591 -9.3359432
-121.21835 -64.338249 -3.7048421
-125.18675 -64.38781 -6.6994891
-127.63377 -64.269012 -9.2272615
-128.70651 -64.166489 -4.2938061
-128.10768 -64.044006 -6.5436192
-126.68618 -64.156082 -6.6745429
-121.73233 -63.972786 -4.7225518
-122.52449 -63.823723 -5.22789
-121.84999 -63.908478 -5.3582468
-128.06119 -63.933144 -7.9011769
-122.1776 -63.692245 -5.0402961
-126.73511 -63.688629 -6.6448069
-120.30225 -63.133537 -5.2658048
-126.39299 -63.104645 -7.8109398
-121.27768 -62.812508 -4.081924
-120.84059 -62.920033 -5.2687478
-126.60794 -62.947731 -6.3722401
-120.67001 -62.951107 -8.3757639
-133.09732 -62.616936 -2.7525201
-132.75266 -62.64183 -11.107882
-139.63388 -62.414207 -2.7580659
-120.9863 -62.482697 -3.7927699
-121.17018 -62.585888 -5.8418541
-126.96869 -62.578873 -6.4592671
-125.43402 -62.476448 -7.6773162
-139.4256 -62.250435 -2.9107549
-120.78809 -62.282776 -4.0093732
-120.35753 -61.821198 -4.9550409
-126.60716 -61.965553 -14.733326
-120.86421 -61.595894 -7.1203089
-126.30331 -61.429951 -14.440804
-133.42731 -61.336922 -15.804911
-125.69896 -61.000511 -14.242996
-120.78735 -60.825382 -6.74196
-126.00893 -60.879158 -14.269168
-128.6776 -60.897049 -17.697935
-120.86591 -60.640442 -7.0462809
-128.63196 -60.662468 -13.502767
-128.78903 -60.74786 -17.697588
-127.08985 -60.445419 -13.209784
-129.05792 -60.547882 -17.723356
-129.32838 -60.31649 -17.829426
-128.54939 -60.255859 -19.169147
-132.34259 -60.081902 -18.293749
-127.25287 -73.266853 -2.418139
-122.20054 -73.36969 -3.343946
-125.22537 -73.251114 -4.471344
-123.02731 -73.250786 -6.190804
-121.96004 -73.311111 -6.6875381
-125.24403 -73.023834 -2.585927
-128.25749 -73.19651 -4.426723
-126.25754 -73.102646 -6.7869611
-125.02069 -73.160263 -6.7907991
-122.75243 -73.195633 -6.7225709
-128.83255 -72.975334 -3.179538
-123.70962 -72.965096 -3.896055
-128.81848 -72.903763 -5.0019832
-123.82951 -72.726433 -3.6918161
-123.37987 -72.753586 -3.699826
-122.51517 -72.428917 -5.4907212
-128.78589 -72.334503 -6.3289938
-123.00773 -71.205261 -3.6453609
-129.87296 -71.046906 -2.4551439
-129.44421 -70.937576 -2.4163909
-122.99776 -70.928772 -4.899209
-129.47662 -70.780396 -2.410274
-123.1139 -70.717751 -2.6387341
-129.78973 -70.605316 -2.9952371
-129.80235 -70.568329 -3.693815
-129.81799 -70.546936 -4.7042689
-129.96838 -70.365578 -2.4573829
-129.93005 -70.339737 -6.8071098
-122.9474 -70.379463 -6.8958998
-121.73812 -70.023056 -7.53336
-121.89455 -68.573608 -8.3491421
-121.46463 -68.527954 -8.4843559
-121.38431 -68.337311 -8.7550173
-121.00438 -68.124603 -5.6883788
-124.10837 -68.066345 -8.0333672
-123.85684 -68.0168 -8.4895105
-121.63105 -68.12281 -8.9037609
-121.01286 -67.818367 -6.6565781
-121.52713 -67.730698 -7.3335609
-124.39838 -67.788376 -8.0341482
-122.96465 -67.750595 -11.163094
-122.14369 -67.409904 -9.9406338
-121.86957 -67.240433 -7.169733
-122.28853 -67.326126 -8.9071236
-122.29357 -67.21888 -10.803963
-122.08049 -67.109482 -7.6938839
-121.33336 -67.153915 -13.365126
-121.76434 -66.837265 -13.166519
-126.4698 -66.637436 -15.326714
-122.74394 -66.596672 -8.863245
-120.72752 -66.20929 -9.5697985
-126.89082 -66.341408 -12.945112
-124.41225 -65.815239 -1.974525
-120.85361 -65.431473 -12.878012
-120.66066 -65.134903 -12.902555
-126.64285 -64.841217 -6.7472782
-126.01271 -64.896523 -7.2329111
-126.76561 -64.66613 -6.0823631
-120.75551 -64.569519 -2.272764
-127.22748 -64.587074 -6.6732421
-127.10197 -64.226379 -5.614399
-126.87335 -64.370369 -6.8014808
-123.02536 -64.032455 -4.3110132
-122.53302 -64.016296 -5.207684
-125.81494 -64.053185 -7.5786929
-128.40373 -63.93832 -4.8642392
-122.44603 -63.886593 -6.212543
-125.79586 -63.907005 -7.5659752
-125.78354 -63.825577 -9.0309114
-127.10571 -63.733837 -6.015914
-128.99826 -63.526115 -4.1915641
-120.84879 -63.436699 -4.0779252
-127.98976 -63.556129 -4.9926081
-121.42268 -63.2299 -4.8271198
-126.46709 -62.946762 -3.8741651
-126.59161 -62.963974 -4.2216401
-133.25565 -62.789246 -2.9537849
-122.01128 -62.457275 -4.0126619
-133.06924 -62.223221 -4.200417
-126.62807 -62.22818 -5.213737
-121.15497 -62.238556 -6.8654389
-128.05225 -62.303528 -9.1817493
-130.7345 -62.05883 -18.356464
-127.20776 -61.833385 -5.4221292
-130.81992 -61.421707 -2.667382
-129.39072 -61.519703 -17.908276
-124.32281 -61.238949 -10.842607
-132.75577 -61.166485 -18.535
-132.91663 -60.963493 -18.599754
-125.76163 -60.627506 -14.252024
-129.45059 -60.605633 -17.88187
-124.32436 -60.26202 -7.3023171
-126.08965 -60.172096 -13.025862
-126.14597 -60.188286 -17.140089
-127.08588 -60.046318 -18.788729
-127.84313 -60.18008 -18.916283
