# .PCD v0.7 - Point Cloud Data file format
VERSION 0.7
FIELDS x y z
SIZE 4 4 4
TYPE F F F
COUNT 1 1 1
WIDTH 323
HEIGHT 1
VIEWPOINT 0 0 0 1 0 0 0
POINTS 323
DATA ascii
-134.36545 -133.92239 -15.963138
-136.40446 -133.48564 -12.237849
-135.07837 -133.04735 -10.745584
-132.72787 -133.17924 -15.600209
-134.57765 -133.08411 -18.622356
-135.93433 -132.72098 -9.4673519
-134.31189 -132.7267 -17.185171
-136.76471 -132.56555 -8.0941935
-132.54691 -132.36623 -14.23397
-135.75783 -132.38002 -18.762886
-135.75931 -132.06795 -10.732074
-137.09686 -132.06123 -12.20767
-135.39078 -131.69763 -9.3511944
-134.67419 -131.72986 -9.3053074
-135.96263 -131.74188 -10.643762
-135.62701 -131.59251 -14.594238
-136.4012 -131.35719 -7.9802032
-135.86501 -131.35793 -17.328787
-135.35968 -131.16241 -9.2245712
-127.47542 -130.84888 -10.935883
-121.06956 -130.7001 -5.3020511
-125.11514 -130.64964 -6.361341
-135.44006 -130.63486 -10.510343
-125.28944 -130.41119 -7.416533
-135.40717 -130.50537 -13.13781
-127.29285 -130.54976 -15.477419
-125.20468 -129.4794 -6.3514528
-127.52826 -128.9911 -7.4859772
-127.18617 -128.99402 -16.533875
-127.34853 -128.18217 -13.022902
-126.56802 -126.55756 -12.563735
-132.32539 -126.46921 -17.589756
-123.6098 -125.58502 -13.123867
-123.38623 -125.10052 -14.144383
-123.37646 -124.82541 -14.129409
-123.55434 -124.6196 -13.062388
-123.5352 -124.07224 -13.030972
-139.48447 -133.31335 -9.7532959
-136.94156 -132.97209 -9.528264
-132.51343 -132.87228 -11.744286
-132.9516 -132.87431 -15.618572
-134.1817 -132.86026 -18.512184
-136.74423 -132.46008 -9.5017366
-132.6385 -132.5625 -11.734875
-134.54747 -132.56165 -17.140057
-136.08934 -132.33882 -10.742476
-132.57721 -132.32939 -11.630548
-137.31754 -132.25568 -12.206995
-133.56152 -132.27049 -15.605735
-138.15649 -132.17952 -8.2059917
-133.0118 -132.03979 -16.779381
-135.72966 -132.02194 -17.34831
-135.37694 -132.18219 -18.659115
-121.14079 -131.81714 -6.3769011
-121.19234 -131.98186 -6.4689512
-136.42085 -131.95804 -10.702243
-135.69199 -131.71371 -9.2907066
-137.13264 -131.33656 -12.074216
-136.87512 -131.07515 -12.02487
-136.34903 -131.15508 -13.31558
-139.65178 -130.90317 -8.1718378
-134.56116 -130.97963 -13.056399
-135.28494 -130.80635 -14.481387
-135.69093 -130.96005 -17.264181
-127.46095 -130.60828 -6.406301
-127.41597 -130.65311 -10.914513
-127.36654 -130.59442 -12.038561
-124.69861 -130.2402 -6.318398
-125.04471 -130.3116 -7.3977242
-134.75467 -130.36792 -14.364246
-127.25591 -130.18527 -16.622299
-133.62267 -130.14752 -18.107729
-127.33316 -129.85925 -11.981378
-127.25162 -129.26372 -11.928394
-127.32746 -129.39 -14.249845
-127.28337 -128.97708 -15.375613
-127.23251 -128.63521 -16.524055
-127.28777 -128.53763 -11.883272
-124.80494 -128.04317 -13.700934
-133.85574 -127.81005 -15.354406
-133.80748 -127.56609 -15.330244
-123.66611 -126.67039 -13.340839
-123.54123 -126.41656 -12.082983
-123.59782 -126.30026 -13.161734
-123.59801 -125.49046 -12.035247
-132.25198 -124.13264 -17.206638
-121.47398 -133.92389 -8.512866
-122.33038 -133.75412 -8.5567436
-136.76468 -133.39139 -8.239646
-136.2417 -133.25633 -12.201381
-132.3427 -133.31862 -13.007523
-134.01407 -133.37614 -18.512466
-137.17407 -132.97316 -12.286388
-132.28545 -132.89874 -12.927729
-136.4863 -132.61441 -10.759827
-132.34235 -132.51013 -12.905825
-136.90135 -132.35233 -8.1234436
-135.32547 -132.30702 -9.3672247
-135.15607 -131.98447 -9.2763052
-133.67079 -131.79895 -15.591258
-135.89828 -131.67491 -17.358465
-134.65883 -131.54166 -9.2076769
-136.3709 -131.2529 -8.0543404
-137.55913 -131.24138 -13.488665
-135.13185 -130.95471 -10.507174
-135.01804 -130.78265 -9.1715298
-130.45844 -130.69044 -11.264025
-139.86499 -130.5666 -8.0677986
-137.09192 -130.37209 -11.996361
-127.28038 -130.37901 -14.306555
-127.29951 -130.21196 -15.456632
-127.34603 -130.14432 -12.003406
-136.47365 -130.15311 -17.372507
-120.38118 -129.49648 -5.2861042
-133.48845 -129.29927 -20.73744
-127.26479 -129.00275 -13.063042
-127.2329 -129.04573 -14.210297
-133.91628 -128.91023 -15.43631
-123.73306 -127.80481 -13.489806
-127.27452 -127.96843 -15.314083
-123.70651 -127.50802 -13.467752
-136.24405 -127.43526 -20.958084
-132.85126 -126.5542 -18.771635
-131.70207 -125.62543 -18.419264
-133.4865 -125.3953 -20.059919
-123.43587 -123.89864 -13.004679
-132.31139 -123.79749 -17.204514
-134.12875 -122.95726 -19.899656
-133.89731 -122.56783 -19.868999
-134.44427 -121.56619 -17.588844
-134.46562 -121.21748 -18.344242
-134.91708 -121.31615 -18.576616
-134.62219 -121.07338 -18.487917
-134.6093 -139.10764 -19.814043
-134.4202 -138.74738 -18.691483
-122.38681 -133.81708 -7.637856
-131.70607 -133.74615 -6.828619
-132.69144 -132.87508 -14.255981
-138.03046 -132.66956 -8.1580887
-137.18822 -132.55077 -12.174307
-136.39955 -132.03377 -14.752079
-133.29236 -132.12747 -15.545157
-121.24686 -131.92374 -6.3879638
-138.16516 -131.97897 -8.1079454
-134.21796 -131.86771 -14.38687
-133.32715 -131.965 -15.539642
-136.08136 -131.88492 -18.802708
-136.95529 -131.55884 -8.1041851
-136.09366 -131.57471 -10.64258
-133.84274 -131.46313 -15.598795
-135.79047 -131.34613 -10.597273
-135.37221 -131.08633 -13.175968
-138.22575 -131.07368 -14.976029
-134.47128 -130.9707 -15.68008
-135.72885 -130.72203 -13.198034
-133.81465 -130.40552 -12.911415
-134.70212 -130.43694 -15.685234
-127.26244 -130.4543 -16.640896
-132.55914 -130.41341 -20.689775
-131.58368 -129.66121 -13.80308
-127.29391 -129.79054 -15.428365
-127.36786 -129.21176 -7.496223
-127.1773 -128.95187 -15.351904
-127.37012 -128.32651 -14.190523
-127.22624 -128.14275 -16.495047
-131.5304 -127.85707 -18.873268
-134.31824 -127.78246 -19.227932
-123.69292 -127.15485 -13.336928
-123.45335 -126.69448 -14.238584
-123.6463 -126.48275 -13.180874
-134.14743 -125.99136 -20.288738
-134.16989 -125.95364 -20.432701
-132.2455 -125.6325 -18.531679
-133.60924 -125.47427 -20.098211
-123.59284 -125.10551 -13.094879
-135.4343 -125.05 -19.117241
-139.45544 -122.74673 -21.252335
-133.80008 -122.59744 -18.488701
-134.15651 -122.51096 -19.851524
-134.07166 -121.80692 -18.454948
-135.10574 -121.81721 -20.128519
-139.08304 -121.72526 -20.897285
-134.6196 -121.40816 -18.465168
-138.72667 -120.63854 -17.673157
-134.22881 -138.8802 -18.685253
-122.55719 -134.08246 -9.685092
-122.58304 -133.91072 -8.6585941
-132.61185 -133.69664 -13.074087
-133.3822 -133.6329 -15.757236
-131.71907 -133.51035 -6.8102832
-132.63446 -133.53874 -13.06493
-132.89716 -133.4556 -14.373953
-138.89287 -133.36205 -22.537598
-136.79138 -133.00249 -8.2102947
-136.40091 -132.76323 -10.844102
-132.45912 -132.60152 -14.15754
-132.88521 -132.62126 -15.50636
-137.54868 -132.5275 -12.295053
-133.46823 -132.49068 -16.908253
-136.50278 -132.35764 -10.822092
-132.52637 -132.31947 -12.956591
-137.29776 -131.91823 -13.503779
-137.20273 -131.79494 -12.11739
-136.64311 -131.35577 -18.896679
-134.95422 -131.08328 -14.448083
-136.17006 -130.85902 -9.2548695
-136.73888 -130.84573 -18.883659
-137.1096 -130.67314 -12.021114
-135.03914 -130.78093 -17.115095
-136.04874 -130.7252 -18.713856
-124.8366 -130.48996 -6.3422079
-127.4976 -130.578 -7.5268378
-133.9494 -130.50032 -11.647713
-127.31558 -130.57263 -13.17828
-136.36165 -130.48405 -17.371666
-136.30273 -130.32964 -17.348738
-127.24335 -129.29385 -16.564871
-132.35954 -129.31393 -20.485552
-133.50446 -129.12424 -20.716177
-127.28795 -128.81451 -11.902281
-123.83333 -128.08073 -13.524435
-127.23764 -127.72426 -16.475046
-123.4838 -127.26597 -11.056793
-123.65002 -126.85451 -12.127445
-134.30539 -126.64157 -20.555307
-132.89532 -126.30399 -18.749102
-123.62236 -126.01142 -12.070612
-123.41266 -125.46403 -14.167323
-134.62146 -125.52962 -19.007736
-131.95282 -125.36273 -18.437986
-132.6445 -125.06413 -18.543369
-133.55348 -124.92226 -20.156103
-132.18883 -123.9928 -17.18582
-134.63229 -123.47694 -20.150427
-132.31812 -123.31422 -18.19949
-134.97679 -120.88559 -18.541464
-134.52496 -138.70444 -19.746136
-134.1162 -138.71597 -20.316826
-134.18817 -137.42081 -19.281464
-122.55328 -134.05328 -7.6637568
-122.65883 -133.74173 -9.6677399
-138.60884 -133.44228 -22.486012
-134.34468 -133.35905 -17.240496
-134.40337 -133.0408 -17.228361
-137.26997 -132.62773 -8.2020168
-136.18948 -132.65596 -9.3993187
-121.16803 -131.8494 -7.3527122
-134.7742 -131.39041 -15.766336
-127.36677 -130.63014 -12.041147
-130.34964 -130.60019 -12.449085
-127.33957 -130.64198 -14.33539
-127.31126 -130.65132 -16.664974
-131.9491 -130.75154 -19.374884
-133.78366 -130.45625 -18.165749
-132.71976 -130.21442 -20.69665
-124.9417 -130.18813 -7.383183
-127.2943 -130.17239 -15.453032
-127.48175 -129.86577 -14.309492
-127.24371 -129.80057 -16.595554
-127.3401 -129.65596 -11.967973
-127.27647 -129.4227 -13.092943
-127.24294 -129.47595 -15.397902
-132.76639 -129.21095 -20.562269
-131.52913 -129.16716 -13.760427
-133.75064 -129.02916 -20.758236
-133.92287 -128.75545 -15.427383
-127.28495 -128.58846 -15.35251
-127.27075 -128.27155 -15.330878
-134.22643 -128.15366 -19.25696
-132.3576 -127.92734 -20.28857
-130.27524 -127.7158 -14.688375
-132.51712 -127.72459 -20.296429
-134.74353 -127.41963 -19.26849
-123.46906 -127.06589 -14.261871
-136.2032 -127.10802 -21.051298
-123.4729 -126.99657 -11.036858
-124.01338 -126.97891 -12.192032
-123.65042 -126.58448 -12.110479
-123.44058 -126.29695 -14.215074
-134.24954 -126.39574 -20.365067
-123.6312 -125.98425 -13.149845
-123.42935 -125.86542 -14.190674
-123.60588 -125.72055 -12.050314
-131.89709 -125.17497 -18.403242
-135.30481 -123.83352 -20.275919
-132.62778 -123.64386 -18.368021
-134.86307 -123.19268 -20.239149
-138.54041 -122.86996 -20.919834
-133.8754 -122.2928 -19.899704
-135.74609 -121.91699 -17.896233
-134.14462 -121.78776 -18.3428
-134.55891 -121.75494 -18.550858
-137.03012 -120.12546 -17.425255
-133.60263 -124.9366 -20.02755
-127.27583 -124.219 -12.529505
-135.86288 -121.35023 -17.898787
-138.57187 -120.27771 -17.728529
-123.57363 -124.80741 -13.075632
-132.27487 -124.93938 -17.250853
-132.15947 -124.55597 -17.205872
-132.23404 -124.41249 -18.379114
-133.87093 -124.5753 -20.184296
-132.7028 -124.23242 -19.731022
-132.33217 -124.19846 -16.99094
-132.80057 -123.36064 -18.370203
-132.79422 -122.83648 -18.307255
-134.08249 -122.1292 -19.790152
-134.5666 -120.92679 -18.336796
-133.4548 -120.02589 -19.53336
-132.32343 -124.59909 -18.420277
-134.63986 -124.56001 -20.359432
-132.35643 -122.83393 -18.086338
-134.2191 -122.9059 -18.611612
-139.18153 -122.63618 -18.704548
-139.16232 -122.68544 -21.044216
-133.76672 -122.25624 -18.442545
-133.93384 -121.93868 -18.44112
-135.36127 -121.69775 -18.584219
-134.54449 -123.8895 -20.252378
-133.30927 -123.70631 -19.804874
-123.50811 -123.44286 -12.99507
-134.3335 -122.56961 -18.467201
-135.19299 -121.79288 -18.567329
