# .PCD v0.7 - Point Cloud Data file format
VERSION 0.7
FIELDS x y z
SIZE 4 4 4
TYPE F F F
COUNT 1 1 1
WIDTH 1465
HEIGHT 1
VIEWPOINT 0 0 0 1 0 0 0
POINTS 1465
DATA ascii
-137.2193 -234.63815 -12.606956
-137.31577 -234.78369 -12.902409
-136.95969 -234.60782 -12.847794
-137.07236 -234.50764 -12.277455
-137.02338 -234.52858 -12.649263
-120.49057 -234.5779 -13.176933
-136.92091 -234.29118 -12.705652
-122.04306 -234.12744 -8.5049019
-120.75309 -234.07538 -8.5963917
-136.58195 -234.17494 -12.237068
-136.58351 -234.12488 -12.440453
-136.91702 -234.15504 -12.835754
-136.57843 -233.89786 -12.352553
-136.658 -233.85556 -12.442079
-124.88438 -233.74176 -11.738295
-124.84888 -233.52325 -11.729559
-137.37192 -233.5898 -12.212667
-137.22853 -233.59972 -12.464214
-125.24046 -233.33975 -10.740319
-125.16573 -233.3674 -10.670803
-123.71307 -233.39171 -11.479305
-125.6187 -233.00174 -10.667018
-125.30332 -233.04102 -10.698497
-131.26291 -233.07828 -10.914223
-131.17355 -232.93364 -10.787354
-125.18164 -232.87418 -10.644236
-124.89822 -232.96667 -11.736664
-120.07155 -232.64742 -8.1068821
-131.17462 -232.79274 -10.656724
-125.34304 -232.64084 -10.673169
-125.70987 -232.71727 -11.558603
-125.38918 -232.64157 -11.72131
-125.15802 -232.65157 -11.745465
-134.6143 -232.58731 -7.5542622
-120.63049 -232.42831 -8.6892948
-131.50014 -232.4673 -10.37987
-125.82825 -232.58041 -10.301123
-125.08569 -232.51906 -10.348434
-131.4801 -232.5201 -10.534025
-125.05688 -232.47729 -10.424288
-125.35851 -232.46178 -11.530077
-122.04324 -232.56177 -11.784153
-120.58023 -232.25557 -7.948853
-120.60931 -232.30684 -8.6758461
-120.59554 -232.28122 -9.0110245
-120.5856 -232.33493 -9.2615223
-120.60172 -232.26874 -9.9537163
-120.64628 -232.2691 -10.212644
-125.06853 -232.30998 -10.575138
-120.61488 -232.31047 -10.438622
-131.27855 -232.39001 -10.642814
-125.6553 -232.35559 -10.633055
-125.60199 -232.18793 -7.7803349
-125.51253 -232.12384 -7.9109902
-125.67516 -232.03993 -8.6616621
-130.42328 -232.10788 -10.296299
-126.18771 -232.1102 -10.319279
-125.68522 -232.02855 -10.324422
-125.53287 -232.19275 -10.334732
-125.35816 -232.15839 -10.456285
-124.96251 -232.15271 -10.650112
-121.9538 -232.10623 -12.963938
-130.95979 -231.8772 -7.9129128
-131.00964 -231.8842 -8.0235834
-136.24553 -231.89575 -8.7504139
-136.24648 -231.92603 -8.9514618
-131.23216 -231.93037 -8.9891701
-129.75708 -231.9706 -10.2139
-135.24319 -231.78085 -8.0000401
-131.13609 -231.79988 -8.7095404
-125.61948 -231.70325 -8.6574802
-125.57291 -231.68033 -8.6927204
-125.56984 -231.74472 -8.9349041
-131.14778 -231.77805 -9.0085869
-125.60863 -231.67828 -9.3049736
-125.5545 -231.70267 -9.2565145
-131.12334 -231.79224 -9.4403687
-125.61871 -231.6179 -10.076858
-125.57537 -231.57025 -9.362175
-131.19485 -231.52919 -9.466156
-133.62637 -229.34039 -10.724112
-133.67557 -229.1395 -10.654842
-133.63141 -229.06711 -10.884192
-139.3129 -228.59624 -7.4964299
-127.85458 -227.87601 -13.42216
-139.95139 -227.44511 -10.470255
-138.25009 -227.42603 -12.388681
-139.93829 -227.31415 -10.335534
-138.24683 -226.98964 -12.37277
-131.05322 -226.72218 -12.268425
-130.24883 -226.33212 -11.791806
-130.13812 -226.39053 -12.043794
-130.04971 -225.377 -11.536339
-130.17523 -225.36935 -11.874662
-125.37476 -224.67093 -8.66716
-125.39412 -224.65057 -8.835331
-131.31627 -224.7829 -10.43096
-130.49391 -224.6046 -11.730965
-120.21344 -224.20444 -7.6643748
-127.94397 -224.25407 -8.3697338
-130.3642 -224.24898 -8.6535702
-128.21188 -224.30005 -8.7355719
-127.77445 -224.29903 -8.6284657
-130.43483 -224.30571 -9.1617489
-124.86474 -224.31725 -9.0624065
-131.07402 -224.31393 -12.082652
-130.33945 -224.15021 -9.0984821
-128.10388 -224.14645 -9.0318947
-131.40533 -224.11041 -10.106112
-131.21698 -224.05368 -11.558673
-132.61595 -224.12526 -12.162237
-130.65878 -224.15378 -12.067978
-134.73943 -223.97078 -8.3557978
-130.36021 -223.96393 -9.1476154
-127.84399 -223.99191 -9.0696325
-130.51343 -223.98854 -12.074877
-131.17538 -223.80573 -13.590309
-131.51286 -223.95206 -13.61805
-121.28727 -223.62242 -8.7364769
-121.26453 -223.70541 -8.8769264
-131.25604 -223.60924 -10.234032
-131.34715 -223.66806 -10.484753
-134.439 -223.6778 -13.817469
-130.52481 -223.59201 -7.5092368
-131.4198 -223.43088 -10.195398
-131.98679 -223.45979 -11.987948
-132.22885 -223.45883 -12.149848
-131.65045 -223.54324 -12.086697
-131.51939 -223.31316 -10.579407
-130.95593 -223.30992 -11.775389
-131.3904 -223.35199 -11.881153
-130.90109 -223.37144 -12.064145
-130.70642 -223.2511 -12.025555
-130.86493 -223.13301 -10.110168
-131.24915 -223.18396 -10.284562
-131.65585 -223.06036 -10.600897
-131.41998 -223.18542 -11.775509
-130.72108 -223.19939 -12.066734
-131.6313 -222.84955 -11.547246
-130.90866 -222.92912 -11.861724
-130.95978 -222.94083 -12.028288
-133.14224 -222.95082 -13.741841
-120.07969 -222.60651 -7.9690919
-120.06807 -222.68513 -8.8419085
-120.15256 -222.67346 -9.5842485
-131.61066 -222.70395 -10.56006
-120.00752 -222.55487 -8.4671164
-122.98666 -222.42267 -8.6581621
-124.22234 -222.52055 -8.9441872
-123.04944 -222.44086 -9.6867514
-120.07793 -222.5249 -9.6138391
-126.05472 -222.41745 -10.358719
-120.00368 -222.54723 -11.118986
-120.09866 -222.59119 -11.378645
-126.05693 -222.41211 -11.551684
-124.29082 -222.50598 -11.465275
-123.14528 -222.45036 -11.470949
-132.59354 -222.57283 -11.695011
-126.0564 -222.47987 -11.615582
-124.63626 -222.55005 -11.669977
-124.28937 -222.51656 -11.672859
-127.34372 -222.44467 -11.835317
-120.06853 -222.56348 -12.591385
-123.15224 -222.40208 -12.879015
-120.04414 -222.45889 -12.963963
-133.35089 -222.54439 -13.754324
-120.03984 -222.47981 -13.851892
-120.06683 -222.48866 -14.529676
-120.0249 -222.49014 -15.175343
-120.00418 -222.50592 -16.495579
-124.1813 -222.36345 -8.9160624
-122.98191 -222.36731 -8.959693
-122.26646 -222.33415 -8.844655
-125.96141 -222.22708 -9.74366
-123.05344 -222.34991 -9.7010994
-129.05782 -222.22397 -9.8483858
-126.0347 -222.29301 -11.488039
-124.25429 -222.29932 -11.495302
-122.90366 -222.24725 -11.524263
-122.14469 -222.25287 -11.491594
-126.04281 -222.33429 -11.731908
-127.3333 -222.37375 -11.821318
-122.89709 -222.32161 -12.866048
-126.01233 -222.33458 -13.038605
-125.88866 -222.21277 -13.108441
-122.9501 -222.26054 -13.559757
-124.32741 -222.22218 -14.257597
-124.636 -222.20932 -14.992655
-125.29958 -222.13116 -9.741044
-122.27931 -222.18828 -9.6607075
-131.99913 -222.13193 -9.9327335
-128.98123 -222.18274 -10.225849
-128.52353 -222.04253 -10.393268
-128.93056 -222.1386 -10.468353
-128.23224 -222.0331 -10.433176
-125.92043 -222.1761 -11.446268
-129.1109 -222.17319 -11.91757
-131.96561 -222.08212 -12.49065
-131.98747 -222.1132 -13.28966
-125.87837 -222.17326 -13.446447
-128.85654 -222.02386 -13.687678
-122.86116 -222.16393 -14.190398
-122.32084 -222.08759 -14.111876
-121.79428 -222.14291 -14.059159
-131.96881 -222.01138 -14.227368
-125.94716 -222.12323 -14.441327
-124.25509 -222.19252 -14.913158
-126.05728 -222.12231 -15.159748
-125.86774 -222.09755 -15.087032
-126.03716 -222.15172 -16.502972
-122.17007 -222.0502 -16.823986
-134.95236 -221.87343 -12.642472
-134.94348 -221.84061 -12.845655
-128.76791 -221.89769 -13.188986
-128.17987 -221.88876 -13.114901
-128.84007 -221.93919 -13.348677
-128.27924 -221.90483 -13.318514
-128.15059 -221.93378 -13.628942
-131.83168 -221.86752 -14.252586
-131.8483 -221.81351 -15.222714
-134.35489 -221.79614 -10.609121
-120.5787 -239.84349 -8.1198273
-123.88672 -239.80878 -16.645844
-121.04472 -239.90685 -17.840221
-120.89185 -239.72928 -7.7597289
-125.23457 -239.66399 -8.1975451
-124.02934 -239.6738 -8.0042057
-122.22964 -239.73579 -16.743717
-121.24342 -239.5602 -13.799036
-121.21731 -239.56099 -14.488441
-122.86121 -239.4933 -18.050528
-121.76676 -239.2869 -16.217903
-123.32021 -238.87379 -9.0632038
-123.28835 -238.82216 -10.177246
-121.40276 -238.60394 -7.808229
-121.06385 -238.64447 -7.9704099
-132.39693 -238.62196 -8.165082
-123.33815 -238.67102 -8.1805334
-121.32349 -238.6153 -8.1544123
-125.84799 -238.60129 -8.7112637
-123.3345 -238.68103 -8.667201
-125.86411 -238.6705 -9.0496254
-123.32449 -238.67752 -9.0342827
-123.38318 -238.62981 -9.4287224
-123.33734 -238.65317 -9.8410177
-125.89153 -238.60138 -10.157208
-123.32052 -238.65161 -10.119012
-123.21678 -238.47522 -7.550457
-122.97954 -238.478 -7.514256
-123.15562 -238.52045 -7.6709518
-132.345 -238.59543 -7.886292
-129.83578 -238.4783 -7.9059439
-125.6742 -238.58057 -7.873806
-125.54625 -238.46216 -7.8281012
-123.3004 -238.58386 -7.821722
-129.88046 -238.4209 -8.142848
-125.83817 -238.58833 -8.1023617
-121.14935 -238.59 -8.1654558
-125.76268 -238.54044 -9.4504261
-126.1444 -238.55537 -10.163168
-123.34274 -238.45493 -13.176968
-125.67194 -238.35814 -7.5623622
-132.34544 -238.28114 -7.687191
-129.75343 -238.35489 -7.716496
-125.57047 -238.34665 -7.6835089
-132.47824 -238.20792 -7.8432732
-125.80681 -238.30301 -7.8094382
-132.35904 -238.25127 -8.0961533
-129.84181 -238.39079 -8.0540142
-132.45242 -238.28586 -8.2005129
-129.85245 -238.36095 -8.6669197
-129.80777 -238.3739 -8.9967289
-129.86078 -238.32274 -9.8684006
-129.84108 -238.33469 -10.208062
-129.78732 -238.29358 -11.198814
-123.84262 -238.3385 -14.573963
-135.63474 -238.08224 -7.77355
-135.71042 -238.13284 -8.2346306
-139.34656 -238.08687 -8.5493279
-120.69246 -238.02193 -14.904896
-135.74976 -237.84123 -8.0957003
-129.78018 -237.89685 -11.324407
-122.4674 -237.54095 -16.212757
-138.49391 -235.52832 -13.001193
-138.32849 -235.26727 -12.89051
-121.51245 -235.33076 -12.915184
-138.09032 -235.12933 -12.682236
-138.09747 -235.1355 -12.937584
-136.89766 -234.96622 -11.327187
-136.66139 -234.9216 -11.451574
-137.13974 -234.85558 -12.715965
-137.28418 -234.91747 -12.814487
-137.047 -234.90834 -12.906832
-120.96393 -234.89886 -13.581442
-136.77849 -234.71075 -11.158562
-136.72421 -234.66431 -11.427176
-137.65926 -234.73276 -12.534575
-137.34686 -234.62547 -12.611095
-136.93326 -234.68719 -12.881278
-120.56349 -234.62259 -13.056836
-120.22454 -234.68178 -13.531144
-136.99078 -234.5211 -11.3666
-136.56381 -234.51765 -11.718208
-137.09622 -234.55324 -12.285912
-137.12842 -234.45526 -12.620075
-136.93961 -234.59576 -12.73842
-120.53273 -234.52373 -13.476049
-137.12331 -234.28084 -11.494515
-136.86011 -234.2541 -12.679229
-136.87581 -234.24962 -12.890244
-120.73313 -234.35603 -13.517944
-120.92068 -234.21217 -13.737741
-124.92949 -234.05106 -11.124952
-124.52545 -234.07602 -11.832974
-136.52882 -234.19318 -12.232724
-136.61954 -234.10724 -12.509973
-130.57867 -233.84406 -11.069014
-124.57507 -233.86534 -11.875955
-136.57362 -233.89992 -12.535117
-124.9801 -233.64032 -10.760517
-124.92686 -233.73122 -11.111995
-126.17025 -233.75522 -11.534389
-125.18418 -233.60805 -11.519502
-124.85177 -233.69012 -11.705087
-125.10006 -233.48293 -10.727833
-124.98486 -233.51523 -10.826403
-125.42813 -233.50626 -11.481882
-124.79409 -233.51337 -11.7784
-124.87363 -233.44922 -11.844121
-135.33832 -233.29053 -8.8983727
-125.25466 -233.33276 -10.708633
-123.67863 -233.39618 -11.54844
-137.6451 -233.2076 -12.492468
-125.28214 -233.03311 -10.744907
-124.8185 -233.02292 -11.594516
-123.8873 -233.12567 -11.44323
-125.11687 -233.02907 -11.755477
-124.7723 -233.00075 -11.65812
-124.89602 -233.10687 -11.814721
-138.49933 -233.16042 -12.482093
-121.42862 -233.03008 -12.588917
-121.6395 -233.17131 -13.533722
-132.01514 -232.90483 -9.8809738
-132.12231 -232.83844 -10.060496
-131.1003 -232.94124 -10.782567
-125.6498 -232.90709 -10.631423
-125.15793 -232.96289 -10.697048
-124.12202 -232.88808 -11.382408
-131.9447 -232.67818 -9.8596478
-132.14648 -232.65343 -10.053638
-130.48433 -232.6338 -10.010067
-125.78291 -232.7103 -10.494641
-125.31523 -232.62697 -10.653092
-124.44098 -232.66847 -10.709343
-124.32126 -232.62015 -10.688148
-131.12584 -232.78314 -10.821234
-120.57021 -232.43121 -8.5646162
-120.56052 -232.40945 -9.4435358
-131.4267 -232.46564 -9.7083035
-131.60863 -232.41219 -10.286969
-131.53482 -232.49612 -10.358215
-125.23562 -232.50417 -10.293474
-125.10439 -232.54527 -10.333103
-124.69019 -232.52341 -11.05398
-124.61272 -232.45731 -11.392931
-125.36317 -232.54897 -11.550747
-122.44179 -232.57124 -11.449774
-120.58511 -232.21523 -7.9602909
-120.53607 -232.38467 -8.2997065
-120.56216 -232.32413 -8.4950542
-120.60123 -232.32849 -9.0492411
-120.57031 -232.30737 -9.4713535
-130.7886 -232.3615 -9.8022003
-120.59326 -232.27206 -9.8530464
-130.535 -232.27017 -10.146474
-125.45485 -232.25888 -10.325287
-120.59457 -232.30849 -10.32526
-120.61494 -232.33307 -10.446276
-131.19716 -232.38295 -10.679764
-125.04439 -232.27132 -10.611628
-124.90363 -232.38214 -11.558812
-124.75449 -232.26483 -11.446142
-124.93856 -232.36899 -11.696109
-121.67993 -232.30548 -12.569826
-122.05507 -232.26405 -13.009454
-134.6123 -232.16423 -7.871459
-131.13741 -232.02637 -7.8519392
-125.71835 -232.14699 -8.158246
-125.54369 -232.09769 -8.2714043
-125.67236 -232.04578 -9.1119156
-131.2887 -232.19763 -9.7373638
-131.18451 -232.02834 -9.7841358
-126.28397 -232.10487 -10.304358
-125.82723 -232.10995 -10.31133
-125.35272 -232.08867 -11.070522
-121.97057 -232.1601 -12.983015
-130.95665 -231.84157 -7.8542919
-125.63767 -231.84483 -8.1231079
-136.14334 -231.90154 -8.2324238
-131.0285 -231.86917 -8.2346811
-136.14554 -231.92439 -8.5226192
-135.31107 -231.80951 -8.5387154
-131.07585 -231.90776 -8.5205107
-136.19574 -231.88445 -9.0572834
-131.13707 -231.86255 -9.5116854
-136.16019 -231.81848 -9.6448574
-131.11279 -231.82381 -9.7489872
-125.56344 -231.8183 -9.7321835
-126.59049 -231.98447 -10.153479
-125.57913 -231.91522 -10.118103
-129.74098 -231.97141 -10.316426
-125.52754 -231.96552 -10.462346
-125.53545 -231.72466 -8.3545809
-125.53513 -231.72412 -8.6036205
-135.30275 -231.75313 -8.9554882
-125.57987 -231.70908 -8.9002056
-131.13419 -231.74866 -9.1359921
-135.30405 -231.76138 -9.3674641
-136.13992 -231.75558 -9.4446917
-125.53088 -231.68744 -9.4900007
-125.62016 -231.59648 -9.0731955
-125.65758 -231.52197 -9.3305349
-136.12231 -231.50522 -9.5455313
-131.15665 -231.50224 -9.4793472
-125.55956 -231.57668 -10.240657
-125.08949 -231.45239 -11.531454
-122.83414 -231.44017 -13.961661
-125.52429 -231.24878 -11.397154
-124.88797 -231.36189 -11.502831
-124.96254 -231.35081 -11.628538
-124.50805 -231.07076 -10.598482
-124.89163 -230.9048 -10.603848
-123.65913 -230.89487 -13.717383
-124.87872 -230.68465 -10.587787
-125.22789 -230.65649 -11.358177
-125.06326 -230.603 -11.477932
-120.69096 -230.63994 -15.636209
-124.98135 -230.52956 -11.466593
-124.96721 -230.58162 -11.6031
-126.34886 -230.29126 -11.407604
-126.50007 -230.04172 -11.485487
-129.981 -230.06923 -11.798773
-126.59415 -229.90945 -11.55106
-124.19068 -229.86632 -12.893404
-133.55952 -229.39371 -10.764757
-133.62097 -229.26633 -10.855277
-133.5713 -229.23868 -10.919857
-131.11339 -229.23761 -11.569231
-131.08984 -229.22879 -11.680849
-133.70976 -229.05896 -10.696978
-133.64136 -229.04597 -10.942135
-131.11612 -229.13113 -11.842878
-139.34009 -228.83667 -7.9517789
-133.77103 -228.88043 -12.042465
-120.00375 -228.91107 -14.165943
-133.64807 -228.6545 -11.998487
-133.83481 -228.64236 -12.077971
-139.36096 -228.56168 -7.905808
-138.07587 -228.52501 -8.046586
-138.16812 -228.30569 -7.5840468
-133.6774 -228.31012 -12.118808
-137.86359 -228.12643 -7.841064
-125.70392 -227.901 -14.074905
-139.97318 -227.61792 -10.065848
-127.84387 -227.79753 -13.425903
-139.90311 -227.4283 -9.2659788
-139.93703 -227.47769 -10.560314
-139.89076 -227.49998 -11.022514
-138.17003 -227.42744 -12.353008
-139.97069 -227.34021 -9.0418673
-139.92967 -227.37021 -10.196776
-131.21457 -227.03767 -11.664464
-138.25266 -227.0625 -12.322298
-139.4297 -226.9344 -7.9935608
-131.80753 -226.74838 -11.663671
-131.22687 -226.71295 -11.734991
-131.17798 -226.71819 -11.652174
-138.11545 -226.45599 -13.541012
-138.07568 -226.28415 -13.019529
-137.85384 -225.94972 -13.600899
-130.33218 -225.61549 -11.557984
-130.63684 -225.61401 -11.762867
-130.32416 -225.7395 -11.748925
-130.23639 -225.74782 -12.01942
-137.80585 -225.7596 -13.403979
-131.32211 -225.26089 -10.346861
-131.83792 -225.24503 -10.500971
-131.60544 -225.04402 -10.474689
-130.24347 -225.15488 -11.67599
-130.64046 -225.10252 -12.06819
-134.49089 -224.95197 -7.9580302
-122.11247 -224.92653 -8.7396536
-121.39671 -224.83157 -8.6260071
-121.89532 -224.87186 -8.8835449
-132.48114 -224.86273 -10.320714
-131.26639 -224.82703 -10.325218
-134.84436 -224.81241 -10.613819
-130.8035 -224.89749 -11.869067
-130.62534 -224.99997 -11.95516
-130.69812 -224.86536 -12.070018
-134.57979 -224.6889 -7.8188438
-125.37305 -224.61818 -8.7099018
-121.7597 -224.74361 -8.7465897
-121.55875 -224.70651 -8.7558765
-133.1371 -224.73912 -9.807292
-132.63907 -224.7066 -10.241714
-131.28638 -224.69885 -10.335541
-130.70639 -224.62605 -14.159739
-125.13388 -224.48886 -7.7249818
-120.023 -224.42303 -7.8852739
-130.57419 -224.4538 -8.8321896
-128.24182 -224.42714 -8.8335323
-124.88963 -224.45296 -8.9222202
-121.59669 -224.58423 -8.8158283
-139.78479 -224.52264 -9.3880367
-130.91464 -224.55641 -10.352924
-130.72136 -224.58704 -10.319979
-130.50668 -224.49146 -11.534421
-131.69388 -224.20021 -7.5513759
-120.12409 -224.20262 -7.7640319
-130.38539 -224.24796 -8.3803291
-127.90997 -224.29932 -8.3767385
-130.44669 -224.32245 -8.444315
-127.78874 -224.31815 -8.5899353
-128.17677 -224.24316 -8.7535105
-130.59521 -224.34567 -9.0343637
-128.53915 -224.20561 -9.0896425
-131.21725 -224.26514 -9.7482347
-134.21109 -224.22305 -10.174826
-131.25627 -224.24455 -12.198253
-130.29079 -224.26485 -12.823786
-130.70493 -224.24139 -14.146397
-128.65895 -224.0061 -7.764637
-131.80374 -224.17438 -7.8841939
-121.61787 -224.13063 -8.3704538
-130.26543 -224.17012 -8.729126
-121.27606 -224.02605 -8.731039
-121.38968 -224.1387 -8.856369
-130.34558 -224.17798 -9.0894699
-128.20935 -224.16479 -9.0353937
-131.04308 -224.14766 -9.7409353
-131.39117 -224.14664 -10.221538
-131.04678 -224.07974 -11.779354
-130.6438 -224.08832 -11.88103
-130.64363 -224.10739 -12.10371
-131.58118 -224.00578 -13.404304
-130.56537 -223.8808 -7.824616
-121.32833 -223.80847 -8.7391624
-128.06961 -223.86783 -8.9972219
-130.56731 -223.90274 -9.1274452
-127.94419 -223.94342 -9.028553
-130.39459 -223.99884 -9.2512188
-131.55197 -223.93451 -9.97509
-131.70956 -223.87802 -10.293655
-130.52914 -223.96048 -12.109485
-130.77721 -223.94164 -12.770943
-131.23891 -223.90854 -13.372257
-130.51605 -223.8773 -14.873501
-128.93196 -223.6925 -7.434123
-132.15315 -223.63089 -7.6570859
-121.29642 -223.71376 -8.8500557
-128.13133 -223.67143 -9.232934
-122.15953 -223.79155 -9.7261553
-131.37146 -223.6752 -10.241302
-131.40912 -223.70998 -10.568465
-132.38507 -223.61159 -11.82354
-132.4234 -223.76558 -14.232367
-121.28244 -223.564 -8.9115791
-131.29535 -223.55396 -9.7311935
-131.42117 -223.42493 -10.189742
-132.31522 -223.55359 -10.30687
-131.5247 -223.41785 -10.648647
-131.36505 -223.5246 -11.551716
-130.89841 -223.43373 -11.568927
-132.12698 -223.57509 -11.998116
-131.79575 -223.44632 -11.803338
-132.47437 -223.53416 -12.019453
-133.41183 -223.40404 -13.061949
-133.94626 -223.28917 -9.7867575
-130.89854 -223.30069 -9.9462004
-131.11331 -223.38062 -10.205203
-130.99591 -223.38457 -11.807737
-130.90167 -223.36008 -12.075729
-131.75514 -223.37561 -14.194893
-130.94768 -223.04633 -9.938446
-130.92249 -223.16461 -10.15519
-130.74464 -223.01572 -10.048908
-131.3965 -223.06209 -11.538764
-131.42033 -223.16858 -11.780303
-130.72868 -223.18466 -12.069803
-133.81607 -223.09702 -13.050562
-133.06363 -223.05307 -13.69508
-131.31784 -223.02078 -14.116419
-121.43874 -222.8791 -9.7862396
-121.00577 -222.88123 -9.7646503
-120.06921 -222.89777 -9.72262
-123.14053 -222.80763 -9.8538294
-122.55826 -222.82233 -9.832222
-121.98203 -222.8387 -9.811121
-131.66302 -222.91597 -10.663858
-131.65039 -222.82693 -11.558879
-130.91391 -222.92947 -11.9252
-133.52754 -222.81432 -13.537988
-120.10783 -222.67422 -8.9904556
-120.07413 -222.60677 -9.4934454
-120.04092 -222.64246 -9.6930466
-126.13523 -222.63994 -9.9987965
-125.43422 -222.6725 -9.9772511
-125.12218 -222.6656 -9.9463978
-124.6846 -222.71227 -9.9609156
-123.05587 -222.67503 -9.8288021
-126.8893 -222.60924 -10.116024
-125.97369 -222.66127 -10.033298
-120.13065 -222.69484 -10.753117
-131.34056 -222.63255 -11.098295
-131.30273 -222.6658 -11.338247
-120.07864 -222.61214 -11.354976
-131.7435 -222.68982 -11.508128
-131.67474 -222.73421 -11.790632
-120.06546 -222.62067 -11.77039
-130.94681 -222.76109 -12.069505
-121.27649 -222.66943 -12.503386
-120.07957 -222.61707 -12.70525
-121.26123 -222.68797 -12.92763
-120.09287 -222.60207 -12.856011
-133.54758 -222.67717 -13.563524
-120.4631 -222.74385 -13.560711
-131.59531 -222.66002 -14.98098
-131.38 -222.75438 -15.427408
-120.04365 -222.56683 -7.8186288
-124.20531 -222.49443 -9.0459328
-123.01334 -222.46753 -9.5160151
-126.13483 -222.54141 -10.252771
-126.0629 -222.41997 -10.466245
-123.89635 -222.47382 -10.984564
-123.34992 -222.50919 -10.945574
-123.04599 -222.50821 -10.943925
-122.63165 -222.48534 -10.932203
-122.20946 -222.51486 -10.887369
-121.8066 -222.52313 -10.890551
-121.34364 -222.52148 -10.863015
-120.05289 -222.56531 -10.891188
-126.05173 -222.45323 -11.11917
-124.49189 -222.46362 -11.011543
-124.30651 -222.43587 -11.026228
-124.30349 -222.54642 -11.526602
-121.20364 -222.53284 -11.514337
-132.51292 -222.51312 -11.649664
-127.34953 -222.44261 -11.749084
-126.06117 -222.46031 -11.662398
-124.25818 -222.45715 -11.689081
-122.63306 -222.44061 -11.932131
-122.20622 -222.46002 -11.966953
-121.77315 -222.46896 -11.933494
-121.42397 -222.49425 -11.87281
-121.04106 -222.48471 -11.903009
-123.05087 -222.43941 -12.034951
-121.47707 -222.4207 -12.03789
-120.0858 -222.55933 -12.130016
-126.0291 -222.435 -12.327
-121.15727 -222.41177 -13.109879
-123.09745 -222.48589 -13.305226
-125.34346 -222.54315 -13.576933
-124.24455 -222.52628 -13.480371
-123.89686 -222.49677 -13.488852
-133.41225 -222.56158 -13.700711
-124.80231 -222.57973 -13.645952
-124.54897 -222.53868 -13.64739
-120.05536 -222.53604 -13.800447
-133.16199 -222.50578 -14.243935
-120.06682 -222.5481 -14.299982
-120.0446 -222.54959 -14.608797
-121.54298 -222.41895 -15.117609
-120.03395 -222.50409 -15.070963
-120.04512 -222.54646 -15.201938
-120.07387 -222.52873 -16.38282
-124.15919 -222.33095 -9.0020657
-122.96883 -222.37436 -9.0379725
-122.28918 -222.32196 -9.0143137
-122.29303 -222.31075 -9.4969177
-132.07654 -222.20172 -10.253239
-125.05716 -222.21509 -10.356339
-126.07592 -222.39902 -10.400738
-125.86377 -222.2166 -10.451924
-131.43259 -222.33698 -10.604488
-121.90334 -222.32054 -10.666908
-125.35931 -222.33063 -10.996827
-124.95419 -222.27122 -10.994378
-122.96157 -222.32632 -10.969152
-122.0807 -222.31268 -10.820751
-127.98245 -222.27191 -11.145424
-127.09775 -222.27968 -11.124312
-125.92886 -222.28101 -11.129527
-124.2677 -222.37134 -11.015611
-126.02091 -222.36652 -11.39159
-132.43106 -222.2605 -11.599638
-131.91647 -222.24054 -11.532301
-129.83679 -222.38686 -11.43268
-124.27847 -222.33301 -11.513048
-122.9138 -222.31883 -11.411032
-132.32974 -222.28232 -11.753237
-127.37167 -222.30573 -11.783692
-126.03955 -222.35474 -11.720314
-123.00816 -222.34808 -11.945272
-122.29356 -222.35193 -11.948238
-122.97491 -222.29451 -12.184612
-126.01253 -222.36206 -12.265399
-125.81689 -222.20207 -12.272801
-126.00861 -222.27693 -12.50345
-122.97299 -222.32533 -12.570683
-123.00483 -222.33521 -13.109965
-132.89342 -222.23541 -13.618441
-131.86575 -222.21759 -13.658571
-125.89857 -222.20206 -14.161214
-133.0065 -222.39531 -14.224894
-132.75128 -222.30887 -14.286705
-122.9249 -222.25258 -14.256802
-124.68193 -222.27255 -14.480545
-126.03268 -222.33002 -14.653493
-126.01788 -222.21597 -15.371689
-125.98985 -222.34712 -15.321581
-121.00598 -222.31438 -15.275528
-122.9837 -222.32147 -15.456057
-126.00656 -222.32748 -15.779051
-125.96013 -222.228 -15.79018
-131.99902 -222.02286 -10.376895
-128.90909 -222.16025 -10.216253
-128.60881 -222.05925 -10.256935
-128.88098 -222.09491 -10.51889
-128.3156 -222.0509 -10.480218
-127.85916 -222.07938 -10.496973
-128.15921 -222.06291 -11.199344
-128.87746 -222.08484 -11.338173
-128.49742 -222.07425 -11.258283
-128.24284 -222.06506 -11.332785
-127.77073 -222.09189 -11.2423
-125.93811 -222.19676 -11.288652
-125.32607 -222.08914 -11.274397
-130.97316 -222.03583 -11.593899
-128.97559 -222.11099 -11.763762
-131.8918 -222.15373 -11.864204
-131.96007 -222.11337 -12.04604
-125.27354 -222.10156 -12.218908
-125.18314 -222.09599 -12.23369
-128.17488 -222.01918 -12.489624
-125.94801 -222.19875 -12.468199
-131.88326 -222.11751 -12.768533
-131.89951 -222.09515 -12.844419
-125.8924 -222.16898 -12.909632
-125.21767 -222.04367 -12.8552
-128.92758 -222.14201 -13.150866
-131.8782 -222.16454 -13.305142
-125.44084 -222.07922 -13.391024
-122.90733 -222.17863 -13.361612
-125.88611 -222.16074 -13.425179
-122.21227 -222.15707 -13.417162
-131.94437 -222.03741 -14.12727
-122.77304 -222.10756 -14.165939
-125.90178 -222.1852 -14.588644
-131.89262 -222.02344 -14.638363
-128.9061 -222.05405 -14.934378
-127.24639 -222.08879 -14.966314
-125.92335 -222.14609 -14.903643
-125.11144 -222.04887 -14.841267
-124.9788 -222.05476 -14.956568
-122.96367 -222.19073 -14.973024
-124.28635 -222.13321 -15.044683
-125.94221 -222.01405 -16.246334
-125.21513 -221.9789 -12.188345
-128.16248 -221.87445 -12.254784
-128.14966 -221.92139 -12.450489
-134.9305 -221.86926 -12.678291
-131.8387 -221.84993 -12.94184
-125.20478 -221.96803 -12.807794
-134.85913 -221.89462 -13.051624
-134.77672 -221.81131 -13.059632
-131.87747 -221.97498 -13.390858
-128.17612 -221.93669 -13.269807
-125.17775 -221.91968 -13.339088
-134.82242 -221.89558 -13.45278
-131.84299 -221.96475 -14.097603
-133.59988 -221.92722 -14.311827
-128.79472 -221.84169 -14.797337
-128.10544 -221.89157 -14.654951
-128.14479 -221.80757 -15.694983
-125.13423 -221.82104 -15.762811
-128.5787 -221.91161 -16.176712
-128.13849 -221.87958 -16.108562
-122.15771 -221.96452 -16.770184
-134.19954 -221.7558 -12.263218
-134.13147 -221.76343 -13.000843
-134.1127 -221.70345 -14.313089
-133.93185 -221.7334 -14.281813
-134.72705 -221.65512 -14.929871
-121.43921 -239.89207 -7.8264322
-124.24048 -239.7355 -8.0562057
-123.67195 -239.76953 -8.0204725
-124.37857 -239.75568 -16.244709
-122.64145 -239.64713 -18.11758
-129.02203 -239.59131 -7.5143552
-126.24846 -239.52988 -8.0885925
-121.10912 -239.55182 -13.978211
-122.93176 -239.46313 -17.420486
-131.81398 -239.3266 -7.690608
-130.59076 -239.3788 -7.741426
-129.88242 -239.35071 -7.8974319
-131.78397 -239.15138 -7.6604609
-132.41486 -238.86606 -7.5834241
-125.71135 -238.92111 -7.8742132
-123.17015 -238.80971 -12.10057
-123.1483 -238.65976 -7.6638508
-125.49986 -238.64157 -7.8270559
-125.80643 -238.67667 -8.6086845
-123.35655 -238.61432 -10.680889
-123.32825 -238.67676 -10.959824
-123.37299 -238.69788 -13.779254
-129.77165 -238.53923 -8.0772877
-129.7186 -238.47279 -9.1662254
-126.02069 -238.5451 -9.8465691
-123.33477 -238.5883 -11.884396
-123.29263 -238.59778 -12.583476
-125.74343 -238.28415 -7.4974961
-129.80548 -238.33746 -10.188006
-129.7928 -238.2632 -11.233995
-139.4144 -238.0538 -8.5703821
-120.67647 -238.04425 -14.799652
-125.04918 -237.99252 -15.044434
-134.74585 -237.60919 -7.461627
-121.24423 -237.75491 -16.086742
-125.09059 -237.56583 -15.399532
-122.87303 -237.24924 -16.829067
-129.19272 -236.98256 -7.791944
-122.14832 -236.57307 -14.545879
-122.64362 -236.57077 -14.607255
-120.933 -235.63402 -13.885777
-123.48486 -235.4695 -13.479073
-121.37553 -235.32426 -12.324898
-138.47269 -235.37042 -12.747234
-138.16937 -235.2348 -12.662201
-121.38164 -235.35774 -13.047487
-128.01637 -235.07426 -7.4643631
-136.74701 -234.93793 -11.193026
-137.20789 -234.80817 -12.32793
-137.30948 -234.94316 -12.751213
-128.01782 -234.61128 -7.7607288
-137.20172 -234.42139 -11.312316
-120.9734 -234.45587 -14.242163
-137.00119 -234.33366 -12.259089
-120.63399 -234.35065 -13.058599
-120.72786 -234.27496 -13.422955
-120.94683 -234.25449 -13.915014
-136.35344 -233.9828 -12.187887
-124.55909 -233.89482 -12.053938
-136.38963 -233.83226 -13.486082
-121.70137 -233.82199 -14.974318
-124.9751 -233.64584 -10.742922
-125.92596 -233.71518 -11.174637
-137.60789 -233.74245 -11.737139
-121.26946 -233.7226 -13.363092
-125.03588 -233.40552 -10.710528
-124.96954 -233.47984 -10.892509
-139.39551 -233.51401 -11.366723
-124.79475 -233.44656 -11.719814
-121.28131 -233.44171 -14.095572
-122.19251 -233.52289 -14.21774
-121.66707 -233.40915 -14.925182
-125.0135 -233.06516 -10.923191
-123.92825 -233.05342 -11.350141
-120.06194 -232.89015 -7.677525
-139.28828 -232.92479 -12.321184
-122.60516 -232.83994 -14.982924
-125.90749 -232.77472 -7.3510122
-131.13741 -232.6955 -10.740528
-131.22232 -232.75911 -10.827826
-122.26337 -232.61229 -12.041593
-121.8577 -232.66919 -13.287041
-120.61334 -232.45503 -10.165404
-125.37917 -232.49873 -10.312985
-131.30759 -232.49258 -10.663663
-125.17172 -232.44604 -11.013081
-124.88632 -232.42886 -11.469929
-134.49078 -232.28334 -7.5411668
-120.52383 -232.27045 -7.8926811
-120.54089 -232.34259 -8.2478971
-131.59361 -232.38467 -10.393565
-131.70006 -232.26813 -10.478618
-131.27034 -232.38214 -10.723383
-129.92143 -232.29214 -11.253265
-122.07732 -232.23666 -13.088312
-136.20984 -232.02185 -8.1040287
-125.66497 -232.10121 -8.5391521
-131.14429 -232.02419 -8.7326794
-129.50916 -232.14287 -10.083215
-130.34605 -232.14453 -10.427099
-124.88718 -232.15155 -10.62106
-125.33509 -232.14355 -11.050721
-120.57243 -232.16025 -11.257175
-134.6424 -232.06528 -15.891756
-125.40342 -231.91077 -7.807869
-136.1196 -231.81808 -8.2486115
-135.28706 -231.88882 -8.2603703
-136.18309 -231.85771 -9.0754356
-131.22455 -231.97424 -9.5996618
-129.95264 -231.90843 -10.429256
-130.46408 -231.82172 -10.64713
-125.41646 -231.66905 -7.4167562
-125.51828 -231.74347 -9.3477058
-131.10562 -231.69336 -10.490995
-125.58685 -231.58502 -9.3649139
-131.16837 -231.53683 -9.4241934
-136.28523 -231.53813 -10.350691
-135.25641 -231.49902 -10.621244
-121.24166 -231.54991 -12.792362
-123.04011 -231.50745 -13.754103
-126.64066 -231.30896 -7.8620272
-130.57529 -231.32095 -10.620262
-124.61877 -231.3631 -11.050563
-129.77824 -231.39551 -11.372433
-125.47169 -231.26476 -11.299539
-124.25919 -231.33185 -12.140969
-123.29664 -231.28468 -13.210314
-124.35987 -231.07941 -7.3496642
-120.47427 -231.09412 -7.4977078
-124.71184 -231.12364 -11.231599
-125.88488 -231.07529 -11.453084
-124.45414 -231.12289 -12.162657
-122.10239 -231.1629 -12.901261
-123.42169 -231.01407 -13.254084
-129.42862 -230.92957 -12.73538
-123.68814 -230.85347 -12.701578
-123.51917 -230.68694 -13.166822
-126.18562 -230.52429 -11.23862
-124.18518 -230.58032 -13.861814
-123.91171 -230.25276 -14.201529
-136.45441 -230.3533 -14.52368
-132.66159 -230.02928 -11.268363
-131.13776 -230.15262 -12.630639
-130.92404 -230.10266 -13.913918
-136.58278 -230.19032 -14.250513
-120.97874 -230.18359 -16.629478
-121.90605 -230.13643 -16.821594
-130.08505 -229.81546 -11.444313
-125.05241 -229.8065 -11.789646
-124.44422 -229.85573 -13.204019
-124.57559 -229.86685 -14.10932
-124.15549 -229.92584 -14.20525
-126.61191 -229.77127 -7.2076511
-125.77203 -229.73927 -11.086109
-133.40021 -229.74832 -11.523718
-139.12077 -229.78809 -13.657157
-135.39146 -229.78107 -14.122454
-121.05683 -229.61372 -15.542688
-124.88978 -229.53339 -12.212407
-126.41254 -229.56096 -13.215714
-124.96349 -229.50223 -14.102701
-120.10802 -229.57521 -15.183791
-133.62257 -229.31984 -10.761772
-133.54454 -229.34711 -10.72494
-133.82919 -229.397 -12.749176
-134.88422 -229.24895 -13.241002
-124.01768 -229.3455 -14.218596
-120.76128 -229.31447 -15.204286
-125.92397 -229.37041 -15.501269
-133.70102 -229.06985 -10.684486
-131.40196 -229.05008 -11.074002
-133.33655 -229.07846 -12.519623
-133.81067 -229.11398 -12.753155
-137.63213 -229.12677 -12.987234
-129.82701 -229.07596 -16.173573
-138.08076 -228.82365 -13.961065
-129.99152 -228.88965 -15.662698
-137.6774 -228.68396 -12.700729
-125.29235 -228.63568 -13.86279
-127.04538 -228.64914 -16.575752
-138.20645 -228.51395 -7.9193501
-134.01247 -228.50247 -11.772518
-139.43735 -228.5087 -14.883093
-136.09476 -228.52046 -14.987568
-137.9122 -228.3107 -8.0978937
-125.45914 -228.2704 -13.943938
-124.75365 -228.32664 -16.214958
-128.55591 -228.38519 -17.455606
-139.62645 -228.02814 -14.825945
-138.08788 -227.96902 -7.7224021
-138.07791 -227.9274 -8.0807524
-125.68916 -227.94736 -14.199578
-127.04836 -227.85803 -17.003468
-139.97032 -227.70265 -9.0801668
-139.94995 -227.72462 -11.124981
-138.09932 -227.789 -11.923518
-127.74587 -227.77492 -13.866457
-139.79324 -227.63449 -14.024239
-136.23392 -227.68919 -15.52294
-125.61082 -227.58781 -13.947298
-139.08374 -227.52078 -19.892578
-139.81259 -227.32309 -13.84382
-139.11775 -227.2256 -15.141556
-138.45668 -227.1138 -13.26363
-138.23709 -227.04022 -13.302895
-139.08752 -227.14212 -14.326368
-139.09146 -227.13977 -14.711162
-126.76622 -227.13474 -14.809126
-127.92557 -227.01653 -17.397255
-131.9483 -226.93515 -11.454649
-131.7099 -226.99979 -12.314692
-131.18153 -226.81714 -12.536878
-138.2296 -226.81944 -19.102196
-131.11499 -226.73857 -12.57078
-132.06158 -226.74496 -14.32638
-131.49182 -226.63261 -14.281054
-131.57278 -226.76701 -14.555928
-138.36981 -226.64293 -17.773317
-139.52632 -226.70616 -19.596684
-130.35184 -226.50972 -12.530025
-131.81982 -226.5631 -14.569345
-139.0452 -226.45926 -16.810099
-139.03537 -226.37891 -7.7409821
-137.87979 -226.30322 -13.711384
-138.33278 -226.30493 -13.842201
-132.04692 -226.39679 -14.678447
-132.62524 -226.26965 -15.62406
-130.09534 -226.13858 -12.473875
-131.36789 -226.15791 -13.705634
-138.52911 -226.12839 -13.847464
-137.68524 -226.10266 -14.419119
-130.49341 -226.15546 -14.615612
-130.24355 -226.04144 -14.74008
-132.99081 -226.12476 -15.465937
-139.90897 -225.89148 -7.46419
-139.85611 -225.92891 -7.6236248
-130.5955 -225.91229 -11.35388
-132.76237 -225.86902 -11.413655
-130.60368 -225.8114 -12.480247
-133.78337 -225.9501 -13.357944
-137.84546 -225.87563 -13.703692
-133.12938 -225.91626 -16.335825
-132.55562 -225.68546 -10.307106
-133.4679 -225.6998 -16.575478
-129.93005 -225.5477 -11.414654
-129.97255 -225.53581 -11.757706
-130.26207 -225.41414 -12.171967
-131.28 -225.49257 -12.443251
-133.89397 -225.39096 -7.9934392
-131.68681 -225.2281 -10.378977
-132.53488 -225.23958 -10.451833
-134.28926 -225.36194 -10.905478
-130.6154 -225.20471 -12.352696
-130.55984 -225.33559 -12.56778
-138.22462 -225.36215 -14.465094
-132.34619 -225.28461 -15.187661
-131.15501 -225.23607 -15.34334
-134.64389 -225.09885 -8.255024
-131.36987 -225.12537 -12.679932
-131.00336 -225.03391 -13.534235
-120.59595 -224.83614 -7.9029479
-131.60373 -224.9865 -11.175652
-130.30838 -224.86859 -11.418123
-131.00513 -224.86929 -12.951569
-131.83395 -224.90932 -13.983349
-131.44487 -224.96034 -14.855705
-132.91681 -224.8692 -16.187332
-134.62576 -224.77322 -7.5360069
-121.89323 -224.68909 -8.9094086
-132.08472 -224.62575 -11.36019
-130.82056 -224.75323 -11.773622
-130.56392 -224.63812 -11.70734
-131.15002 -224.78168 -14.398577
-131.91049 -224.79047 -14.500751
-132.0925 -224.49593 -7.979713
-121.45251 -224.59102 -8.5858116
-122.02438 -224.46579 -8.7038069
-128.17667 -224.4794 -8.8808708
-124.77299 -224.45506 -8.9452925
-130.71262 -224.54634 -10.294264
-124.93948 -224.28812 -7.7244711
-128.1806 -224.25974 -8.7470284
-134.70096 -224.39127 -13.327793
-131.96381 -224.24121 -16.030132
-121.63996 -224.10191 -8.4860725
-131.4599 -224.15097 -10.944098
-133.01611 -224.08936 -13.341075
-131.63954 -223.91711 -7.785975
-131.40619 -223.84839 -10.65821
-131.08084 -223.92374 -12.255583
-133.15001 -223.97131 -13.137089
-131.90048 -223.97311 -13.540771
-132.70297 -223.91898 -13.783237
-130.71072 -223.88719 -14.304803
-133.95998 -223.84755 -15.000549
-128.20837 -223.79272 -9.6740837
-131.78311 -223.7429 -9.9439411
-132.47017 -223.70703 -12.156504
-131.91197 -223.66109 -12.538022
-139.31369 -223.60696 -13.985574
-128.27307 -223.53508 -8.9501219
-132.42755 -223.53877 -11.878727
-133.39656 -223.42792 -13.100389
-122.07272 -223.31386 -8.5483036
-130.68314 -223.34863 -11.925661
-130.64792 -223.39929 -15.08913
-130.83699 -223.27927 -15.405708
-133.09348 -223.01506 -13.584558
-130.99911 -223.06798 -15.414495
-139.85251 -223.17816 -17.204388
-123.12033 -222.81818 -9.8827839
-120.15883 -222.80568 -10.740736
-133.02304 -222.99194 -13.79496
-131.82962 -222.951 -14.650355
-139.70624 -222.97482 -19.868469
-122.99522 -222.66479 -7.4385982
-129.74301 -222.69032 -9.908659
-131.63641 -222.6611 -10.563957
-120.10326 -222.68579 -10.705736
-132.01846 -222.61946 -12.620808
-133.6131 -222.603 -13.395896
-127.02298 -222.67348 -13.482849
-131.56281 -222.73239 -14.701534
-139.62585 -222.66322 -19.82877
-129.35373 -222.4875 -9.9660511
-131.01775 -222.45718 -10.463541
-123.80762 -222.47522 -10.94973
-130.98784 -222.54564 -11.074715
-124.92697 -222.41563 -11.004086
-121.09519 -222.54083 -11.457314
-132.3056 -222.48799 -11.659848
-126.06339 -222.46811 -11.69491
-123.10968 -222.48683 -11.865292
-129.08948 -222.52672 -13.421
-127.52975 -222.47754 -13.506009
-124.65989 -222.57594 -13.655598
-123.21213 -222.49525 -14.224655
-125.21056 -222.4821 -16.84964
-120.00819 -222.37714 -9.6104565
-121.87492 -222.33905 -10.727838
-130.90016 -222.38554 -11.07349
-126.02243 -222.3678 -11.085196
-124.65993 -222.25269 -11.05456
-129.76126 -222.34154 -11.502217
-124.54594 -222.34341 -12.113494
-131.87425 -222.24593 -12.267198
-125.90303 -222.22357 -12.298018
-139.25322 -222.32864 -13.966733
-122.32104 -222.26389 -13.954876
-121.52338 -222.38484 -14.187212
-132.60474 -222.23286 -14.341515
-124.59245 -222.27313 -14.342718
-132.80177 -222.36113 -14.458539
-122.92265 -222.24335 -16.17342
-125.85078 -222.20496 -16.966026
-123.34697 -222.2731 -16.841225
-128.79759 -222.23309 -17.61071
-131.48737 -222.18646 -9.4317694
-131.94022 -222.11313 -10.32832
-125.35556 -222.19936 -10.289793
-125.12595 -222.18919 -11.403066
-122.22469 -222.11343 -12.526716
-131.88594 -222.10794 -12.663116
-131.23695 -222.09605 -13.394276
-131.80011 -222.13423 -13.677982
-122.96171 -222.18716 -14.533764
-127.41255 -222.05597 -15.024502
-131.88455 -222.16702 -16.22142
-129.78754 -222.19046 -17.814754
-134.26447 -221.81299 -10.633194
-128.16595 -221.93646 -12.325565
-125.21908 -221.97688 -12.239986
-125.17574 -221.95728 -12.273681
-131.18152 -221.84787 -13.278358
-122.17077 -221.99786 -13.345499
-134.72787 -221.80432 -14.983635
-125.76616 -221.9653 -14.854454
-131.77167 -221.91678 -16.015633
-128.61328 -221.9223 -16.12392
-133.16394 -221.94312 -16.848301
-131.07671 -221.5228 -16.804604
-120.64273 -239.81042 -7.8629012
-121.92657 -239.96686 -16.244404
-123.84467 -239.85039 -16.654894
-122.18047 -239.88255 -16.682793
-122.82722 -239.99599 -16.851524
-121.07881 -239.71741 -7.4640088
-121.22237 -239.66309 -13.969684
-122.87877 -239.69696 -17.471848
-129.85452 -239.42854 -8.1272936
-128.6543 -239.45297 -8.0944872
-121.9949 -239.46022 -15.65834
-130.92271 -239.31102 -7.8136158
-130.32565 -239.36266 -8.1102715
-129.00259 -239.3978 -8.0816355
-121.74191 -239.32208 -16.234108
-123.27573 -238.86844 -8.1798916
-121.26375 -238.9968 -8.1280708
-125.81982 -238.82675 -9.3767595
-123.28504 -238.87701 -10.125879
-123.34363 -238.68741 -8.941761
-125.82829 -238.65894 -9.3197651
-132.32005 -238.55087 -7.5645208
-123.07513 -238.51086 -7.5408292
-135.44672 -238.59085 -7.8201218
-125.92246 -238.54361 -7.8786178
-132.33258 -238.55969 -8.1402397
-123.29309 -238.57642 -12.992115
-134.00087 -238.21585 -7.526638
-133.51202 -238.23837 -7.500905
-129.85847 -238.34711 -8.0852747
-121.50735 -238.00148 -16.652792
-135.59196 -237.91151 -7.8563032
-129.3739 -236.85655 -7.7762918
-122.98433 -236.46191 -14.651804
-128.1886 -235.25232 -7.524509
-121.36369 -235.30362 -12.51722
-121.14552 -235.26573 -13.727139
-137.42122 -235.02408 -11.574342
-136.87851 -235.10104 -11.417189
-123.82943 -235.07492 -13.686995
-121.02306 -235.04099 -13.67258
-137.10281 -234.92206 -12.706809
-136.77579 -234.7375 -11.097651
-136.74368 -234.6438 -11.371661
-123.71027 -234.43584 -13.677927
-120.21274 -234.52368 -13.644659
-137.03719 -234.36745 -11.172235
-136.78424 -234.24602 -11.717549
-120.6644 -234.36101 -13.715402
-120.27271 -234.22798 -13.606422
-137.70631 -234.0107 -11.343674
-120.80443 -234.01511 -14.095274
-121.08395 -233.95604 -14.262095
-123.3649 -233.69687 -14.413033
-134.52295 -233.56641 -8.8830862
-126.06573 -233.43539 -11.131421
-125.11103 -233.55527 -11.558666
-124.86671 -233.40402 -11.843182
-124.78484 -233.40567 -12.000677
-138.55165 -233.42535 -12.572317
-121.15845 -233.57547 -13.317329
-123.95279 -233.24365 -11.335689
-131.25427 -233.09769 -10.924034
-130.17537 -233.08331 -11.319436
-123.88577 -233.17558 -11.6278
-132.12392 -232.86267 -10.106039
-125.54144 -232.82474 -11.106986
-124.08129 -232.93008 -11.323776
-125.42162 -232.91795 -11.564055
-130.35541 -232.83034 -12.193716
-121.69882 -232.88712 -13.093065
-122.02327 -232.99115 -14.170652
-134.47266 -232.61008 -7.8478532
-133.22153 -232.58432 -7.3375921
-120.55722 -232.45697 -8.2546511
-120.5461 -232.41164 -9.4157305
-125.08388 -232.53578 -10.343415
-125.3603 -232.51324 -10.655295
-125.37674 -232.58934 -11.5446
-122.2877 -232.58585 -11.525235
-120.58588 -232.4187 -14.66031
-131.31476 -232.29617 -9.761837
-120.58252 -232.26125 -9.8852425
-125.1218 -232.30865 -11.061545
-120.54418 -232.13229 -7.557219
-125.6705 -232.03622 -9.334816
-125.43036 -232.16745 -10.501715
-120.56255 -232.15607 -11.097891
-123.24945 -232.02563 -13.404812
-135.29292 -231.89001 -7.794693
-135.2937 -231.83247 -9.4541817
-135.03102 -231.92636 -9.7504063
-129.85468 -231.84679 -10.24719
-124.52145 -231.90785 -10.321492
-125.61246 -231.68402 -9.309763
-136.12128 -231.72974 -9.4311981
-135.23343 -231.7438 -10.615723
-124.92494 -231.73119 -11.386584
-125.17104 -231.76103 -12.454395
-135.07196 -231.58963 -10.318846
-125.6351 -231.50778 -10.319708
-122.64502 -231.45386 -13.156877
-122.1862 -231.47412 -13.016371
-139.33408 -231.44005 -13.599661
-125.11948 -231.4417 -13.417267
-120.55011 -231.22995 -7.4846511
-120.2053 -231.24396 -7.4526939
-124.00827 -231.26295 -10.838516
-124.88185 -231.34933 -11.415003
-129.50078 -231.05611 -7.182725
-130.57767 -231.06677 -10.538301
-126.16397 -231.0499 -12.625233
-122.05705 -231.03841 -12.616735
-125.63102 -231.0919 -12.97838
-126.19413 -231.15877 -13.336192
-124.91396 -231.00624 -13.341173
-120.01981 -231.02057 -13.451447
-125.00117 -230.89116 -13.834719
-125.14513 -230.64752 -11.127117
-124.2997 -230.7088 -11.145623
-123.87089 -230.62009 -12.697728
-123.8447 -230.72 -13.907736
-126.23905 -230.48732 -11.18399
-124.05325 -230.52904 -13.066364
-136.94527 -230.49313 -14.378305
-120.20249 -230.4463 -15.47719
-123.99226 -230.22594 -12.070456
-129.56201 -230.36687 -12.531172
-127.04111 -230.33553 -13.052398
-124.2117 -230.29959 -13.053124
-125.47726 -230.0215 -12.398687
-133.19525 -230.0721 -12.779778
-124.64914 -230.15477 -12.732043
-131.39241 -229.802 -12.31364
-130.82898 -229.94785 -13.890343
-124.53387 -229.95985 -16.192142
-139.49927 -229.67517 -7.9654999
-125.0385 -229.65082 -12.792367
-124.67457 -229.6926 -13.001524
-134.42653 -229.73183 -13.240278
-124.8774 -229.72743 -13.869434
-123.89189 -229.74889 -14.299114
-133.43248 -229.44086 -12.363998
-124.53899 -229.53549 -13.456575
-131.14053 -229.24756 -11.49577
-131.21675 -229.39066 -11.623112
-120.9211 -229.23427 -14.041136
-132.27873 -229.21124 -15.800627
-126.55788 -229.33258 -16.563274
-133.80252 -228.99519 -11.934397
-135.073 -228.85651 -14.114862
-138.16537 -228.94308 -14.395688
-137.81511 -228.93295 -14.300576
-138.19444 -228.83623 -14.657808
-128.96744 -228.85864 -17.766235
-133.92023 -228.47183 -11.205082
-137.50359 -228.53444 -11.648901
-138.11351 -228.31026 -7.583436
-131.33072 -228.26613 -11.407181
-136.99063 -228.26234 -11.902203
-139.54305 -228.24692 -13.061977
-138.94327 -228.2267 -14.608085
-126.98148 -228.34842 -15.156462
-126.53555 -228.25792 -15.116994
-126.67607 -228.33946 -15.527942
-127.16557 -228.25008 -16.346752
-128.4519 -228.28619 -17.610403
-138.21838 -228.08615 -13.010349
-128.34412 -228.10382 -13.554343
-127.68285 -228.10437 -13.903889
-125.60132 -228.01746 -13.982367
-125.53665 -227.8187 -14.685045
-139.92102 -227.72632 -11.714895
-128.14395 -227.71661 -13.387236
-138.28635 -227.49365 -11.917612
-137.96365 -227.57605 -12.090511
-139.95526 -227.33365 -8.7959146
-138.6136 -227.35387 -12.661642
-128.3465 -227.30313 -13.650579
-127.72255 -227.25948 -14.109306
-127.49043 -227.27316 -17.039913
-127.52516 -227.29669 -17.257925
-131.15483 -227.02301 -11.770527
-139.02908 -227.06442 -15.112341
-139.9375 -226.88943 -13.017368
-138.17358 -226.94363 -13.178648
-138.56363 -226.98514 -13.321016
-139.02585 -226.9735 -15.277163
-131.89163 -226.70175 -11.72224
-132.32745 -226.73508 -15.817857
-139.20642 -226.72539 -16.280035
-139.20723 -226.74274 -18.955414
-132.04149 -226.49565 -11.42254
-130.42917 -226.40617 -12.236747
-131.38281 -226.53833 -14.91312
-132.20982 -226.54431 -15.417004
-139.08606 -226.50362 -18.912683
-130.20828 -226.25925 -12.494822
-138.40819 -226.22133 -14.154333
-132.04994 -226.20088 -14.148504
-130.3725 -226.24147 -14.146852
-138.91684 -226.26723 -18.861195
-130.94028 -226.03372 -14.179227
-137.52771 -226.18512 -14.572372
-137.74812 -226.17618 -16.347916
-138.40225 -226.00468 -17.419325
-132.70975 -225.90218 -10.928689
-130.24443 -225.82578 -12.280919
-137.90144 -225.87947 -13.087441
-130.41982 -225.80261 -14.954865
-134.03786 -225.87103 -15.823635
-130.87654 -225.65283 -12.677065
-139.94713 -225.75887 -17.991482
-130.66367 -225.4413 -11.22567
-131.19942 -225.50934 -14.808792
-130.69188 -225.3923 -11.772268
-139.29121 -225.20456 -13.11268
-134.00476 -225.37166 -13.581711
-133.7825 -225.25697 -13.545575
-130.51961 -225.39729 -14.620458
-133.2406 -225.12732 -9.7387867
-130.24716 -225.03323 -11.463558
-130.10188 -225.18674 -11.469614
-130.97528 -225.17484 -13.613513
-138.70453 -225.12209 -13.804366
-134.62819 -224.95416 -8.0404787
-122.12376 -224.93689 -8.8331823
-131.37811 -224.81496 -10.404527
-131.08688 -224.87993 -12.692667
-130.52985 -224.8432 -12.632936
-130.76526 -224.88841 -14.643865
-133.05487 -224.74696 -9.8568344
-134.81215 -224.75917 -11.089303
-124.89537 -224.43997 -8.9346123
-130.39984 -224.47263 -11.596742
-131.0229 -224.58118 -12.201354
-131.83325 -224.24973 -7.909893
-131.89629 -224.36481 -8.112792
-121.31387 -224.2464 -8.9580326
-134.08029 -224.21738 -10.187828
-131.08475 -224.21298 -12.126905
-133.50067 -224.36412 -13.754698
-130.44833 -224.2381 -14.61727
-130.70636 -224.28368 -15.436869
-131.82245 -224.18036 -7.5076022
-127.95572 -224.07166 -8.9931259
-128.56638 -224.19568 -9.0389967
-128.15038 -224.04916 -9.227828
-131.3898 -224.15921 -11.42568
-134.2448 -223.86696 -9.1314926
-134.26611 -223.98788 -10.273432
-131.24626 -223.85066 -11.756605
-130.87415 -223.83238 -12.459763
-131.27063 -223.89383 -13.312897
-134.05666 -223.98837 -13.447632
-130.63309 -223.8736 -15.402338
-130.56767 -223.62045 -7.5201421
-129.17827 -223.63252 -7.6096239
-131.19604 -223.73352 -9.8148899
-132.26648 -223.68982 -11.835991
-132.42947 -223.77246 -14.220225
-132.17633 -223.63086 -14.269129
-130.58427 -223.76834 -14.647168
-135.39758 -223.48299 -13.651628
-132.49236 -223.40924 -14.496667
-131.74609 -223.30301 -10.172523
-139.49655 -223.01318 -9.2765455
-131.63945 -223.01895 -10.688334
-133.13333 -223.15518 -14.034397
-122.02083 -222.81773 -9.1885414
-121.42119 -222.86237 -9.7813721
-125.12846 -222.6731 -9.8483067
-130.83913 -222.76967 -10.154572
-131.63847 -222.61652 -10.238924
-121.22965 -222.65897 -12.978495
-133.60715 -222.61491 -13.077959
-120.96171 -222.71338 -13.372903
-120.98013 -222.71983 -16.672865
-122.9766 -222.50514 -8.546567
-121.37283 -222.55475 -10.844385
-129.53043 -222.49678 -11.064306
-132.66954 -222.42734 -11.566729
-132.32715 -222.40392 -11.566992
-132.52095 -222.58064 -11.789856
-121.12871 -222.54474 -11.811478
-123.84786 -222.51837 -13.409712
-127.23465 -222.4353 -13.660187
-132.38611 -222.46109 -14.295586
-125.61336 -222.4637 -16.653999
-121.79662 -222.44862 -16.747742
