# .PCD v0.7 - Point Cloud Data file format
VERSION 0.7
FIELDS x y z
SIZE 4 4 4
TYPE F F F
COUNT 1 1 1
WIDTH 515
HEIGHT 1
VIEWPOINT 0 0 0 1 0 0 0
POINTS 515
DATA ascii
-128.0649 22.87336 0.56269997
-128.59477 25.981852 0.74317199
-128.16112 26.441507 0.79214501
-128.49066 26.7796 -0.88493001
-127.03263 31.684191 0.145877
-128.22574 32.154591 0.16646001
-123.08032 32.341423 -1.2839611
-127.20879 32.574165 0.124593
-122.94662 32.6427 -1.259769
-123.30676 33.180191 0.461043
-130.69142 33.273403 0.037569001
-128.59331 35.091148 0.384321
-123.76461 35.537315 0.54145199
-123.70621 35.587402 0.38218099
-123.58406 35.571426 0.240834
-122.88737 35.686516 0.575535
-122.68329 35.785843 0.588723
-122.61792 35.789482 0.28795999
-123.37018 35.842258 0.268527
-122.20215 35.992107 -1.473902
-138.68781 36.614212 1.559706
-129.78137 20.098221 1.254088
-129.33875 20.159142 1.360202
-129.72202 20.452488 1.211551
-130.43185 20.423929 0.99101299
-128.67245 21.408039 1.435344
-129.93602 21.648718 1.326319
-128.66544 21.630213 1.300083
-128.2534 21.831657 1.394721
-128.17136 22.73542 1.497916
-128.18042 22.728807 0.36915401
-128.48442 22.66538 0.146449
-128.29616 22.699291 -0.061195001
-128.15205 22.872089 0.203648
-127.87679 23.086651 1.590305
-128.05118 23.396061 1.5842071
-127.83154 23.452478 1.6269031
-127.76997 23.554987 1.588824
-124.31992 23.75931 1.597754
-124.29548 23.955322 1.617849
-127.91599 24.12048 1.530616
-127.55818 24.222137 1.701231
-128.16611 24.203377 1.4899679
-127.8833 24.500368 1.567888
-129.86349 24.563248 0.27424401
-128.33253 24.721073 1.540415
-130.13747 24.844816 0.31938899
-125.38328 25.159878 1.576642
-130.13661 25.196226 0.32503
-129.66586 25.087347 0.21821199
-129.75067 25.380386 0.59085202
-125.63335 25.353746 0.29345399
-127.66536 25.439217 1.658278
-125.47047 25.475786 1.608513
-125.19783 25.430782 1.517434
-125.31712 25.416925 0.65999502
-125.02324 25.41267 0.53315598
-125.26698 25.823175 1.555244
-125.04059 25.803074 0.63019401
-128.6619 25.864929 0.25113401
-129.03476 25.918751 -0.70550698
-124.89128 26.188951 0.59294701
-128.53433 26.090012 0.34451899
-128.3362 26.171146 0.256578
-125.48696 26.136166 0.35183901
-128.58347 26.008873 -0.34896499
-128.79794 26.06394 -1.079782
-128.46466 26.071152 -1.444427
-128.48373 26.272999 0.84016699
-128.29175 26.363068 0.64793801
-128.59196 26.272898 0.54487097
-125.82684 26.286522 0.288993
-128.51956 26.505766 0.49841601
-128.49768 26.541878 0.330724
-128.27327 26.518372 0.27623701
-128.27449 26.836184 0.26765999
-123.36736 27.520433 1.7499861
-126.58032 30.356182 1.670915
-125.42728 30.371836 1.656842
-124.94965 30.384171 1.651705
-127.83114 30.545742 -1.654142
-120.94971 30.723362 1.6355129
-127.45536 30.900436 -1.306986
-127.12393 30.991795 -1.287028
-127.31322 31.126389 -0.61261499
-127.18858 31.177103 -0.85601598
-127.73871 31.135452 -2.2676959
-127.81799 31.341764 -0.30926099
-127.10535 31.361126 -1.257687
-127.23089 31.400461 -0.84002602
-123.03604 31.592003 -1.0816081
-127.24693 31.456673 -1.2062351
-127.26392 31.76339 -0.27377999
-128.32774 31.984905 1.262539
-127.01699 31.859034 -0.124901
-124.01791 32.162601 0.031208999
-126.83804 32.140518 -0.127708
-128.05453 32.288719 1.435361
-123.83184 32.29744 0.490078
-127.69751 32.339714 -0.67619902
-123.21497 32.324566 -0.650181
-123.28384 32.42112 -0.55695301
-127.67396 32.502716 -1.142887
-137.25117 32.717834 0.97584701
-131.3174 32.684807 0.014653
-130.89899 32.623348 0.01853
-123.39051 32.975227 1.309792
-124.20512 32.896271 0.53770602
-131.05025 32.935768 -0.37133199
-123.38407 33.044167 0.644301
-130.9465 33.333954 1.405912
-127.58928 33.474751 1.6612279
-130.74039 33.526077 0.85429299
-123.17604 33.472267 0.81689
-127.36771 33.90789 1.706383
-123.00085 33.875431 0.852961
-123.79222 34.40155 -0.49832401
-127.49549 34.927872 1.93009
-121.48669 34.857536 -1.618826
-128.41936 35.086472 0.40318099
-128.6747 35.093277 0.335886
-123.66774 35.472897 1.104003
-123.01245 35.442474 1.101113
-123.03094 35.479939 -0.34498101
-123.45805 35.674721 1.376757
-123.35359 35.747772 1.067634
-122.66531 35.791595 1.029755
-123.18484 35.781727 0.86206698
-122.99429 35.739506 0.63583201
-122.64169 35.788261 0.21853501
-122.85513 35.645588 0.096404999
-123.37211 35.775589 -0.34916899
-123.36983 35.723442 -0.60652202
-126.77372 35.79847 -2.417733
-122.52509 35.903358 1.391358
-122.60823 35.930016 -0.21459299
-123.25735 36.038349 -0.28913701
-130.77007 36.330956 1.709445
-139.28238 36.594471 2.0568719
-139.81052 36.493443 1.731293
-139.28125 36.53669 1.326478
-130.75844 36.472668 0.45883301
-139.79684 36.664585 2.0625789
-139.80359 36.677429 1.300473
-139.18091 36.757065 1.316597
-139.3053 36.736504 0.14421999
-139.94614 36.614426 -0.019887
-139.56036 36.904793 1.916339
-139.63818 36.953503 -0.172857
-123.65379 37.083809 1.255029
-123.21375 37.699047 1.322033
-123.3783 37.658035 0.250094
-123.1449 38.065918 0.57451099
-123.28542 38.288548 0.70493102
-129.5921 20.147694 1.1760809
-130.4391 20.138977 0.90859503
-130.37781 20.105112 0.96127999
-129.71957 20.256048 1.321171
-129.88852 20.861288 1.2499059
-130.01454 20.997936 1.15169
-129.96022 20.821705 1.1415499
-128.23341 21.794338 1.434571
-129.91696 21.678673 1.367995
-127.93723 21.822794 1.4949141
-128.48782 22.187695 0.97294903
-130.38631 22.149784 -0.464993
-128.16489 22.22307 1.489464
-127.92838 22.228304 1.503969
-128.3768 22.299704 0.984649
-128.60094 22.393835 0.75956303
-128.60638 22.209574 -0.687289
-128.48145 22.403154 -0.141326
-128.71301 22.62915 1.398122
-128.46088 22.63232 0.085766003
-128.35059 22.758047 -0.870839
-128.05003 22.948669 0.65904498
-128.24895 22.912245 0.179749
-128.14819 22.936619 -0.131432
-125.74002 23.388889 1.583473
-129.2157 23.508631 1.4578381
-130.24251 23.596296 0.107394
-128.02576 23.896923 1.622704
-127.69983 23.98447 1.679207
-128.02197 23.927256 1.424143
-128.17262 24.177998 1.636034
-125.58934 24.107664 1.65549
-128.28673 24.158865 1.487515
-130.34544 24.013695 -0.067143999
-130.05536 24.523729 0.52987802
-128.24927 24.637489 1.650043
-128.42316 24.643143 1.475123
-130.30968 24.606167 0.099615
-129.88895 24.62336 -0.090957999
-124.94916 24.963833 1.63281
-129.92793 24.861166 0.55368602
-130.409 24.851494 0.29943201
-127.78629 25.167938 1.625079
-125.42516 25.108694 1.609514
-128.06456 25.113789 1.481781
-133.62973 25.092173 1.396886
-125.12743 25.072725 0.81851602
-129.66289 25.121948 0.25942099
-130.1329 25.165527 0.19323
-130.30727 25.18154 -0.064542003
-127.81721 25.478748 1.653083
-129.45515 25.459791 1.471508
-125.1245 25.566349 0.94
-125.26501 25.485153 0.68258601
-124.99609 25.460264 0.697191
-125.02136 25.411816 0.58149999
-128.78047 25.49066 0.245496
-129.04538 25.560675 -1.31268
-129.44843 25.711235 1.465204
-125.11745 25.702896 0.99736202
-124.89802 25.652493 0.63276702
-128.98871 25.809669 0.71352899
-125.04058 25.879723 0.67323202
-125.67354 25.892664 0.42816401
-125.43436 25.82732 0.327501
-128.72803 25.934288 -0.056226999
-128.97736 25.884821 -0.62500501
-128.54767 26.131123 0.90171999
-125.01162 26.197565 0.65352499
-125.83986 26.194195 0.28339899
-128.48224 26.06284 0.159704
-125.2438 26.204113 1.0790679
-128.38773 26.283546 0.84698701
-128.55942 26.215755 0.66174799
-128.1785 26.586479 0.47114599
-128.27243 26.606995 0.862315
-128.51804 26.610456 0.34656599
-128.3215 26.605354 -1.138629
-128.11249 26.843439 -1.0259531
-127.35088 27.184702 1.7364
-127.37933 27.399166 1.756987
-127.64365 27.317911 1.598259
-128.54628 27.285645 -1.112191
-130.60074 29.785759 1.67809
-131.39537 29.900059 1.7057379
-129.74135 29.806751 1.766735
-130.06871 30.064669 1.656747
-129.27992 30.030481 1.78178
-127.72321 30.086113 1.66109
-123.67917 30.072401 1.6983221
-129.73537 30.329573 1.654538
-128.49612 30.280926 1.763056
-127.82192 30.338634 -0.51406801
-124.1527 30.499245 1.652506
-127.6004 30.636307 -1.333087
-124.29102 31.389996 0.56548798
-127.27759 31.308941 -0.59185302
-127.02306 31.748148 0.26365301
-127.44766 31.72835 -0.48601499
-128.43532 31.943764 1.281872
-128.3992 31.837879 0.318681
-124.22344 31.801929 0.38521701
-127.27341 31.822189 -0.30347201
-131.15517 31.892099 -0.43344599
-127.39105 31.982109 -1.1725971
-127.41368 31.845608 -1.224826
-131.83606 32.005081 1.396016
-128.24042 32.139305 0.96131998
-127.5397 32.013168 0.110877
-123.07491 32.068653 -0.45107999
-137.29953 32.239784 1.5064321
-128.13602 32.207081 1.338969
-137.48701 32.27549 0.860955
-123.00688 32.341038 0.715469
-123.35984 32.237278 0.23314799
-131.25508 32.39698 -0.0094790002
-127.89268 32.25349 -1.048003
-131.07007 32.246395 -1.814445
-123.73175 32.460548 0.82713598
-123.77805 32.540245 0.52380598
-127.27439 32.533672 0.252507
-127.93871 32.676926 1.816028
-123.47552 32.740562 0.63802099
-127.14397 32.640953 -0.044259999
-127.47537 32.74033 -0.53869301
-122.92686 32.654846 -1.363193
-123.47049 32.934124 1.279537
-123.69237 32.852032 0.86264598
-123.05023 32.903809 0.64194
-130.58864 32.911777 0.051084001
-128.33839 33.005527 -0.80073297
-130.88199 33.395584 1.3946
-123.38448 33.206406 0.67655301
-123.40479 33.547821 -1.423262
-123.86333 34.58567 0.078474998
-128.78629 34.696457 0.61865997
-123.65353 35.195812 1.644892
-123.96529 35.174065 0.56621498
-127.80088 35.461773 1.928574
-123.12939 35.41468 1.635662
-123.67491 35.451374 1.539817
-123.75884 35.410843 1.12252
-123.72762 35.539207 0.60526597
-123.55569 35.541172 0.206255
-122.90327 35.692074 1.366751
-123.40965 35.703377 1.076681
-122.65871 35.742332 1.053326
-123.73161 35.625038 0.80425501
-122.66077 35.75827 0.60941398
-122.87212 35.656662 0.156397
-122.70695 35.74279 0.194546
-122.58299 35.83503 1.376088
-122.18066 35.913544 1.2684799
-122.2426 35.864574 1.004878
-123.3746 35.805908 0.58639997
-123.35688 35.85738 0.20307399
-127.81158 36.159935 1.960131
-139.63678 36.088249 0.88601702
-122.5043 36.067719 0.31460699
-123.3936 36.072906 -0.413057
-139.01186 36.348122 1.68336
-139.5786 36.215374 1.207814
-139.47958 36.335129 1.128267
-139.24991 36.56348 1.769773
-139.26678 36.597012 1.420681
-138.57587 36.638115 2.0633719
-138.66278 36.605293 1.856282
-139.83215 36.665909 1.418018
-139.92929 36.643627 0.174382
-127.48016 36.855839 2.104615
-127.8981 36.878876 1.996408
-139.81573 36.906872 1.741847
-139.0004 36.854557 0.108996
-129.52696 37.117142 0.41685799
-129.43411 37.305973 0.421132
-123.24238 37.600967 1.194518
-123.26723 37.976238 0.67694598
-130.47157 20.502029 1.08724
-129.78954 20.61194 1.309196
-130.02376 20.935173 1.3005
-128.39258 20.939199 1.38797
-128.27147 21.379889 1.474281
-122.74127 21.833122 1.514993
-128.49313 22.169384 -0.086841002
-128.39606 22.354795 0.63468802
-128.27867 22.353428 -0.082456999
-128.34177 22.339357 -0.68978101
-128.24271 22.612492 1.032282
-128.21304 22.616282 0.74939901
-128.26472 22.65197 -0.061693002
-128.25888 22.932068 1.468912
-128.30289 22.975037 1.053798
-129.53479 23.125767 1.395219
-128.42203 23.140388 -0.16860101
-128.28461 23.337799 1.480819
-129.78363 23.367176 1.373654
-128.5296 23.375759 0.70195401
-128.00401 23.223862 0.40374199
-127.81968 23.542957 1.59374
-127.99031 23.757889 1.49595
-127.66596 23.911911 1.739766
-128.11011 23.901859 1.09969
-130.30151 23.863037 0.124842
-130.43317 23.839542 -0.069495
-130.25021 23.948874 -0.102635
-127.80382 24.187067 1.607178
-130.20613 24.230968 0.113949
-128.1889 24.570427 1.513718
-130.10905 24.489235 0.63577098
-130.03273 24.59557 -0.056759
-127.92711 24.757486 1.623928
-127.58456 24.72382 1.753612
-130.41737 24.639172 0.15670601
-129.74721 24.661427 0.15510599
-128.31332 24.905289 1.4826961
-127.8905 24.896069 1.568007
-133.66232 24.975746 1.244969
-130.15009 24.896267 0.30948001
-130.14484 24.906212 -0.076591
-128.22769 25.081764 1.659212
-125.0996 25.092983 0.62117398
-127.82736 25.26437 1.585236
-129.95692 25.298178 0.235314
-127.73241 25.457367 1.740321
-125.43961 25.515963 1.623296
-125.27879 25.512589 1.381205
-124.69554 25.487421 0.76959997
-128.80711 25.412153 0.157213
-128.20346 25.71909 1.625958
-127.83121 25.717381 1.747955
-128.28455 25.774267 1.52311
-125.27921 25.802013 1.536405
-125.13431 25.965351 1.5647629
-128.71127 25.946327 1.21138
-128.7041 25.866058 1.022612
-125.20958 25.828857 1.0630881
-124.91861 25.85795 0.80552602
-128.57806 25.890911 0.71343601
-125.85066 25.954382 0.26672101
-128.80446 25.988768 0.18354
-128.67706 25.840815 0.142767
-128.77647 25.965542 -0.611058
-128.37682 25.889578 -1.148589
-128.5549 26.068121 1.2126451
-125.18005 26.18598 1.078446
-128.57103 26.079464 -0.20046499
-128.84499 26.013981 -0.41057101
-128.7854 26.049669 -1.1208791
-128.5705 26.188381 -1.335021
-128.54439 26.225809 0.58303303
-128.36502 26.22253 0.241083
-128.1727 26.225748 -1.244053
-125.61104 26.480297 0.223178
-128.3024 26.556433 0.17465401
-128.40326 26.50132 -1.250178
-127.78451 26.795076 1.712195
-128.49995 26.714106 -0.33448401
-128.05753 26.886934 0.90062201
-128.28096 26.924112 0.50367397
-128.27974 26.831623 0.25871199
-128.3765 26.862278 -1.527074
-128.43655 27.125486 -0.85682499
-128.76703 27.360331 0.31334999
-123.65842 27.491533 1.754379
-123.06613 27.889683 1.8370939
-130.87296 29.905937 1.683784
-123.33078 30.193954 1.87831
-128.87714 30.151901 1.7717201
-127.36797 30.198963 1.6668119
-121.36588 30.25289 1.883278
-126.98816 30.29388 1.670579
-126.14723 30.405598 1.669762
-124.60593 30.484745 1.656952
-127.7231 30.430517 -0.34644601
-127.58656 30.596426 -1.248476
-123.07879 30.642139 1.652921
-127.63332 30.766287 -0.772048
-120.36168 30.868155 1.819988
-127.37012 30.877407 -0.32475501
-127.33768 30.997288 -0.55664903
-127.64057 30.942808 -0.69837999
-127.42041 30.856705 -1.296873
-124.36183 31.25248 0.35841301
-127.15077 31.398682 -0.58537602
-127.30531 31.58543 0.304369
-127.48912 31.467386 -0.29372901
-127.48357 31.783024 -1.736982
-127.7518 31.96257 -1.4281
-126.93814 32.044678 0.463276
-127.01237 32.149147 -0.211749
-123.40602 32.316906 0.30510399
-127.43469 32.212292 -0.42258701
-127.50716 32.209621 -1.212124
-130.78963 32.346043 -1.728135
-124.3092 32.524387 0.531726
-131.14462 32.547127 -0.166086
-127.42622 32.558781 -2.1153591
-123.52941 32.628391 1.5750591
-123.33836 32.74934 0.68323302
-127.14673 32.644691 0.48083499
-130.64085 32.707287 0.031748001
-123.35184 32.643547 0.161441
-127.68034 32.613178 -1.225964
-123.40193 32.822163 1.662737
-123.41648 32.998577 0.89434499
-123.67761 32.850639 0.648202
-123.33146 32.923412 -0.60449398
-128.45595 32.838497 -1.025265
-123.40814 33.07135 0.55208498
-123.27083 33.343979 0.93829101
-123.39904 33.270962 0.60866803
-122.53798 33.269951 0.79779798
-127.68842 33.805294 1.811805
-123.61169 33.964046 -0.52806401
-127.61003 34.509663 1.885739
-128.43211 34.570892 0.24791101
-128.74152 34.884686 0.85764903
-124.0438 35.202442 1.660503
-123.85014 35.288361 -0.37590301
-123.83997 35.449894 1.673481
-123.44333 35.572975 1.721512
-123.50891 35.406609 1.1321549
-122.9346 35.504532 1.036811
-122.7728 35.511089 1.107554
-128.38237 35.40136 0.656865
-128.43816 35.447014 0.43241599
-123.48286 35.530472 0.44978601
-123.7117 35.501286 0.25267899
-127.78683 35.799755 1.942952
-123.31795 35.745174 1.779539
-122.92599 35.750824 1.709546
-123.43042 35.711662 1.3820699
-123.66005 35.607929 -0.39228699
-123.42802 35.698997 -0.253782
-122.96546 35.658546 -0.57552898
-123.64748 35.685234 -0.78804499
-120.29706 35.695606 -2.9939351
-123.11247 35.87542 0.90811098
-129.12976 35.999294 0.69507098
-122.65337 35.853371 0.58903199
-123.39772 35.817978 -1.539077
-123.37573 36.044083 0.720339
-123.13586 36.110573 0.30344
-127.76251 36.38308 2.108845
-138.82364 36.385906 1.359682
-138.92114 36.295406 1.116024
-128.82132 36.404827 0.72767299
-128.86678 36.512577 0.38116401
-139.40756 36.530602 -0.080548003
-127.86045 36.610668 1.982589
-139.17026 36.79697 1.607258
-138.68347 36.65202 1.363444
-139.0592 36.684601 0.65881401
-138.55804 36.69001 0.156409
-138.59789 36.76173 -1.723194
-138.52448 36.83551 1.857365
-139.71986 36.812164 1.324917
-139.70929 36.805496 0.089446999
-139.55267 37.0718 -1.8312449
-129.42645 37.336967 0.44343999
-123.43799 37.52359 -1.066849
