# .PCD v0.7 - Point Cloud Data file format
VERSION 0.7
FIELDS x y z
SIZE 4 4 4
TYPE F F F
COUNT 1 1 1
WIDTH 62
HEIGHT 1
VIEWPOINT 0 0 0 1 0 0 0
POINTS 62
DATA ascii
-146.25987 -219.84772 -13.669163
-148.76045 -203.20784 -8.1619511
-146.47646 -200.66805 -23.343046
-140.16458 -206.10751 -11.427138
-143.05194 -206.13231 -17.696419
-140.29562 -205.68678 -11.820183
-143.96866 -205.61465 -18.453526
-147.66399 -205.04463 -13.706062
-140.36295 -204.70987 -12.576902
-146.99091 -201.0289 -24.109962
-147.33142 -200.49295 -8.2849321
-146.32648 -200.46567 -24.128004
-141.19763 -205.96172 -12.012955
-143.11383 -205.95221 -17.691055
-142.93147 -205.83214 -18.872671
-142.88841 -205.7829 -18.615059
-141.57596 -205.48759 -18.833084
-140.04999 -205.30151 -22.772455
-149.61581 -203.9082 -12.941423
-156.61568 -201.77466 -6.5036502
-147.08939 -201.28853 -23.531605
-140.18819 -200.96541 -12.891242
-147.39645 -200.66177 -12.011805
-147.68384 -200.10034 -24.106358
-140.24937 -205.85509 -11.41291
-140.36984 -204.88138 -12.590179
-140.05679 -203.8719 -14.892216
-148.12122 -201.06984 -8.7935638
-147.07616 -201.18564 -23.784893
-140.91373 -200.69133 -11.562079
-142.31665 -200.61128 -12.959036
-141.23199 -200.61835 -14.358869
-146.47949 -200.58383 -23.468319
-147.65887 -200.53218 -24.594482
-144.23628 -205.80426 -18.6063
-140.26933 -205.54297 -11.903121
-140.58009 -204.75624 -9.8832178
-140.82924 -204.24954 -9.5342121
-140.15462 -204.295 -14.332279
-141.10329 -202.26337 -8.9498491
-147.42911 -200.84746 -8.3143826
-147.49063 -200.80748 -10.290376
-147.35039 -200.62833 -10.158438
-146.66028 -200.78824 -24.125652
-147.29382 -200.54333 -8.9473419
-140.2047 -200.12894 -12.0005
-144.66354 -200.1599 -22.864656
-146.93329 -200.01616 -24.366474
-142.49063 -204.29852 -22.955206
-142.52434 -204.32671 -23.331387
-143.16805 -202.25636 -17.395401
-146.85204 -201.08807 -23.413492
-147.34674 -200.61722 -8.6284037
-142.20831 -200.73576 -12.650229
-146.38635 -200.53748 -23.266287
-140.58484 -204.64772 -14.189892
-148.68701 -202.85333 -8.2317266
-147.63292 -201.45389 -24.185007
-147.07648 -201.12737 -24.486721
-146.49762 -200.68158 -23.725086
-147.4325 -200.47789 -11.999275
-144.62747 -200.3123 -22.772203
