# .PCD v0.7 - Point Cloud Data file format
VERSION 0.7
FIELDS x y z
SIZE 4 4 4
TYPE F F F
COUNT 1 1 1
WIDTH 57
HEIGHT 1
VIEWPOINT 0 0 0 1 0 0 0
POINTS 57
DATA ascii
-141.08553 -57.661179 -2.3125319
-141.10907 -57.736038 -2.489656
-144.42081 -57.565376 -2.2849751
-140.14766 -57.561417 -2.5054121
-144.41428 -57.437843 -3.9100931
-144.32381 -57.330456 -2.2665541
-144.3466 -57.042183 -2.22682
-154.54121 -57.105183 -2.4728739
-150.9301 -56.653076 -7.5229259
-141.09915 -57.762981 -4.0286379
-144.41452 -57.533684 -2.4988749
-144.36624 -57.443146 -3.2775121
-141.08464 -57.598034 -3.2924299
-151.17148 -57.323288 -2.209357
-151.17183 -57.207497 -2.4611361
-144.2934 -57.360497 -5.620409
-151.15562 -57.179359 -3.251389
-157.9373 -56.993706 -3.136826
-141.81931 -59.354977 -6.94313
-144.43582 -57.607765 -3.2013819
-147.79565 -57.433132 -3.18344
-144.32216 -57.429405 -3.185499
-144.42198 -57.472713 -3.9120979
-147.8439 -57.332291 -4.2395949
-154.53825 -57.140598 -2.1823061
-144.31602 -56.986126 -3.812973
-141.10403 -59.705673 -7.1325951
-140.28122 -57.756123 -2.4613841
-151.22903 -57.317646 -2.2242589
-147.82874 -57.367916 -2.2274721
-144.28966 -57.273598 -7.1194439
-140.90451 -57.200485 -7.0925188
-151.10753 -57.117096 -7.39573
-146.16187 -59.81102 -2.733531
-142.09935 -59.705387 -7.1931381
-141.10629 -57.716454 -2.3276219
-140.21906 -57.637794 -2.3045509
-144.42365 -57.437378 -5.5075951
-144.36009 -57.30106 -2.447572
-151.19604 -57.247688 -3.1644671
-144.32401 -57.30722 -4.1178322
-141.06631 -57.65094 -5.4054961
-141.11536 -57.559258 -3.814399
-144.33569 -57.280617 -2.238873
-147.69586 -57.232292 -2.444658
-147.83279 -57.313145 -3.2646
-144.31516 -57.29882 -3.860317
-154.50529 -57.117279 -3.150413
-154.49419 -57.088867 -3.2418339
-144.22128 -57.082375 -7.1380892
-140.75705 -59.204937 -7.96773
-141.06046 -57.610294 -3.2038441
-144.41811 -57.545708 -2.274281
-144.44327 -57.487617 -4.0168109
-147.78722 -57.243099 -5.6426821
-151.03676 -57.119808 -2.2135999
-144.32593 -56.912605 -4.0442061
