# .PCD v0.7 - Point Cloud Data file format
VERSION 0.7
FIELDS x y z
SIZE 4 4 4
TYPE F F F
COUNT 1 1 1
WIDTH 156
HEIGHT 1
VIEWPOINT 0 0 0 1 0 0 0
POINTS 156
DATA ascii
-140.18332 -13.82124 -1.463726
-140.03256 -13.689718 -3.002872
-140.36389 -13.644808 -7.6568122
-140.1609 -13.480382 0.107463
-140.15944 -13.529265 -1.4382499
-142.51979 -13.425725 -4.5959959
-142.49747 -13.438841 -6.1935778
-140.03568 -13.397448 -2.9772201
-140.28214 -13.364591 -7.6262231
-142.50578 -13.13496 -6.167707
-140.01874 -12.918863 -2.8778529
-140.77789 -12.879242 -7.6234488
-142.61679 -5.331511 -0.52883202
-145.86357 -5.0530581 -0.45137501
-142.36121 -5.1652441 -0.51705098
-140.21729 -13.979502 -0.85421699
-140.20273 -13.841125 -4.0074019
-140.16908 -13.84225 -5.4961948
-140.18625 -13.788057 -1.509874
-142.58536 -13.788897 -3.3529229
-142.56166 -13.653358 -4.0366201
-142.50664 -13.63829 -6.5669718
-140.16408 -13.40572 0.048252001
-140.20612 -13.449055 -0.13189501
-140.16351 -13.504659 -1.485218
-142.56093 -13.245536 -1.384609
-140.19009 -13.336063 -1.751116
-140.04764 -13.320377 -3.0195661
-142.52795 -13.343944 -4.6391792
-142.50035 -13.387115 -6.2559428
-140.26834 -13.335255 -7.6715832
-147.30963 -13.157691 -2.4079771
-142.7229 -11.993579 -0.641105
-142.58801 -11.211603 -7.6234798
-141.86081 -11.066177 -7.5540819
-147.19524 -9.6536236 -0.34036401
-147.58112 -8.6864481 -0.25755501
-147.70657 -8.4572783 -0.237212
-140.45511 -8.2140427 -5.6333971
-159.36752 -7.6140552 0.42534399
-142.52304 -4.9284148 0.62023801
-142.65631 -4.8058629 -0.94640899
-142.74319 0.18331 -0.31644899
-143.46921 4.4054351 0.49484599
-149.02017 4.6791258 0.425078
-155.1933 15.474829 0.16432799
-155.21408 15.563396 -0.29762799
-150.46188 15.638883 -9.359807
-149.82935 16.604128 -9.658535
-140.19876 -14.076667 -0.323663
-140.19122 -13.970591 -0.62571698
-140.22218 -13.6738 -0.144554
-142.56335 -13.614416 -1.290097
-140.1917 -13.754224 -1.791836
-140.04225 -13.655478 -3.048902
-142.53836 -13.642598 -4.7156219
-142.54526 -13.746366 -5.581677
-142.54666 -13.313271 -3.3116441
-147.31403 -13.03574 -5.0684328
-141.81433 -12.762282 -6.4167161
-142.61041 -12.522335 -0.78171599
-142.66827 -12.191952 -0.719751
-142.81778 -11.716358 -0.67599797
-146.96658 -10.635811 -0.56811202
-147.11273 -9.9701061 -0.48390499
-147.36348 -9.7460918 -0.65019
-140.08878 -9.4400358 0.58193099
-140.36823 -8.1850548 -5.5106549
-140.38698 -7.3099189 -4.364491
-146.10983 -5.2196989 -0.46327999
-142.61705 -5.303781 -0.64093602
-157.36942 -5.398221 -6.3231449
-142.44257 -5.061872 -0.124394
-142.52994 -4.761097 0.66646701
-146.11163 -4.5737562 -0.88549101
-146.08014 -4.2571321 -0.92030799
-142.64491 -4.3315539 -0.98845702
-143.13025 -1.318767 -0.44450101
-142.41119 0.63365901 -0.43992901
-144.93456 11.546923 -3.513423
-149.83899 12.641582 -11.299439
-149.85527 12.967356 -11.216823
-154.44418 13.082259 -13.813046
-156.88741 13.621316 0.392461
-149.45557 13.643297 -11.086319
-156.80858 13.906103 -1.305066
-156.83804 13.912769 -1.6429189
-156.7878 14.378128 -1.403082
-156.72052 14.529646 -1.208663
-148.96165 14.53731 -10.94252
-150.00577 14.629984 -11.644245
-155.30473 14.922117 0.39098799
-155.29333 15.042768 0.424676
-155.32703 15.212986 0.42998299
-149.37767 15.781975 0.28063899
-150.34091 15.715478 -11.242009
-149.39883 15.805425 0.41761899
-159.827 17.702013 0.58938903
-159.85028 18.237066 0.151802
-159.84125 18.351751 -0.36724699
-140.26483 -13.879362 -0.90710998
-140.17786 -13.815113 -1.508024
-140.18362 -13.867014 -2.3933251
-140.19966 -13.835747 -3.7162471
-142.61911 -13.608845 -1.116717
-141.10983 -13.691462 -3.7193711
-142.56384 -13.796434 -3.9848249
-142.56415 -13.717636 -4.9602218
-140.22699 -13.552964 -0.59091598
-142.57465 -13.388834 -0.90635502
-142.53436 -13.37528 -4.9301
-142.53413 -13.311295 -6.5235119
-140.20096 -13.073323 -7.5947828
-142.60565 -12.998401 -0.55378801
-140.01028 -12.887093 -2.952601
-147.32867 -12.937329 -4.7057061
-147.28561 -12.931458 -6.5174732
-141.28192 -12.954521 -6.4021721
-140.74117 -12.851227 -7.6671858
-142.65323 -12.207248 -0.65094501
-142.73901 -11.970919 -0.61423302
-147.00089 -10.297851 -0.39383
-147.1998 -9.4477262 -0.39184001
-147.63528 -8.8788834 -0.269925
-157.30412 -5.4500122 -6.4357619
-142.73703 -5.370892 -0.212201
-146.0937 -5.1075759 -0.58081698
-145.88167 -5.0531621 -0.56921297
-142.33157 -5.1453528 -0.63016403
-157.30756 -4.6129112 -4.296032
-142.58134 -4.3108888 -0.89934802
-157.46106 -4.37921 -4.1426768
-146.08562 -4.045897 -0.76876402
-145.84982 -4.097425 -0.60212302
-142.49252 -4.0966201 -0.652731
-142.66113 1.0098439 -1.101668
-143.61554 4.217875 0.483437
-150.79027 4.4660659 0.45390201
-154.23077 12.476957 -13.582379
-154.12198 13.759192 -13.975939
-156.81493 13.948517 -1.333483
-156.75717 13.856647 -1.50463
-156.78354 14.194578 -1.3069119
-156.73549 14.535873 -0.98989701
-156.72934 14.598537 -1.222079
-150.21912 14.95141 -11.160379
-155.28809 15.275403 0.329997
-147.44415 15.576195 0.431427
-155.19064 15.416889 0.17223001
-155.15924 15.403286 -0.15872601
-150.07199 15.439485 -11.218246
-147.62032 15.611925 -0.30416
-147.175 15.864897 0.65706199
-149.30423 16.126448 0.28227401
-149.18808 16.187881 -0.60845101
-159.80957 18.089169 0.496777
