# .PCD v0.7 - Point Cloud Data file format
VERSION 0.7
FIELDS x y z
SIZE 4 4 4
TYPE F F F
COUNT 1 1 1
WIDTH 93
HEIGHT 1
VIEWPOINT 0 0 0 1 0 0 0
POINTS 93
DATA ascii
-161.07953 -258.45151 -10.6754
-160.03555 -258.50275 -10.72109
-160.4834 -258.45511 -11.040191
-160.07718 -258.48282 -11.906206
-163.81477 -258.33905 -10.748228
-161.42706 -254.30696 -14.020855
-161.53516 -253.80276 -12.595803
-161.83095 -253.75827 -11.546802
-161.82764 -253.79414 -11.838636
-162.08057 -253.18221 -13.942475
-161.28012 -259.01178 -9.1503706
-160.76903 -258.40479 -12.38022
-160.12592 -258.3728 -11.202413
-166.4196 -258.12177 -14.009298
-167.48984 -257.83572 -13.930521
-162.13818 -254.53813 -12.552252
-161.63261 -254.33159 -13.541412
-162.75293 -254.10371 -15.546347
-161.33702 -253.48962 -12.559955
-162.46692 -253.12704 -12.574741
-162.17914 -252.62115 -12.101995
-161.89513 -240.80304 -14.73889
-162.04178 -240.49892 -13.123816
-161.32033 -240.15771 -14.638285
-160.97144 -258.48035 -10.661311
-167.0918 -258.258 -11.938486
-163.61868 -258.18353 -11.644938
-166.99203 -258.08612 -14.027419
-170.40048 -257.93466 -16.155975
-161.80321 -254.64935 -13.572224
-162.18619 -253.85889 -10.6116
-161.73302 -253.79425 -11.818012
-162.39278 -253.23567 -12.561626
-161.97453 -253.37253 -12.564515
-162.63887 -241.82187 -17.290249
-160.41153 -258.51892 -11.584814
-160.88794 -258.36917 -11.202176
-163.59039 -258.33582 -11.951302
-168.30945 -258.04077 -14.07196
-167.82274 -257.93741 -16.088577
-161.49458 -254.90274 -13.097162
-161.83376 -254.17889 -11.758289
-162.02167 -253.97896 -11.650892
-162.06949 -253.08029 -13.853106
-162.05511 -252.88144 -12.261136
-161.98555 -252.97168 -14.038499
-162.02243 -240.73073 -14.646132
-162.32771 -240.2569 -13.077768
-160.96103 -240.26924 -15.83226
-160.52388 -258.49121 -10.762907
-160.52129 -258.46002 -10.991625
-161.15002 -258.39673 -11.035957
-167.65598 -258.21088 -11.770997
-161.63567 -253.8309 -12.094028
-162.48013 -253.63403 -13.230332
-161.61743 -253.75941 -14.594365
-162.35995 -253.45897 -12.322922
-161.86743 -253.37047 -11.517872
-161.8623 -240.57726 -14.714857
-162.47028 -240.27805 -13.227275
-160.13803 -258.51883 -10.685873
-163.23199 -258.34958 -10.891768
-161.22522 -258.26343 -12.376095
-170.59294 -258.08679 -11.526928
-167.85413 -258.02213 -16.100782
-167.25702 -258.06302 -16.149183
-168.14546 -257.79785 -13.950202
-161.5809 -254.7655 -13.77976
-162.15833 -254.29175 -12.363307
-161.43295 -254.29631 -13.839331
-161.71768 -253.53439 -14.278635
-162.6785 -252.45074 -16.200413
-161.41312 -249.63654 -19.537994
-161.94453 -240.6844 -13.253613
-161.24832 -240.65233 -15.109397
-160.71909 -258.41595 -10.395913
-161.09909 -258.4202 -10.910829
-161.05757 -258.46396 -11.577833
-162.92221 -258.41605 -11.886645
-163.588 -258.25369 -12.021946
-167.69113 -258.09387 -13.88783
-167.7596 -258.10953 -14.057224
-166.56862 -258.05289 -16.108332
-161.70372 -254.6644 -13.878766
-160.79227 -254.16798 -9.3368044
-161.96767 -254.04819 -11.572579
-162.14606 -253.85083 -10.341647
-161.54562 -253.74109 -12.602165
-161.95105 -253.6721 -13.501993
-161.77426 -253.722 -14.313832
-162.41354 -253.29321 -11.603951
-161.73242 -252.74225 -15.674832
-161.44772 -240.29303 -14.314631
