# .PCD v0.7 - Point Cloud Data file format
VERSION 0.7
FIELDS x y z
SIZE 4 4 4
TYPE F F F
COUNT 1 1 1
WIDTH 438
HEIGHT 1
VIEWPOINT 0 0 0 1 0 0 0
POINTS 438
DATA ascii
-19.982914 -97.845161 -2.3888431
-16.987839 -99.944878 -5.3815179
-16.899048 -99.623177 -4.2548351
12.111679 -99.632263 -7.2126222
-16.938507 -99.433243 -2.7485099
-9.1954956 -98.869629 -3.7284169
-9.2211695 -98.857437 -4.0936961
-9.1678314 -98.642906 -4.0761299
12.093918 -98.517685 -3.7772739
-9.1649246 -98.573448 -4.9354558
12.165215 -97.778107 -5.3829579
-19.816124 -97.41626 -2.5739689
-17.013969 -96.963425 -2.470228
12.209251 -96.771996 -2.7269881
-19.9561 -95.028503 -2.3470321
-19.986904 -94.609276 -2.3167579
-5.8465581 -91.448227 -6.8445702
-3.790947 -90.56144 -2.9845819
-3.7258 -90.433327 -3.345526
-3.7962489 -90.245384 -2.9505019
-3.8019121 -90.219475 -3.2969601
-12.834663 -89.629318 -1.8550611
-12.762857 -89.656525 -3.0973971
-12.782673 -89.658661 -3.418736
-12.840744 -89.446449 -1.829551
-12.749603 -89.386505 -1.844316
5.2560959 -87.810646 -2.6535311
5.1808619 -87.689934 -2.685504
-19.018284 -87.747383 -3.032007
-19.133377 -87.707184 -3.335505
-18.600555 -87.214485 -2.9952891
-19.0933 -87.349846 -3.307658
-18.627106 -87.022659 -3.069088
-19.136631 -86.979088 -4.4590611
-12.150238 -86.513504 -3.8912289
-18.140121 -86.526093 -4.429112
-12.274612 -85.777763 -2.8424959
-12.462212 -85.628479 -3.0703559
-12.375023 -85.53537 -3.8290081
-5.9043198 -84.41748 -2.6072381
-6.4247742 -83.315643 -4.2272358
-14.835438 -81.247925 -5.625598
12.625191 -80.471626 -1.930518
-2.8459401 -80.489304 -2.5711
12.623764 -80.113869 -2.335983
-9.2453613 -99.071465 -3.7415669
-9.156456 -98.641281 -4.0777521
-9.1650085 -98.264626 -5.6549292
12.166664 -98.29026 -8.9383774
12.13155 -97.844925 -5.4025888
-8.9650965 -97.428665 -5.411932
-19.567066 -96.974449 -2.45667
-19.988903 -96.968086 -4.7901068
-19.944065 -96.976692 -6.935595
-19.560745 -96.740364 -2.5352221
-19.747381 -96.702423 -2.8939569
-19.841106 -96.719704 -4.290072
-17.447201 -96.08551 -2.632226
-17.149204 -95.637695 -2.5845921
-17.52372 -94.86824 -3.5138979
-17.526985 -94.07354 -2.5964291
-17.85815 -93.825195 -3.7033341
-19.530853 -93.709312 -2.2872739
-10.575493 -93.505493 -3.386014
-17.837017 -93.540215 -3.7368219
-15.927216 -92.339172 -2.7830989
-6.9385071 -92.334404 -8.1545811
-15.780388 -91.813049 -2.1495969
-5.6822052 -90.624939 -8.3494434
-13.646576 -90.539772 -3.121788
-3.780689 -90.50589 -3.278434
-3.7386401 -90.446533 -4.7058311
-6.8784261 -90.43412 -7.4546361
-3.7634349 -90.319664 -6.4434738
-18.64769 -90.08091 -4.365314
-7.531868 -89.961746 -2.1804931
-19.24247 -89.863937 -7.739604
-12.689608 -89.892731 -7.8931618
-12.780984 -89.696411 -3.144619
-12.747566 -89.773613 -6.4264221
-15.846073 -89.041351 -4.6139121
-18.701317 -88.905518 -4.9420352
-15.471306 -88.637039 -3.8925869
-19.427097 -88.673912 -9.0162792
-18.923382 -88.085495 -6.2514949
-18.500156 -88.15062 -7.6456828
-17.905365 -87.848587 -4.5219312
5.1448078 -87.721085 -2.5797019
-19.034182 -87.499763 -3.112649
-18.055054 -87.29007 -5.9135141
-18.538191 -86.980873 -3.268625
-1.257629 -86.401367 -2.788126
-12.231537 -86.550903 -4.4184098
-12.255679 -86.214157 -2.892241
-1.2381361 -86.051155 -2.984405
-11.825775 -86.078659 -3.054755
-1.253639 -86.106087 -4.617671
-0.91145301 -86.074265 -9.8668137
-12.448307 -85.673958 -3.053854
-12.782112 -85.411476 -7.4326868
-12.163746 -85.349487 -3.104605
-6.0943151 -84.282082 -2.7764339
-0.73793 -83.679199 -2.5759809
-6.3276672 -83.629494 -4.1927519
-11.622925 -83.540016 -5.731801
-14.837795 -81.17244 -5.5278769
12.642326 -80.603912 -1.9477659
-2.776871 -80.694366 -2.585608
12.639275 -80.22551 -2.162081
-15.435665 -80.348099 -6.9940038
12.100868 -99.990547 -7.1981311
12.076111 -99.735291 -5.075552
12.106655 -99.783592 -7.3713999
12.088959 -99.178101 -4.2176099
-16.588367 -98.698997 -3.802696
12.066261 -98.385406 -2.5731161
-18.25631 -98.243889 -4.907064
-19.983345 -97.050194 -5.563704
-19.871128 -97.000916 -8.872138
-17.287571 -96.858475 -2.470459
-19.924652 -96.82933 -2.8112011
-19.702114 -96.701553 -7.1679411
-17.305462 -95.862732 -2.6392081
-19.929852 -95.737885 -2.377944
-17.271309 -95.328674 -3.0689571
-19.523842 -95.162399 -2.381381
-19.289825 -94.411446 -2.493531
-17.788061 -93.541565 -3.695085
-11.316776 -92.30619 -3.332998
-19.532486 -90.463165 -7.8038769
-6.8167109 -90.217651 -7.444252
-19.860352 -90.250137 -7.6394248
-13.60817 -90.051132 -2.5105901
-17.762592 -88.41095 -4.6044698
-18.934647 -88.245018 -6.6447811
-16.445839 -88.305992 -7.4592452
-18.241077 -88.160728 -3.1000531
5.2904892 -87.847282 -2.8129909
-18.115866 -87.484528 -3.437609
-19.054237 -87.36232 -3.6563921
-12.653236 -86.813728 -9.0722923
-13.579071 -86.699234 -8.997736
-12.200905 -86.208679 -2.2640679
-12.310353 -85.869659 -2.8795691
-11.289421 -85.009323 -7.5613379
-6.0828481 -84.56778 -2.756021
-5.9329591 -84.543343 -2.604666
-12.196301 -84.513863 -4.5409031
-5.7658081 -84.151276 -2.926162
-11.056396 -83.932724 -7.396162
-6.0527649 -81.430786 -2.361166
-3.5824809 -80.942993 -2.258661
12.631313 -80.501572 -2.1325071
-17.078152 -99.882584 -5.402699
11.959694 -99.778603 -2.952492
-16.894955 -99.495415 -4.1762519
12.130566 -99.456161 -7.1581802
12.194252 -99.474182 -8.1504784
12.05864 -99.35643 -3.426404
-9.227356 -98.913116 -3.3648529
12.159935 -98.876961 -5.5668731
-9.157341 -98.753174 -8.195859
-9.1207504 -98.394806 -4.047595
12.166664 -98.285149 -5.6683998
12.152702 -97.583008 -5.4637609
-17.071121 -97.324707 -2.55987
-19.985123 -97.023247 -4.8122311
-19.987549 -96.909416 -4.2156839
-19.868572 -96.948151 -7.3120189
-17.181797 -96.614876 -2.487469
-19.031502 -96.224304 -6.8671131
-19.733147 -95.032829 -2.382441
12.34594 -95.056534 -4.994338
-18.045614 -93.65332 -6.5847969
-16.257179 -93.011169 -3.0890501
-15.846931 -92.000854 -2.2166021
-13.472176 -90.844101 -1.886392
-13.405426 -90.691566 -1.9898421
-11.93116 -90.619171 -2.8700831
-15.013763 -90.489059 -3.5049181
-3.7213221 -90.171387 -3.2835441
-12.776529 -89.718277 -3.4046791
-12.760342 -89.489655 -1.858219
-9.2764893 -89.205376 -7.9592462
-19.541937 -89.168434 -4.859561
-18.281456 -87.887054 -4.7578492
-19.045094 -87.75032 -2.011647
5.2492599 -87.743073 -2.7003069
-19.036022 -87.774841 -3.130846
5.352684 -87.625641 -4.758678
-19.213863 -87.778557 -5.877347
-18.338093 -87.469116 -6.1494589
-16.102623 -87.228264 -7.554337
-12.055603 -86.88987 -4.8060479
-14.990437 -86.904755 -7.5469151
-12.174875 -85.43084 -3.1486869
-12.440025 -85.025543 -4.3349128
-11.637856 -84.776993 -4.3056612
-5.9379039 -84.230927 -2.5944221
-6.2212749 -83.978691 -2.9211471
0.0091930004 -83.531624 -1.89613
-5.2708888 -82.928467 -4.4861512
-5.6863561 -82.757538 -4.505085
0.21415301 -82.19342 -4.118968
0.18103001 -81.732697 -4.1297569
12.619017 -81.366089 -2.236938
11.973923 -99.494339 -2.9284599
-9.2126312 -98.74807 -3.916141
-8.6388321 -98.667999 -9.2178946
-8.7919769 -98.143906 -7.7850218
12.121815 -97.896286 -3.489655
-18.716026 -97.713554 -5.6350551
12.148277 -96.973053 -3.363297
-19.958393 -96.877708 -3.545193
-19.968781 -96.997879 -5.690609
-18.843616 -96.849091 -7.1164069
-19.784134 -96.708763 -2.975678
-18.973927 -96.693977 -7.161634
-19.566833 -96.70752 -8.6517029
-17.291706 -96.432648 -2.4786351
12.215538 -96.573822 -3.0906589
-17.194962 -96.222847 -2.766439
12.213661 -96.360916 -4.8202329
-17.377609 -96.196358 -2.579123
-19.088943 -95.895584 -8.6120262
-17.148331 -95.518257 -2.53195
6.1122818 -95.280945 -4.7254839
-19.091208 -94.239746 -2.3421431
-19.139271 -94.26416 -2.472394
-17.480759 -94.013824 -4.4258509
-18.587906 -93.82756 -2.278295
-10.573036 -93.141708 -3.668884
-19.697464 -92.962608 -2.1638091
-19.574562 -92.900078 -2.2260849
-11.320155 -92.956093 -3.3700631
-11.183693 -92.857666 -3.5831649
-15.584133 -91.860321 -2.7320721
-15.686785 -90.941223 -3.497268
-6.6692052 -90.818405 -7.4875078
-19.468351 -90.495346 -4.1501322
-19.665943 -90.439835 -7.6660161
-3.7778759 -90.29055 -3.0083809
-5.742126 -90.264099 -8.3213749
-19.482861 -90.073692 -4.6974521
-12.875317 -89.696732 -2.327342
-12.776756 -89.701805 -3.7849741
-18.989902 -88.46772 -3.825793
-18.221634 -88.577507 -4.2352939
-14.776363 -88.533142 -6.39926
-19.40604 -88.146881 -4.2221112
-19.451675 -88.146515 -4.5418911
-18.508036 -88.077484 -7.6410561
-19.522053 -87.978844 -4.7480588
5.186089 -87.442017 -2.08304
-18.945887 -87.356323 -4.4798188
7.1458659 -87.157562 -1.85873
-19.529198 -86.877167 -1.937904
-1.225777 -86.501045 -4.370327
-12.192413 -86.235352 -3.2150919
-12.440811 -86.011757 -2.9988489
-9.5927582 -86.017899 -3.858084
-12.430298 -85.012932 -4.5068841
-5.8939672 -84.829391 -2.557112
-11.722687 -84.894882 -4.4523492
-12.34787 -84.817451 -4.6395922
-5.7362981 -84.75798 -2.3741
-11.041832 -84.136726 -7.4787879
-0.097053997 -83.684578 -2.027859
-6.465137 -83.442535 -4.2488179
-10.1278 -83.203339 -7.466784
-14.768833 -80.844742 -5.5100441
-16.889694 -99.544731 -2.8235459
12.131802 -99.393753 -5.4399729
12.140373 -99.001945 -7.1662111
-18.478466 -98.865379 -2.3883841
-18.74913 -98.649879 -2.38222
12.046017 -98.625061 -2.6317461
12.109624 -98.608315 -5.4312148
-9.2153854 -98.624329 -9.009964
-6.7444229 -98.422882 -9.0205507
-9.1867447 -98.591782 -9.201107
12.104355 -98.215218 -3.411108
-19.889084 -97.167511 -6.712152
12.180344 -96.902565 -5.1769328
-19.835812 -96.763824 -2.5785489
-19.531395 -96.751663 -2.5056751
-19.698044 -96.781906 -3.5266969
-19.887917 -96.767097 -4.115335
12.169842 -96.541885 -3.441216
12.196266 -96.281326 -3.434701
-19.2136 -95.813858 -6.4598989
-18.90554 -95.94162 -7.0179181
-17.554729 -95.410133 -3.521208
-18.408157 -94.059677 -6.7273989
-18.592739 -93.521034 -2.3623021
-11.293411 -92.677094 -3.571327
-11.219284 -92.777588 -3.6221149
-19.530842 -92.524544 -2.194838
-16.394707 -92.412041 -2.8091049
-4.0895162 -91.637672 -3.952913
-5.7230759 -91.58625 -6.4984698
-2.666512 -91.060921 -3.270998
-3.8285561 -90.580841 -3.0714791
-11.929085 -90.382805 -1.896601
-19.577553 -89.993721 -4.7076702
-12.8484 -89.516632 -1.912009
-17.592865 -89.026001 -4.7425151
-19.480736 -88.661514 -4.957437
-17.846336 -88.109802 -4.5173349
-16.968357 -88.192421 -8.9148121
-18.762581 -87.892319 -2.062185
-17.512684 -87.936592 -7.547401
-19.309811 -87.640038 -1.993693
-15.921066 -87.680168 -7.7318368
-19.37682 -87.267075 -1.954253
-14.484146 -87.390999 -7.6464691
-18.592537 -87.106262 -3.0866849
-19.096508 -87.130623 -4.5813842
-18.493748 -87.178421 -4.8085051
-18.177454 -86.574982 -4.5315299
-1.241249 -85.957466 -4.4220948
-12.398148 -85.874702 -5.9545612
-12.49568 -85.7332 -3.1259351
-9.2917252 -85.500336 -4.4059339
-11.751648 -84.927414 -4.2750258
-12.031975 -84.689896 -4.2973518
-11.05851 -84.583015 -5.896677
-12.623779 -84.554367 -7.4658179
-6.887764 -84.075951 -4.4029732
-16.808376 -84.120644 -8.6220522
-5.515182 -83.232468 -4.2478771
12.620258 -80.931015 -2.085357
-8.0388489 -99.978455 -7.3703022
-17.31255 -99.666847 -2.502018
-16.97298 -99.714287 -3.809829
12.106178 -99.777817 -5.47227
-16.99712 -99.520264 -2.6810141
-16.846493 -99.588074 -4.9937062
12.166405 -98.959908 -7.4306469
-9.175087 -98.713661 -7.282516
-16.615757 -98.522385 -2.8461549
12.042511 -98.574783 -3.342772
12.125496 -98.503876 -3.768328
-9.0905609 -98.535645 -4.175282
-9.1087875 -98.470573 -7.7368631
-9.1540756 -98.535027 -8.9534111
-19.968693 -97.206245 -3.7720239
12.163338 -97.196671 -3.6506619
-9.0347519 -97.034599 -5.3801718
-19.557089 -96.911972 -2.530582
-19.954292 -96.969574 -7.1158619
-19.806175 -96.729225 -5.533895
-17.131077 -95.008911 -3.038347
12.272575 -95.045158 -4.7222948
12.192154 -94.825584 -1.355355
-17.138802 -94.659256 -2.3380229
-17.224213 -94.433456 -2.4591949
-19.420807 -93.702942 -2.29971
-16.605244 -93.675568 -2.8485999
-19.906849 -93.373199 -2.2585831
-10.933517 -92.189034 -3.56148
-13.427826 -90.60791 -2.002558
-3.878906 -90.448975 -2.7340779
-19.56031 -90.513634 -4.9847832
-3.7208979 -90.160751 -2.7222879
-12.832119 -89.84008 -3.128253
-15.671486 -89.808052 -9.0204191
-12.845581 -89.764694 -1.821368
-19.651451 -89.38784 -4.765286
-17.566998 -88.86425 -4.8280358
-17.939159 -88.409492 -4.802525
-18.915909 -88.253548 -3.1653819
-19.160839 -87.900887 -3.8573091
-18.616238 -87.320015 -3.060427
-19.06917 -87.394249 -3.3802979
7.6189041 -83.62957 -2.6254759
-11.640793 -83.762283 -5.7180271
-15.23138 -80.782867 -5.4939699
12.161011 -99.90007 -8.1935463
-16.906158 -99.635948 -4.2367349
-16.780125 -99.648514 -6.4292579
11.978088 -99.564575 -3.5070789
12.041893 -99.282562 -3.687077
12.202873 -99.041031 -8.1065016
-9.1885796 -98.862656 -3.7605491
-9.041008 -98.886757 -4.959434
-7.2546768 -98.674011 -9.0427074
-16.886246 -98.591919 -2.547853
-9.1489487 -98.569054 -5.0031552
-7.172821 -98.4496 -8.9698315
12.094162 -98.218369 -5.2832031
-6.7221532 -98.334618 -9.0876064
12.158089 -98.17617 -4.9568901
12.14167 -97.453728 -3.0803061
12.148689 -97.447388 -3.6719639
-19.788572 -96.936432 -3.788636
-19.794575 -96.735481 -3.9187219
-19.830662 -96.759079 -5.6684251
12.185951 -95.537598 -2.1073501
-9.3026276 -95.547501 -15.359766
12.249672 -95.300003 -4.741168
12.321892 -95.142578 -7.1066709
12.406815 -94.884041 -7.0852432
-19.808935 -94.61969 -2.353755
-17.426785 -94.607948 -3.580075
-19.33268 -94.214882 -2.317893
-17.807251 -93.883949 -3.5321529
-11.307377 -93.257027 -3.3821781
-10.784897 -91.715179 -3.24242
-18.89896 -90.294945 -3.364393
-15.934536 -90.242943 -4.4718108
-12.811867 -89.978821 -3.302798
-12.867844 -89.653564 -2.69243
-19.912411 -89.761284 -7.869153
-12.778816 -89.418549 -3.1205771
-4.1739769 -89.440384 -8.0607147
-18.659353 -88.875549 -7.325285
-19.026688 -88.608307 -3.4517479
-18.679726 -88.373505 -2.5500989
-17.559437 -88.099655 -7.3429089
-17.911249 -87.812103 -4.554729
5.1664481 -87.757851 -2.4926519
-19.000336 -87.775963 -3.402164
-19.137295 -87.583817 -2.002079
5.1490631 -87.407532 -2.590152
-12.240685 -86.804779 -4.3943238
-11.812931 -86.551559 -2.9835811
-12.194378 -86.566216 -4.4806938
-0.92259198 -86.550888 -6.3819442
-1.284224 -86.161026 -2.6042359
-1.27425 -86.154747 -2.914542
-15.043415 -86.177483 -8.0703621
-1.168251 -85.962067 -2.9618089
-12.382492 -85.50808 -4.4951658
-12.457939 -85.316101 -4.2847309
-11.625931 -84.582352 -4.623992
0.21296699 -82.739731 -2.6784911
12.629059 -81.140533 -1.996088
