# .PCD v0.7 - Point Cloud Data file format
VERSION 0.7
FIELDS x y z
SIZE 4 4 4
TYPE F F F
COUNT 1 1 1
WIDTH 311
HEIGHT 1
VIEWPOINT 0 0 0 1 0 0 0
POINTS 311
DATA ascii
-16.855862 -100.40299 -2.469424
2.6656339 -111.93696 -4.5605989
5.6251678 -106.3716 -8.0404968
2.4188001 -106.34185 -8.3195696
-4.3279338 -106.11731 -6.3483009
-4.286972 -106.05666 -9.8115101
-4.3148122 -105.96892 -4.4885559
-11.848373 -105.89054 -4.6907301
-11.077904 -105.81613 -4.6740761
-4.2649841 -105.91624 -7.9604082
-7.4897652 -105.86222 -9.6091232
5.7170939 -105.82641 -10.350195
-4.2339482 -105.84637 -11.446811
-10.976055 -105.67088 -9.400629
-17.710213 -105.4511 -4.6563678
-17.691265 -105.56287 -7.362299
-17.684704 -105.33841 -6.0775299
-8.4789352 -105.12531 -2.586199
10.020218 -105.04877 -4.3458838
11.442245 -104.51428 -8.4711094
11.79586 -104.17616 -8.4650993
-17.23209 -103.68668 -2.458648
12.035362 -103.56379 -8.4209032
-17.252254 -103.34507 -2.4461839
-17.403244 -103.27251 -2.8889101
-12.689388 -101.31047 -5.8245592
-16.806686 -100.94869 -7.9585629
12.011063 -100.53416 -3.8114209
12.036514 -100.25961 -3.82851
-19.089344 -110.93072 -3.2852139
-11.19503 -106.17909 -2.9416649
-16.605808 -106.04511 -3.0202711
-8.5945892 -106.14408 -4.7666402
9.5550156 -106.18743 -8.4099207
-12.853302 -105.8484 -2.9065509
-15.395712 -105.85896 -3.0664511
-8.8640518 -105.97349 -4.1703019
5.683044 -105.90472 -6.3038082
-3.158318 -105.99847 -8.0850258
-18.625427 -105.60525 -2.113728
-18.156219 -105.60896 -3.1385851
-17.786606 -105.66933 -3.1417091
-16.512779 -105.64446 -3.0036321
-16.118986 -105.78552 -3.030303
-18.81765 -105.79462 -3.253263
-18.663734 -105.67598 -3.4906509
-15.816348 -105.69609 -3.465827
-14.222564 -105.76743 -3.464839
-13.680981 -105.76928 -3.5574889
10.461037 -105.71888 -3.948406
-18.600105 -105.77695 -4.9998341
-14.534599 -105.7943 -6.4022598
-12.536659 -105.76451 -6.5514698
-18.329491 -105.74892 -7.5277719
-14.288544 -105.66035 -7.5427179
-15.137085 -105.68744 -9.050827
-18.564037 -105.63789 -9.2781849
-17.794966 -105.51603 -3.0632429
-19.768494 -105.5175 -3.3256381
-19.477226 -105.55803 -3.542938
-19.011009 -105.53693 -3.5570459
-18.782242 -105.58173 -3.513617
-18.253159 -105.57951 -3.5282371
-17.797934 -105.52938 -3.538702
-19.358524 -105.51626 -3.6601541
-18.562023 -105.52028 -3.691216
-17.750731 -105.50363 -3.719003
-17.717884 -105.51128 -4.5862298
5.7404251 -105.58032 -10.26862
-17.633217 -105.27484 -8.9197845
15.529732 -104.54639 -3.132242
-8.4158707 -104.40212 -3.7508841
11.975616 -103.77999 -8.4373093
12.02137 -101.32137 -5.1976452
-12.659218 -101.28092 -6.6597638
-16.685078 -100.9974 -2.9274111
-16.902121 -100.59884 -2.589057
1.278885 -106.47739 -10.288772
-9.2377319 -106.28518 -4.2090688
-5.1036 -106.10105 -9.5139618
-13.27158 -105.82681 -3.311116
-11.824234 -105.85381 -3.358073
-13.054863 -105.8041 -3.532187
-16.531336 -105.69217 -2.96646
-18.247684 -105.63979 -3.164264
-15.826899 -105.717 -3.3452511
-19.764013 -105.69704 -3.4158449
-16.618866 -105.71516 -3.450546
-14.601288 -105.61516 -3.553982
-16.608398 -105.66602 -4.2286921
-11.056007 -105.79488 -4.54321
-18.610741 -105.7228 -6.0280061
-15.609699 -105.67492 -6.3977981
-8.4890823 -105.47038 -2.593128
-18.972198 -105.56223 -3.1735089
-17.744072 -105.51053 -3.379015
-19.196693 -105.58205 -6.3924618
-19.667294 -105.45303 -6.4030218
-17.687836 -105.4716 -6.4093828
-18.53413 -105.49348 -7.4398718
-11.027061 -105.58736 -9.302928
9.3342514 -104.4296 -3.946269
12.003105 -103.59684 -9.8026295
-17.138123 -102.82181 -5.7101498
5.8641129 -101.93111 -7.1872292
0.43924701 -101.48334 -7.012722
-16.919495 -101.49876 -7.2655401
-16.601372 -101.14867 -4.3706088
-16.948284 -100.51642 -2.580694
5.9492569 -100.59364 -7.0859742
12.033773 -100.21871 -3.901541
-17.168575 -100.34573 -7.1697588
-16.678444 -100.10641 -5.0335941
-4.2488632 -105.90722 -9.7819767
-17.852722 -105.65038 -2.0668709
-18.938988 -105.72378 -3.245286
-18.039335 -105.66663 -3.473974
-17.212658 -105.675 -3.634742
-19.318951 -105.75235 -4.1727262
-16.627243 -105.69164 -6.3969831
-11.034878 -105.7614 -6.4793248
-19.998646 -105.65437 -7.4805241
-15.210697 -105.60877 -7.5188241
-10.989786 -105.66953 -7.7961521
-18.405716 -105.51051 -3.048842
-19.730427 -105.51758 -3.7918689
-18.568592 -105.54445 -4.5793929
-17.723129 -105.51605 -4.6887822
-17.711708 -105.49254 -5.9296222
-18.519894 -105.59721 -6.1206508
-17.245419 -104.40014 -2.9228461
9.3246841 -104.08339 -3.6164539
5.7413602 -104.18412 -6.2615919
9.9907837 -103.65675 -3.4390581
-17.254774 -103.41337 -2.5223601
5.1165538 -101.23485 -5.6156669
-12.739037 -101.14847 -9.7143936
12.016276 -100.49808 -3.8976181
-16.919502 -100.17271 -2.5375609
11.969543 -100.05586 -2.974859
12.009926 -100.13541 -4.817328
1.055092 -111.76973 -4.6135969
9.4099731 -106.54385 -4.3347192
-11.981277 -106.26642 -4.558929
5.6137919 -106.25752 -6.3320818
-13.143806 -106.11481 -3.0238919
-11.14798 -106.05348 -4.5233288
-11.063904 -105.87085 -4.3839121
-15.251646 -105.8374 -6.0359249
-10.990891 -105.81276 -6.025249
-15.690041 -105.86693 -7.5998182
9.7697906 -105.96504 -8.3978462
-11.790466 -105.85517 -9.7622719
-17.006203 -105.69293 -3.14764
-18.683058 -105.6684 -3.3521919
-14.169397 -105.70879 -3.4974999
-18.611401 -105.71999 -4.6308169
-15.181236 -105.64763 -4.6324921
-17.724876 -105.67995 -4.9170461
-16.388123 -105.62203 -6.3927131
-17.031219 -105.57733 -2.9694779
-19.347622 -105.47523 -3.156527
-19.739946 -105.507 -3.4099269
-18.313801 -105.59515 -3.698725
-17.739758 -105.51105 -3.6871591
-18.541836 -105.53532 -5.244556
-19.325176 -105.45235 -7.419836
-17.686586 -105.47721 -7.4217081
-16.039188 -105.59943 -7.5009608
-17.852306 -105.53323 -11.658026
11.003059 -105.28616 -5.286777
5.749474 -104.82952 -10.281437
9.5464172 -104.62159 -4.2717419
11.51162 -104.60626 -5.2169781
11.880638 -104.09855 -8.4987507
9.5159531 -103.95779 -3.706301
-17.29549 -103.73134 -2.9187839
5.7895322 -103.79886 -6.242455
5.811554 -103.46211 -6.242135
-17.389799 -103.25982 -2.9024539
-17.033825 -103.3397 -3.5917661
11.986977 -101.31728 -3.872359
-12.692963 -101.28056 -4.4826531
-16.998871 -101.09662 -2.6503749
12.176376 -100.18023 -8.2223825
-4.4066768 -106.41125 -6.1650729
-9.2366562 -106.24375 -3.837326
-3.187752 -106.28577 -7.9320941
-14.126888 -106.05995 -3.063683
-4.2528458 -106.04975 -8.0556393
-0.82729298 -106.15534 -8.1973581
-11.097618 -105.87722 -3.0089419
-15.250408 -105.89818 -4.3713431
-15.241159 -105.83884 -4.967618
-11.029366 -105.94466 -5.8804531
-6.2613068 -105.95405 -8.0024815
-16.201122 -105.72475 -2.999336
-15.45269 -105.77015 -3.153698
-15.065731 -105.77686 -3.0907199
-16.101402 -105.68461 -3.5956919
-17.765518 -105.60946 -4.1009851
10.407082 -105.66158 -4.1966791
-18.567577 -105.63385 -8.7557621
-17.555668 -105.57703 -3.328068
-19.031336 -105.52687 -3.5174291
-18.715851 -105.5591 -3.429173
-17.740452 -105.5248 -4.992784
-19.853436 -105.4608 -7.0603809
-19.634041 -105.45283 -7.791594
-18.003853 -105.56973 -8.7772207
-18.480705 -105.53506 -9.3462
5.7151971 -105.03129 -6.3394041
9.5024414 -104.00723 -3.4893379
11.963139 -103.78329 -8.429615
-16.961636 -103.28603 -2.3901041
-16.617462 -103.3524 -5.7553358
5.8120732 -103.05328 -6.1412711
-17.250683 -101.69227 -2.7634931
-17.080883 -101.78443 -2.7024491
11.467583 -101.41071 -4.3371329
-12.6577 -101.29548 -5.13485
-17.235004 -101.30193 -7.238204
-12.630363 -101.14258 -5.7754178
12.019447 -100.60995 -3.350117
11.959381 -100.71599 -4.2709932
11.579826 -100.70892 -8.0792274
12.057915 -100.64505 -8.9618587
2.445488 -106.22527 -6.3049021
-11.903763 -106.03921 -4.8800988
-11.893181 -106.01528 -6.0452151
-8.4866714 -106.12185 -9.783041
-11.106133 -105.86124 -3.886333
-15.272846 -105.86359 -4.524704
-11.851784 -105.86673 -5.1195779
-4.295784 -105.97708 -6.3136559
-4.2548828 -105.98305 -8.0704765
-8.4402771 -105.9158 -9.5565624
-17.835007 -105.65726 -3.1495211
-14.57172 -105.77406 -3.062825
-14.845737 -105.73528 -3.6071091
10.009651 -105.69425 -3.8191299
-15.179775 -105.74968 -4.8794789
-15.224037 -105.75518 -5.9589558
-14.996426 -105.65202 -6.4329438
5.6906972 -105.63109 -6.4037261
-9.8581467 -105.65787 -8.0777779
-19.055874 -105.55695 -3.7430811
-18.625542 -105.55513 -3.706744
-8.4462128 -105.52259 -4.6140871
-17.712851 -105.49152 -6.1691852
-19.292568 -105.51003 -6.3824358
-18.98996 -105.45343 -6.4046102
5.7152119 -105.36677 -6.3151841
5.745296 -104.73547 -6.3393612
5.8121638 -103.63845 -7.3201532
-17.089447 -103.3559 -3.1307819
12.002823 -103.19249 -10.012548
-17.142963 -102.96558 -2.8546269
5.8028789 -102.61337 -6.1711612
0.54725599 -101.63742 -5.9197721
-17.097206 -101.66405 -7.9994822
-12.692459 -101.25976 -4.1972561
-12.708317 -101.33582 -10.110203
11.544304 -101.05125 -3.827292
11.478672 -101.11485 -4.171011
11.48233 -101.1762 -4.7209792
-17.214779 -100.77557 -7.9253101
11.990799 -100.41678 -3.4764011
12.00518 -100.44771 -4.2485752
-8.8709106 -111.37196 -3.014112
9.2437363 -106.86832 -4.1422272
-8.6329956 -106.43842 -4.4990888
-15.331608 -106.11456 -4.6205912
-8.5754662 -106.12808 -4.6569819
-11.054214 -106.02124 -7.7222242
-5.0379028 -106.02539 -9.7501163
-13.792503 -105.81117 -2.9480519
-15.614437 -105.82491 -3.044198
-12.408127 -105.83022 -3.299691
-11.09803 -105.89027 -3.3292961
-11.894497 -105.91476 -4.5696912
-11.075554 -105.90219 -4.8004789
-16.611343 -105.81455 -7.5735931
-17.785515 -105.70024 -3.325408
-19.318501 -105.64325 -3.518528
-15.016616 -105.72928 -3.4335721
-18.616333 -105.79775 -5.0265231
-18.578907 -105.69363 -5.943995
-17.754593 -105.61145 -6.0099101
-17.744583 -105.70202 -7.5368872
-11.798012 -105.77983 -9.3209743
-15.091526 -105.69761 -9.4592028
-19.364079 -105.52221 -3.4457901
-18.262554 -105.57094 -3.414326
-19.384064 -105.53227 -3.7125649
-19.301697 -105.5843 -4.1578951
-19.929142 -105.50629 -6.3844948
-19.442156 -105.40792 -7.8744569
-17.698944 -105.44347 -8.7803421
-14.979168 -105.50445 -9.0830173
-17.678181 -105.51199 -10.232445
-10.962044 -105.59773 -10.991089
11.265465 -104.94958 -5.251987
9.7835617 -104.754 -4.3245988
5.794189 -104.35001 -10.241634
11.929276 -101.78205 -4.3572121
0.427147 -101.75288 -7.0632792
-17.087864 -101.40181 -2.9726551
-17.224392 -101.13612 -7.2304478
-8.2018051 -100.97043 -5.8875408
7.578239 -100.76201 -3.550684
