# .PCD v0.7 - Point Cloud Data file format
VERSION 0.7
FIELDS x y z
SIZE 4 4 4
TYPE F F F
COUNT 1 1 1
WIDTH 152
HEIGHT 1
VIEWPOINT 0 0 0 1 0 0 0
POINTS 152
DATA ascii
2.952873 -152.29086 -4.6767411
-18.447304 -147.31796 -5.0424862
-18.305122 -147.27945 -7.0207219
-18.39888 -147.04846 -3.8659029
-18.586357 -147.14445 -5.0329289
-18.402145 -146.84705 -3.8535471
-11.676888 -145.20821 -5.3267031
19.062176 -158.9408 -4.9641619
19.11067 -157.82274 -5.9616241
19.246712 -157.51651 -4.5989771
19.270012 -157.37402 -5.8841901
19.332008 -156.7881 -5.841085
-16.679214 -156.22557 -4.5134521
-19.445114 -156.22491 -12.474003
-14.693245 -154.46106 -5.1339941
-18.44973 -154.14339 -9.5043678
-18.631382 -153.91191 -9.1429892
-18.584511 -153.39429 -9.432209
3.2780361 -152.96234 -4.6783528
-19.24192 -151.82425 -7.0192461
3.1300199 -151.67978 -4.6142678
6.108459 -151.45702 -8.6024323
-18.929199 -151.12978 -9.2499685
-18.722677 -150.53392 -7.4423022
-16.968445 -149.53575 -7.7799678
-19.065258 -148.62917 -8.1454296
-17.386326 -148.32532 -8.2918148
-18.552372 -147.25809 -5.318727
-17.738577 -147.34036 -8.154624
-18.561852 -147.16862 -5.101315
-19.39185 -146.9873 -8.6099911
-10.107666 -145.40979 -6.8567638
-11.731934 -145.24747 -3.693136
-10.90728 -141.74586 -8.4569244
19.253174 -157.02689 -4.236105
19.190376 -156.22321 -4.7318358
-16.339359 -155.22415 -13.863988
19.284653 -154.93491 -5.8897209
-18.410961 -154.07826 -9.1663437
3.0676501 -152.50838 -5.3178878
-19.614807 -151.53094 -10.007007
-18.828041 -150.62164 -7.780858
6.2538829 -149.87669 -7.9965692
-18.567863 -148.02245 -8.2250328
-11.650146 -147.6338 -7.0285349
-18.444431 -146.97302 -3.8110061
-18.364847 -146.99396 -4.1018672
-19.900032 -146.79871 -8.1005011
-13.510086 -146.42946 -8.1999073
-11.191254 -145.13727 -8.2112045
-11.520157 -144.50017 -7.1092839
-12.042458 -143.33298 -3.535111
-12.769569 -141.72255 -3.8474779
-13.030998 -141.03357 -4.1829839
19.257256 -157.02991 -5.9252501
19.195431 -155.46136 -5.935616
-18.736092 -155.46391 -9.5734577
-18.861706 -153.59946 -9.3375969
-19.857685 -153.13106 -9.0249233
3.308769 -152.8598 -5.3438778
-19.944023 -152.78009 -8.9943466
-13.402161 -152.31509 -3.9618599
6.6273961 -148.61612 -9.2467289
6.9082112 -148.30356 -9.2363634
-17.294891 -147.86252 -6.7369318
-17.256659 -147.85591 -6.916194
-18.843575 -147.91455 -7.1199412
-19.167679 -147.70038 -9.01441
-18.527351 -147.43053 -5.760797
-18.518871 -147.40268 -6.8183489
-18.358353 -147.06071 -3.8190429
-18.818554 -147.09418 -6.7954521
-17.490116 -140.34601 -3.4036729
9.8592072 -157.70076 -4.5001392
19.235245 -156.73276 -4.2119522
-18.224869 -155.14334 -13.634751
-19.749828 -152.4778 -10.410245
3.0150111 -152.11813 -4.6590891
-13.265533 -151.98663 -3.9337051
-3.319412 -151.62476 -3.6490221
3.21228 -151.62357 -5.2949972
6.1933589 -151.79626 -8.5222883
-17.564384 -150.78043 -8.4456825
5.996552 -150.16011 -8.0121546
-17.218769 -148.61861 -8.2387276
-17.270214 -148.01897 -6.8884602
-18.966778 -147.38614 -3.7782991
-18.332588 -147.28635 -3.900075
-18.447716 -147.34714 -5.1117859
-19.317856 -146.85861 -8.1613855
-9.9412537 -145.49792 -6.8740511
-10.439148 -143.95578 -6.4673982
19.097054 -158.51775 -5.7321558
19.203835 -155.85052 -5.9722042
9.8872452 -155.61551 -4.7181482
19.177998 -155.78897 -5.9404368
19.243576 -155.09674 -5.421051
-18.756096 -153.78337 -9.3583698
-13.109947 -152.65732 -3.978205
-19.937315 -152.63792 -9.3066425
3.072845 -152.22083 -5.3244338
-19.521702 -152.09267 -10.39859
-17.073589 -151.74197 -12.998999
-19.459301 -151.14188 -8.8962069
-19.998951 -150.91647 -10.281629
-17.557396 -150.72662 -8.3532476
5.7587128 -150.43948 -8.4959784
-16.92226 -148.9742 -7.7383919
-18.518377 -147.12067 -5.2559052
-18.895315 -146.98871 -6.9547482
-9.7255859 -146.32957 -8.3832531
-11.726463 -145.22531 -3.8380849
-12.859894 -141.62228 -4.1253648
-11.187927 -140.21631 -3.590631
19.073448 -158.91649 -5.8175778
-19.53344 -157.31659 -8.1045399
-17.970772 -157.39499 -12.666559
2.388382 -156.78723 -3.882256
19.256065 -156.30684 -4.5920739
9.9461288 -155.47789 -4.8302479
19.207954 -155.26297 -5.9347649
19.205437 -155.0829 -4.6355538
-3.356159 -152.19058 -3.6941161
-18.808231 -151.28639 -8.3407526
6.0602341 -150.01605 -8.4570522
-17.071651 -148.84737 -8.4750471
-18.704876 -147.66281 -6.9231782
-17.831753 -147.44702 -3.8221951
-18.619749 -147.46194 -6.6892538
-11.63257 -145.27231 -5.2689929
-12.911079 -141.43866 -4.1117792
-19.771852 -157.71759 -15.375834
19.159584 -155.87424 -4.5588861
-18.489511 -154.11411 -9.4495344
-18.561672 -153.42796 -9.3854504
-18.673294 -153.37746 -9.1000366
-13.908028 -153.19702 -3.9773829
-18.866131 -151.32385 -8.431427
-19.549015 -151.30206 -9.7552614
5.9067922 -150.20874 -8.4968414
-19.078854 -148.91054 -8.2639799
-18.880672 -148.13005 -7.4275408
-18.312115 -147.37735 -6.9794478
-18.761555 -147.08533 -6.6624908
-19.347271 -147.04785 -8.9400034
-18.356396 -146.75594 -3.746238
-17.182919 -146.66605 -8.3515768
-11.589088 -145.26451 -3.5874879
-11.681818 -145.30183 -5.0411339
-11.759933 -145.12071 -3.765703
-10.506676 -144.1481 -6.7801991
-11.170635 -140.22862 -3.7033451
