# .PCD v0.7 - Point Cloud Data file format
VERSION 0.7
FIELDS x y z
SIZE 4 4 4
TYPE F F F
COUNT 1 1 1
WIDTH 695
HEIGHT 1
VIEWPOINT 0 0 0 1 0 0 0
POINTS 695
DATA ascii
7.1570892 -179.93863 -11.708786
7.3725238 -179.73337 -11.498761
3.0862241 -178.7269 -7.7731018
3.2312131 -178.76413 -7.746521
8.6944027 -178.53549 -11.54863
8.7414455 -178.50198 -11.738721
3.2192459 -178.311 -7.767766
18.618919 -178.20978 -11.161478
19.021706 -178.23843 -11.148608
19.408289 -178.25134 -11.136229
19.792999 -178.29135 -11.143131
19.816072 -178.31152 -11.310005
9.0258226 -178.2655 -11.576756
15.786919 -178.08391 -11.062553
16.280684 -178.1248 -11.061882
16.663193 -178.10406 -11.116976
17.028944 -178.11247 -11.139946
18.301584 -178.19218 -11.158364
15.635183 -178.10498 -11.326078
16.983105 -178.17122 -11.355146
17.431458 -178.1936 -11.342079
17.791042 -178.17798 -11.330105
16.312023 -178.15154 -11.447541
9.3432388 -177.97246 -11.544424
9.7824287 -177.82098 -11.523842
13.384989 -177.98117 -11.442305
9.4278698 -177.89095 -11.762439
13.078751 -177.98225 -11.636415
14.011364 -177.79413 -11.120502
15.184914 -177.73505 -11.357133
14.667427 -177.7485 -11.434916
9.7814093 -177.69678 -11.751638
7.3822989 -179.81564 -11.015013
7.3361492 -179.80199 -11.344474
7.1112981 -179.95569 -11.502727
7.28442 -179.81828 -14.598192
7.6075482 -179.61646 -10.908361
3.1426079 -179.4938 -7.7519159
7.8009968 -179.4371 -11.01081
7.7580152 -179.4389 -11.267635
8.4070168 -179.45006 -14.503203
8.0107498 -179.22426 -11.102215
8.2856922 -179.01308 -11.069401
8.4440832 -178.83443 -11.117077
8.6577377 -178.68005 -11.074662
8.6131506 -178.63574 -11.363289
8.8345776 -178.5307 -11.06421
8.8162384 -178.418 -11.527813
19.077555 -178.29906 -10.721464
19.536442 -178.30658 -10.715311
19.910816 -178.3313 -10.709759
16.989914 -178.20148 -10.88682
17.370121 -178.22186 -10.864627
19.069124 -178.29097 -10.859851
19.400494 -178.31052 -10.876101
19.847609 -178.36981 -10.850044
9.0108929 -178.26318 -11.425615
18.305708 -178.22824 -11.452921
18.675373 -178.23822 -11.441688
9.0404673 -178.21539 -11.748263
18.728025 -178.24553 -12.081905
19.490356 -178.3266 -12.062336
15.690575 -178.15732 -10.758912
16.210857 -178.14989 -10.79469
16.666512 -178.17496 -10.786137
17.105591 -178.19775 -10.778294
17.42359 -178.18321 -10.774372
13.477692 -178.0554 -10.898884
15.756073 -178.14122 -10.876155
9.2683125 -178.11154 -11.137129
17.991314 -178.14151 -11.130604
16.607609 -178.18318 -11.328211
9.2155609 -178.05107 -11.578399
9.231945 -178.04205 -11.78383
9.4628677 -177.99231 -9.6170425
15.366526 -177.8963 -10.777637
9.8048401 -177.8436 -11.07712
9.7809372 -177.82726 -11.395619
9.3398838 -177.97708 -11.409882
14.035789 -177.87338 -11.404839
12.753603 -177.97311 -11.648767
15.063833 -177.77145 -10.789577
14.157177 -177.7588 -10.921277
14.952979 -177.73756 -10.854336
15.272741 -177.7872 -10.900299
9.6269608 -177.73718 -15.096272
9.6499233 -176.05934 -11.282605
9.6724472 -175.4483 -11.318697
7.121902 -179.96924 -14.595379
3.1011159 -179.7748 -7.7165198
8.1168175 -179.09404 -11.269207
8.6631336 -178.61084 -11.409542
9.1126614 -178.68924 -14.296216
8.9033155 -178.48096 -11.111958
8.9650335 -178.38696 -10.488911
18.175995 -178.21246 -10.5479
18.544262 -178.24744 -10.55405
18.958813 -178.32968 -10.564825
19.411674 -178.34177 -10.59747
19.851631 -178.35379 -10.531137
16.473293 -178.20483 -10.762184
16.606466 -178.21129 -10.67029
16.929592 -178.22772 -10.680868
17.332508 -178.23848 -10.695335
18.963915 -178.28314 -10.749189
19.492558 -178.33762 -10.676872
17.363434 -178.23451 -10.850423
17.904612 -178.22868 -10.895278
19.034378 -178.30983 -10.878378
19.386393 -178.33755 -10.892496
19.613264 -178.34267 -10.922905
19.882076 -178.38193 -10.869165
18.998695 -178.29022 -11.298766
17.555986 -178.20122 -12.017668
18.052378 -178.23627 -12.034565
19.381527 -178.28821 -12.032915
9.3648491 -178.03758 -10.579678
18.25169 -178.19762 -10.577339
15.787753 -178.1769 -10.675076
16.125751 -178.168 -10.724483
17.731697 -178.19946 -10.6754
13.146644 -178.03328 -10.904144
13.735641 -178.04659 -11.465748
15.768394 -178.13922 -11.693621
16.285799 -178.15213 -11.698517
15.449587 -178.11549 -11.820729
15.874797 -178.11121 -12.085788
8.986269 -178.14778 -15.668802
11.91921 -177.84204 -7.124485
15.366838 -177.9028 -10.677378
15.542744 -177.93985 -11.500645
9.3097305 -177.87697 -15.43425
6.983007 -177.64641 -7.6279268
7.4876728 -177.66353 -7.7142348
14.931606 -177.7547 -11.016546
18.402185 -177.61559 -14.911201
8.4953003 -177.59317 -7.669416
18.016365 -177.17502 -15.278632
10.221187 -173.34695 -12.425548
11.790833 -168.41962 -16.273529
11.685433 -167.28061 -11.21525
8.0539732 -179.22263 -10.471201
8.677454 -179.15927 -14.578428
8.3207664 -178.91676 -12.616489
8.9684563 -178.92395 -14.274006
16.460033 -178.97951 -14.75794
8.6169357 -178.70105 -10.509697
3.2239799 -178.3432 -7.5567951
17.448746 -178.22043 -10.827146
18.640966 -178.24861 -12.064319
15.849171 -178.12073 -10.98287
14.903287 -178.09482 -11.949394
16.249287 -178.1545 -12.050318
14.929728 -177.82544 -10.666138
12.657989 -177.97371 -11.492266
9.6819086 -177.85741 -11.735168
14.514188 -177.84879 -11.746752
15.418525 -177.81033 -11.694061
7.1609731 -177.6763 -7.5163522
3.2949071 -177.77783 -7.6409531
11.453266 -177.77859 -7.6638899
14.974011 -177.78249 -11.722055
17.968546 -177.1179 -15.423369
9.6441727 -176.10077 -11.264713
10.957157 -173.44208 -12.436539
11.114334 -169.98267 -12.406832
11.04247 -163.99115 -11.181887
10.966751 -163.77919 -16.818943
7.4571509 -179.77649 -11.473429
7.9049759 -179.36243 -11.272598
8.31744 -178.82059 -15.575512
3.232651 -178.64105 -7.6943469
19.104309 -178.34265 -10.325232
19.723303 -178.36581 -10.340899
19.637432 -178.33746 -10.794316
19.920771 -178.36041 -10.701809
18.991047 -178.30312 -10.888414
18.857468 -178.2267 -11.169746
19.224985 -178.29988 -11.29336
17.766081 -178.22943 -11.741429
18.988298 -178.27739 -11.808073
9.0656576 -178.22069 -14.691053
18.058544 -178.18048 -9.9813671
15.760852 -178.16475 -10.198814
13.879595 -178.0563 -10.877584
18.125736 -178.17946 -11.190407
9.4638462 -177.96634 -10.384259
9.7178259 -177.94321 -10.592885
9.4779224 -177.94864 -11.094292
9.781641 -177.89877 -11.84252
8.7427645 -177.7085 -7.334569
10.541918 -177.77429 -7.6366782
14.728985 -177.78339 -11.176086
8.0834951 -177.77809 -11.44212
18.011524 -177.67944 -14.885451
18.208658 -177.18523 -15.293857
9.6706114 -175.47043 -11.302244
3.157475 -179.82602 -5.9712992
7.6265459 -179.63052 -11.037572
8.6291447 -178.63043 -12.620861
19.432983 -178.35629 -10.357397
17.109898 -178.23166 -10.608344
18.55127 -178.23506 -10.645139
18.761066 -178.28696 -11.304154
15.553038 -178.1167 -11.250261
15.891705 -178.12062 -11.318161
16.978136 -178.18544 -11.289292
13.35352 -178.02585 -11.413231
15.738756 -178.10229 -11.526549
16.337749 -178.15007 -11.677459
16.556479 -178.16115 -11.983113
17.065035 -178.18854 -12.039598
3.2394519 -177.95677 -7.5559659
12.951801 -177.95236 -11.163159
14.22925 -177.80038 -11.079325
14.186996 -177.81711 -11.445099
9.765707 -177.88065 -12.075926
9.4451284 -177.8786 -15.055878
9.8320665 -177.73613 -7.655118
10.157841 -177.77208 -7.7042789
11.449051 -177.76993 -14.470224
17.639492 -177.21967 -14.798093
9.6827393 -174.53595 -11.507945
11.393951 -170.01764 -12.320001
7.4301548 -179.83447 -11.061116
7.8711801 -179.42729 -11.081026
8.0829048 -179.22717 -11.095219
8.2587347 -179.07571 -11.108753
3.2115071 -178.90616 -7.737658
16.133404 -178.25107 -10.224232
17.825798 -178.20163 -10.279242
17.290039 -178.21111 -11.288919
9.0882568 -178.27219 -11.436053
19.719627 -178.30888 -11.843034
15.372551 -177.86975 -10.230781
9.3347588 -177.98079 -12.676538
9.4260206 -177.8941 -14.682584
9.7452927 -177.76651 -15.082952
9.6091003 -176.52869 -11.122713
3.3255999 -176.23474 -7.66853
10.683786 -170.009 -12.349037
11.625365 -170.03275 -12.557453
11.350334 -163.99524 -11.190767
8.2378578 -179.05025 -9.9743156
8.2977314 -178.99615 -10.487814
3.130564 -178.6507 -7.7127872
8.8644981 -178.47789 -11.479648
16.948069 -178.21484 -10.853439
18.297037 -178.20996 -10.831152
9.055315 -178.35191 -11.150993
9.0931511 -178.26161 -11.776204
18.130934 -178.24829 -11.75283
18.155422 -178.23087 -12.049765
16.619308 -178.18852 -10.887651
15.84698 -178.13945 -12.045918
9.0754099 -177.92392 -7.437758
9.5005131 -177.95294 -9.648037
3.27545 -177.41457 -7.55475
3.2896841 -177.47256 -7.6470881
17.477127 -177.10851 -15.332797
12.680848 -166.03117 -10.547832
10.570848 -163.9745 -11.336483
10.666817 -163.82164 -16.185238
10.414974 -163.76784 -16.780668
10.860058 -163.79195 -16.78779
7.3513718 -179.89407 -9.9240856
8.142067 -179.66313 -14.501671
8.2148218 -179.54747 -14.55027
8.2094154 -179.1127 -11.307298
8.8854647 -178.47835 -11.783444
17.361538 -178.25986 -10.303584
18.066807 -178.20718 -10.619393
18.729639 -178.26984 -10.752667
18.609924 -178.21143 -11.17662
17.897915 -178.21899 -12.041412
8.9440918 -178.20572 -15.442703
9.2948666 -178.11214 -9.6124134
18.250412 -178.18372 -10.578677
13.073582 -178.01042 -11.248667
16.549469 -178.16995 -11.418959
14.797505 -178.07961 -12.079343
15.193558 -178.10995 -12.001926
15.394878 -178.11682 -12.052773
17.490864 -178.19765 -12.014791
13.381426 -177.93628 -11.14427
9.7827234 -173.36798 -12.430809
10.791651 -170.00833 -12.503879
11.746408 -168.63301 -12.184737
11.30782 -164.00256 -11.37405
10.605522 -163.94121 -12.555167
7.944458 -179.89734 -14.135221
8.1481171 -179.74869 -14.186966
8.3461256 -179.54834 -14.170298
8.5385046 -179.34013 -14.592209
8.7551355 -179.13177 -14.213282
3.2455201 -178.24133 -7.7046118
16.989899 -178.23486 -10.245338
17.486008 -178.28107 -10.233048
19.681107 -178.35207 -10.914818
18.362083 -178.22408 -11.182178
17.826519 -178.21477 -11.415736
15.849577 -178.15326 -11.021356
13.799685 -178.0174 -11.609009
17.032139 -178.1927 -11.789361
14.565395 -178.08334 -11.952614
13.968681 -177.94472 -10.905555
10.998074 -177.77966 -7.6501908
17.363625 -177.14685 -15.129034
15.644632 -176.91721 -15.004223
12.021422 -173.53358 -12.475976
10.591127 -163.98259 -11.134865
10.198174 -163.92519 -12.545364
8.0831909 -178.92035 -15.706566
16.691998 -178.22809 -10.59724
16.602051 -178.21365 -10.662804
16.52845 -178.2067 -10.807061
17.620365 -178.20781 -10.848461
19.358149 -178.32983 -10.908539
18.524937 -178.28807 -11.309357
19.453049 -178.32114 -11.313215
19.820066 -178.31879 -11.31797
9.1987877 -178.17136 -10.549753
15.768225 -178.19278 -10.530804
16.212074 -178.19286 -10.643762
16.128017 -178.12785 -11.311392
15.885017 -178.11301 -11.5401
9.2507057 -178.13411 -11.75403
13.477451 -178.01195 -11.620659
9.5073023 -177.92516 -11.840257
9.4096518 -177.96103 -12.045206
14.664779 -177.75627 -11.47004
9.5530243 -176.60738 -10.974783
11.208602 -169.98581 -12.353338
3.1574781 -179.15985 -7.7464261
8.3725128 -178.96141 -9.5813808
8.4730673 -178.86234 -11.116144
18.806648 -178.29085 -9.9968319
9.1248522 -178.26772 -10.362232
18.235479 -178.21092 -10.277187
17.38039 -178.24835 -10.710512
18.18576 -178.24315 -11.370887
18.682791 -178.26593 -11.407961
9.0797138 -178.26791 -12.015617
9.2774067 -178.11066 -11.417334
14.669968 -177.81555 -10.608896
9.451292 -177.9523 -11.403327
10.676428 -177.78719 -7.2327752
17.789333 -177.20937 -15.10891
17.708982 -177.15228 -15.170326
9.5904427 -175.8093 -11.008419
11.696847 -173.50684 -12.451014
-13.028236 -171.3717 -5.4125929
12.038038 -170.0499 -12.568444
10.371897 -169.99498 -12.463461
-7.2453542 -168.8147 -4.642889
10.230662 -163.96542 -11.327742
10.957613 -163.98364 -11.346684
7.3789539 -179.74046 -11.685905
8.2809658 -179.02872 -10.308037
8.6294632 -178.69394 -10.331208
8.6980228 -178.66666 -11.109865
8.4809341 -178.61472 -15.687696
19.949593 -178.43053 -10.80108
8.6694422 -178.58589 -11.776044
3.184334 -178.23637 -7.652945
16.836077 -178.22475 -10.598894
18.187885 -178.23502 -10.929038
19.116455 -178.27429 -11.478394
16.622147 -178.21562 -11.811702
19.156889 -178.26901 -12.072314
15.57926 -178.15955 -10.604051
17.831131 -178.18622 -10.858158
9.2978592 -178.10834 -11.157547
12.53685 -178.02087 -11.530721
16.249701 -178.15106 -11.830088
16.549282 -178.16052 -12.043149
3.194489 -177.8495 -7.6535521
12.984047 -177.95865 -11.402351
9.6725225 -177.77733 -14.258099
6.9725151 -177.59198 -7.7683058
18.291098 -177.52905 -16.048008
14.896294 -176.8837 -15.183541
-0.21489 -175.47293 -5.089725
-0.201332 -175.41855 -5.347528
2.7983861 -175.43362 -5.395041
-7.070168 -175.23036 -4.6395292
-6.9125562 -175.13834 -5.4280748
-15.487099 -174.92885 -5.174098
-13.62088 -174.88428 -5.1108298
-6.217175 -174.83217 -5.508924
-6.23101 -174.91046 -5.6145239
-18.007019 -174.71329 -5.3599548
-17.039696 -174.79538 -5.2591128
10.567165 -173.39236 -12.430534
-3.399925 -172.85204 -5.3114219
3.30867 -171.8671 -20.170168
-18.18602 -171.75378 -5.5740991
-13.001286 -171.47089 -5.4730072
3.0060501 -170.91058 -5.046802
2.7855761 -170.54309 -5.0346179
11.212799 -170.01376 -12.514428
9.4060059 -168.7618 -4.760077
-16.296518 -167.85968 -5.0039191
-16.143169 -167.43213 -5.26615
9.4769707 -167.36819 -4.5754752
9.5805664 -165.66879 -4.1901088
9.7506104 -165.01523 -19.224548
-19.012371 -164.98093 -4.322238
9.7928162 -164.50613 -19.192091
9.6556244 -164.03835 -5.565248
9.8561783 -164.13901 -20.20298
9.8825989 -163.97414 -20.201981
9.7756805 -160.79338 -4.030468
8.5839338 -179.30161 -14.266256
8.8809042 -178.47272 -10.347131
16.57645 -178.22467 -10.277407
16.437948 -178.21591 -10.507053
17.698048 -178.20139 -10.635146
18.964651 -178.30652 -10.729879
18.296993 -178.25204 -11.316463
18.548286 -178.25845 -11.774446
9.3036003 -178.10548 -10.373978
15.594689 -178.18126 -10.312988
15.814534 -178.13522 -11.805016
14.620081 -177.8223 -10.281676
15.428991 -177.86606 -10.54319
15.131962 -177.76141 -11.445916
9.8478222 -177.75023 -14.434223
18.465952 -177.66275 -14.971305
17.16749 -177.14629 -15.15097
14.885147 -176.93491 -15.307801
9.5426369 -176.05258 -11.241436
-11.706841 -175.01047 -4.7478929
-6.9329448 -175.06285 -5.6437702
-6.8751531 -175.07401 -7.315362
-15.307442 -174.81033 -5.6946778
-17.851646 -174.74362 -5.0136199
-15.230026 -174.7148 -5.4435568
-16.625786 -174.48218 -18.217705
-14.706642 -174.52155 -18.430996
3.1142199 -174.0311 -14.299708
3.1052699 -173.24597 -12.044739
-18.076641 -171.70953 -5.7624769
-3.708168 -171.4465 -5.2742391
-12.973074 -171.49716 -5.4519081
-7.3833618 -171.26291 -4.9763522
3.2675171 -171.09509 -13.782624
3.3258741 -170.65671 -19.798876
9.3731461 -169.60371 -5.4040308
9.5419159 -169.43918 -13.812551
9.4746246 -169.02463 -5.0306931
-16.363438 -168.41154 -4.8943892
9.646698 -168.16673 -18.366081
9.6384811 -168.18002 -19.436863
-16.139885 -167.85342 -4.75279
-18.397182 -167.64627 -4.2861671
-15.640076 -167.64098 -4.7437258
9.5804214 -166.85048 -4.3776469
9.7915268 -166.62607 -19.590574
9.537735 -166.4024 -4.5682688
9.7681732 -166.43715 -17.150681
9.8021736 -165.96112 -19.388634
9.5875702 -165.79913 -5.4467959
9.8990402 -165.54237 -19.035698
9.6155701 -165.38007 -5.396884
9.6485062 -165.03195 -5.397954
9.8158722 -165.07297 -20.296221
9.8544693 -164.74231 -19.391771
10.361927 -163.96593 -12.343501
10.707925 -163.96017 -12.353674
9.8786926 -163.85104 -19.299194
9.6305618 -163.686 -5.3355098
9.9130287 -163.78227 -18.947763
9.9171906 -163.58549 -19.275919
9.8879318 -163.57326 -20.162914
-18.071327 -179.98384 -6.6511068
7.729733 -179.51157 -9.4541636
8.5615721 -178.5825 -15.489934
8.9914637 -178.37628 -10.016628
18.612255 -178.25513 -10.268354
19.409996 -178.30141 -11.83812
18.036522 -178.18217 -10.680546
16.100372 -178.1424 -11.41782
15.470284 -178.10863 -11.869996
9.3322697 -178.00026 -15.051504
11.146276 -177.81161 -7.2462502
9.7335186 -177.9234 -10.354954
9.8033209 -177.87263 -11.157702
15.293352 -177.81659 -11.039512
13.7561 -177.98206 -11.325176
18.246304 -177.6882 -14.771423
14.754946 -176.90778 -15.03918
3.6559811 -175.87737 -6.4079518
-6.2576518 -175.02774 -5.4967508
-13.68718 -174.96756 -5.3397708
-13.567642 -174.80739 -5.257937
-6.747025 -174.85356 -17.583973
-16.887455 -174.78159 -4.9627371
-15.684631 -174.49466 -18.318417
-15.274979 -174.47983 -18.353466
3.254086 -172.57986 -20.199057
3.2558589 -172.36977 -20.023411
3.190598 -172.14296 -14.146513
3.2966609 -171.58441 -19.920883
3.341362 -171.20015 -5.0926242
3.3291049 -170.19647 -13.575252
3.310631 -169.79047 -13.505767
3.331131 -169.4641 -13.731728
3.883568 -169.26436 -15.545809
-13.483971 -168.95438 -4.699574
9.5689621 -168.67838 -15.923202
12.496721 -168.51906 -12.123016
9.5562744 -168.27647 -15.876155
-16.501307 -167.89337 -5.27351
-16.195724 -167.88762 -5.7511969
9.4627151 -167.7041 -4.4825501
-16.337696 -167.69698 -5.2172012
9.6699181 -167.75122 -18.319593
9.5985641 -167.45135 -15.785538
9.5107498 -167.21951 -4.3128662
-15.944824 -167.36122 -5.214571
9.6531601 -167.04398 -15.743767
9.6490326 -166.99332 -16.055483
9.7701492 -165.20612 -17.837349
9.8287725 -165.31755 -20.506844
9.8118744 -164.91994 -17.25038
10.246069 -163.81873 -16.796837
16.679977 -163.40811 -16.266447
9.8761444 -163.41931 -17.965881
7.3908911 -179.84064 -14.227823
7.6856489 -179.62741 -11.270569
7.741169 -179.44728 -12.609812
7.6169238 -179.436 -15.436121
19.456291 -178.34375 -10.709059
18.575304 -178.27191 -10.9366
17.353283 -178.2036 -11.825058
8.8660698 -178.39572 -12.62538
16.272444 -178.17796 -10.873464
16.673958 -178.16696 -11.732011
16.688568 -178.18903 -11.964889
9.0812969 -178.16023 -14.370743
9.241643 -178.07578 -14.563939
10.954457 -177.80414 -7.081635
11.345995 -177.80652 -7.092803
15.059592 -177.85077 -10.220711
9.537591 -177.93095 -10.569928
9.8074207 -177.88022 -11.383231
9.301506 -177.86511 -15.656996
9.5676765 -176.47107 -11.221519
9.6041183 -176.24268 -10.98918
-6.9003811 -175.1102 -5.46029
-13.669014 -174.88322 -5.0199108
-14.105049 -174.88577 -5.2071009
-15.284561 -174.77429 -5.7341828
-18.234222 -174.65668 -6.004324
-16.147984 -174.47086 -18.269421
3.0982211 -173.16946 -14.126448
3.1164701 -172.84993 -12.000763
-3.859596 -172.14432 -5.3209629
-13.490589 -171.71533 -5.4868741
-7.280941 -171.13873 -4.72545
3.3106079 -170.31049 -13.765999
3.385757 -170.03656 -19.857412
10.205775 -169.98235 -12.358512
10.477675 -169.96692 -12.338165
3.414825 -169.66327 -15.706374
9.5333633 -169.34232 -14.118666
9.5174026 -169.08897 -15.966416
9.4727707 -168.72017 -5.0039511
9.4619446 -168.75479 -5.3427682
-16.030327 -168.26555 -4.8684702
-16.243675 -168.13553 -5.3616848
9.6701851 -167.83588 -20.521767
-15.721355 -167.43539 -5.1107798
9.5070419 -167.33272 -5.4441872
9.698761 -167.31183 -17.491959
9.6494827 -166.66412 -15.700706
9.7394333 -166.67429 -17.427792
9.7801437 -166.20558 -19.542383
9.5221062 -166.10323 -4.5353351
9.588295 -166.17847 -5.4643068
9.8268623 -165.57251 -19.349453
9.8034973 -165.08711 -19.330881
9.6665344 -164.4664 -5.4005342
9.70298 -163.85811 -5.011898
10.484865 -163.78125 -16.806976
2.219414 -163.10246 -4.8588691
2.259361 -162.79706 -5.048943
-16.603725 -174.83089 -5.0389709
-13.599174 -174.82005 -5.1801391
-17.084583 -174.81224 -5.4651222
-6.1837411 -174.87 -5.5520949
3.1751399 -174.88316 -14.338755
-18.858776 -174.70322 -5.1264949
-15.102432 -174.66492 -5.6763759
-15.124863 -174.54175 -18.395718
-15.219101 -174.48071 -18.427906
-4.1002202 -172.58931 -5.3089552
3.279114 -172.54269 -19.496983
3.0998919 -172.31281 -12.08626
3.293571 -172.29816 -19.468588
3.263474 -172.07814 -12.065689
3.2412801 -171.91031 -13.775315
3.2720261 -171.9673 -19.970173
-7.4378619 -170.53632 -4.6398768
9.4135885 -169.73546 -4.8209949
9.5597153 -168.95049 -14.078414
9.6360016 -168.92596 -20.36204
-16.539209 -168.13348 -5.2653141
9.6764069 -168.12816 -20.282478
9.5414696 -167.46191 -5.0565372
9.6784363 -167.34319 -20.200161
9.511673 -167.16498 -4.6111689
9.5365143 -167.09407 -5.5422802
9.7416878 -166.2562 -17.383526
9.5449142 -165.84261 -4.5160532
9.8016586 -165.44254 -20.333893
9.8150711 -165.15704 -16.836977
9.6823578 -164.68275 -6.2703671
9.891963 -164.21227 -19.021273
9.885849 -164.23544 -19.341217
9.6693878 -164.12737 -5.0351629
10.274065 -163.96719 -11.108088
9.9320946 -163.46339 -18.917332
-15.70694 -174.8205 -5.2703009
-8.0488892 -174.8571 -17.377661
-19.254433 -174.70827 -5.0890288
-17.504486 -174.78833 -5.0763078
-18.415247 -174.61107 -8.7663269
-13.580902 -174.64334 -12.096476
9.5952473 -174.46686 -10.558935
9.5238762 -174.58527 -11.530375
3.283134 -171.88191 -14.120631
3.2643051 -171.8864 -16.087343
-4.0338588 -171.76222 -5.294281
3.2816999 -171.08066 -14.026229
2.969681 -170.29727 -5.002862
9.9602222 -169.9883 -12.454762
3.3698919 -169.81476 -13.82868
9.4456062 -169.42264 -5.4795842
9.4650803 -169.31497 -15.994574
3.8892519 -169.16629 -15.801547
9.5333862 -168.86998 -13.750141
9.6635284 -168.72752 -19.812454
12.183834 -168.50107 -12.114216
9.6524506 -167.96559 -17.55789
9.6856842 -167.86197 -20.255638
9.7226562 -167.28795 -20.460926
9.6787872 -167.13228 -17.9347
11.792882 -166.91971 -11.061318
9.5320358 -166.58258 -4.3104219
9.755867 -165.84076 -17.341024
9.712532 -165.0072 -6.2477169
9.860836 -165.00034 -19.163467
9.8395767 -164.66541 -20.256184
-18.392433 -164.59911 -4.2620492
9.8903389 -163.97557 -20.152569
16.695427 -163.60834 -18.785933
-12.486153 -174.98285 -4.642066
-16.373756 -174.84198 -5.0631328
-15.414505 -174.90724 -5.0924492
-16.248779 -174.8847 -5.204309
-16.216824 -174.82315 -5.724534
-8.5214605 -174.8555 -17.413368
-7.00668 -174.91727 -17.525723
-18.7141 -174.7067 -5.3896561
-17.782881 -174.76413 -5.3898368
-16.376366 -174.79709 -5.229094
-13.594162 -174.7818 -5.6381149
-6.8039861 -174.66573 -17.466858
-14.28611 -174.51797 -18.467443
11.353828 -173.47406 -12.444361
3.2555311 -172.8161 -19.527941
-7.5746918 -172.03107 -4.5993748
-7.3430562 -171.81113 -4.8142099
-19.931917 -171.84506 -5.7768102
-13.42231 -171.57124 -6.1769381
3.2874579 -171.4678 -13.856208
3.276588 -171.47044 -14.071774
3.2084351 -171.02267 -5.060338
3.31517 -171.17674 -19.867775
3.326576 -170.83522 -15.961614
3.3368869 -170.69589 -13.825949
3.364609 -170.33806 -15.903316
3.4545901 -170.1644 -20.098593
3.330338 -169.88889 -15.576424
3.416626 -169.77258 -19.961224
3.3709719 -169.52521 -13.479652
-13.613243 -168.95746 -4.6272631
-16.762505 -168.63391 -4.3062868
-16.036312 -168.49559 -5.2840772
9.6605072 -167.66307 -16.130789
9.6631851 -167.25989 -16.086191
9.7825928 -165.33179 -17.290308
9.6572456 -163.81866 -4.6632981
