# .PCD v0.7 - Point Cloud Data file format
VERSION 0.7
FIELDS x y z
SIZE 4 4 4
TYPE F F F
COUNT 1 1 1
WIDTH 1495
HEIGHT 1
VIEWPOINT 0 0 0 1 0 0 0
POINTS 1495
DATA ascii
12.104237 -184.84805 -9.8313532
12.236885 -184.88112 -12.132389
13.059752 -184.82278 -14.126047
9.4304991 -184.7141 -5.1069131
12.068491 -184.73891 -5.878727
7.5112381 -184.64777 -8.1475515
12.922541 -184.74774 -8.2824268
9.0969162 -184.69878 -8.6041317
9.4591808 -184.72206 -8.6658363
10.051281 -184.75194 -9.0598364
8.293129 -184.60654 -9.2147779
12.212181 -184.79613 -9.29247
12.706158 -184.6913 -12.073952
9.4257078 -184.62715 -12.244754
11.004013 -184.63994 -12.946637
11.530621 -184.65527 -12.885835
12.27089 -184.68332 -12.90163
12.267589 -184.69434 -13.741858
12.895504 -184.69092 -13.729601
7.8833032 -184.59273 -5.8153381
11.040071 -184.47507 -13.797506
6.2909441 -184.38844 -6.6616201
4.7326841 -184.28455 -7.2664628
12.95838 -184.1727 -13.711319
17.88891 -183.96925 -5.0306368
5.615036 -183.96251 -14.946852
13.369026 -183.23764 -7.8357658
-10.845847 -183.01947 -11.553092
12.995396 -183.01472 -12.553233
-12.147835 -182.93277 -11.717235
13.508878 -182.41513 -8.174654
16.242098 -182.32028 -7.7970738
19.390043 -182.24019 -7.8302279
17.263588 -182.26306 -11.932671
18.234028 -182.27953 -11.940589
19.44492 -182.1559 -12.06002
18.58131 -182.01273 -12.59456
19.368042 -181.84512 -4.2641602
19.055021 -181.83818 -5.5075598
12.931873 -181.90833 -9.3385334
17.363945 -181.95236 -12.334978
15.885744 -181.96268 -12.821707
15.072579 -181.64139 -4.7289448
14.625479 -181.62164 -4.97576
16.906404 -181.75482 -5.5581908
19.738201 -181.78412 -6.5091128
15.659916 -181.60101 -6.9674158
17.047497 -181.63516 -7.0999522
16.248543 -181.60962 -7.7161388
18.618029 -181.67128 -7.6519589
19.748432 -181.71527 -8.6408567
17.100002 -181.60399 -9.5549107
19.793369 -181.71503 -9.4384823
18.631369 -181.69252 -11.901416
14.373578 -181.75504 -12.567831
13.75893 -181.58203 -4.9610538
10.414495 -181.41522 -5.1890559
11.631031 -181.46469 -6.060245
12.3339 -181.46846 -6.8824568
12.652646 -181.45322 -7.3515692
16.551123 -181.56812 -7.3904271
18.217125 -181.45422 -7.3836498
17.024521 -181.54701 -7.552773
12.951141 -181.46732 -7.646337
16.497328 -181.59175 -8.3877525
16.885334 -181.58994 -8.5921764
16.440903 -181.56636 -9.6027603
19.563009 -181.56757 -10.204556
17.797747 -181.435 -11.848267
16.932407 -181.43918 -13.408929
19.253052 -181.53487 -13.71242
19.693954 -181.56503 -13.722002
16.083214 -181.43034 -13.896391
9.3904285 -181.3801 -5.1221008
7.0949759 -181.2616 -5.3568678
8.6391258 -181.32765 -5.8212848
17.301855 -181.37279 -6.500319
9.9195509 -181.36945 -6.6425829
10.614655 -181.30548 -6.6635609
9.8561401 -181.34653 -6.860146
17.248438 -181.37851 -7.2817159
6.5135942 -181.33739 -7.7151518
13.414365 -181.29097 -13.881061
14.129284 -181.32474 -13.867288
14.170864 -181.27734 -14.84059
19.555302 -181.3692 -14.951693
14.114349 -181.29517 -15.467484
6.8860931 -181.12373 -7.560277
8.3058205 -181.12283 -7.6733708
10.751184 -181.06616 -7.6798458
16.114779 -181.17227 -14.719812
16.62956 -180.91423 -14.53587
18.963387 -180.96153 -14.671324
18.402285 -180.84962 -14.941315
16.286913 -180.9306 -15.946644
16.718357 -180.74457 -14.731811
6.6363168 -180.4763 -11.325651
6.1989541 -180.45746 -12.532701
3.083354 -180.22141 -7.6592498
5.038166 -180.35698 -11.530126
6.6519852 -180.3512 -11.545804
6.6140752 -180.39017 -14.591448
6.744719 -180.20084 -15.776686
5.4328599 -199.95834 -4.7236681
-15.55465 -199.87511 -5.3486171
7.1351199 -199.87872 -6.334682
9.9082346 -199.90955 -7.45333
9.3591614 -199.80002 -8.1341038
10.543161 -199.98267 -9.88167
10.072087 -199.99644 -10.992178
8.855526 -199.92398 -11.26318
10.644781 -199.87668 -11.257513
11.015835 -199.94406 -11.93073
4.2927318 -199.95558 -15.318446
13.616718 -199.72876 -4.4170232
8.2684956 -199.75517 -5.3354511
-16.537056 -199.67902 -5.4006128
-18.536896 -199.6828 -6.0691781
4.6527429 -199.77365 -6.960546
4.635777 -199.79193 -7.4868631
10.617311 -199.79922 -8.1652994
17.073328 -199.57053 -5.0128322
-19.82856 -199.48935 -5.7966371
-18.169909 -199.45694 -5.753727
10.20769 -199.4104 -6.756536
10.60302 -199.57285 -8.0678921
11.527918 -199.54231 -10.69436
3.988447 -199.4534 -12.159176
10.351524 -199.49443 -14.074084
19.476009 -199.25471 -4.2939
8.4267597 -199.39777 -4.6827412
-14.977797 -199.23071 -5.380281
-16.489017 -199.31488 -5.4142179
10.981049 -199.37593 -6.9454861
9.9174528 -199.32083 -8.9424086
1.620846 -199.34808 -10.323896
-16.086197 -199.02899 -4.7858348
5.2198639 -199.07454 -12.862582
5.0992141 -198.65057 -7.427774
2.2100029 -198.74361 -9.465291
4.1905589 -198.44118 -9.1727037
-13.823062 -198.36636 -4.7588339
-10.668114 -198.23543 -5.09795
-10.51972 -198.22275 -5.3593211
6.105978 -198.14861 -10.13005
-11.147096 -197.94313 -5.8318229
9.8301029 -197.88623 -9.0440483
0.78627402 -197.72095 -4.388432
4.429729 -197.65785 -8.7498293
10.249319 -197.71684 -8.938201
2.894927 -197.70158 -9.2196856
-2.396739 -197.45609 -4.5064459
-11.701628 -197.51558 -5.8604999
-10.46287 -197.50781 -6.12958
4.839963 -197.56012 -8.9943523
9.6595306 -197.57877 -9.325201
9.9630108 -197.49057 -12.489363
12.647194 -197.20596 -4.3285241
-16.911221 -197.29601 -4.680089
-11.097782 -197.33279 -5.6307368
9.8972874 -197.28961 -6.782856
11.096203 -197.34998 -8.9505653
8.8944321 -197.38284 -11.445042
10.687061 -197.32376 -11.86348
14.072714 -197.15416 -4.2502632
15.070066 -196.91461 -4.3357
-12.46328 -196.94778 -4.667757
-14.307474 -196.97134 -5.360301
-11.011594 -196.87952 -5.4049439
7.2240939 -196.93414 -13.141253
-15.263947 -196.62433 -4.7608151
-14.192867 -196.64261 -5.0858068
4.1919432 -196.77043 -5.2288709
-14.335454 -196.69002 -5.4116278
-5.2435231 -196.72504 -5.704917
-5.84585 -196.66322 -6.1043139
5.3105731 -196.61836 -8.4691877
-16.026781 -196.44955 -5.2570629
-13.942972 -196.59445 -5.2751408
10.903239 -196.49841 -11.126902
13.417451 -196.25339 -4.2497411
0.256998 -196.24957 -4.903914
-8.0981369 -196.2301 -5.0711122
-16.137318 -196.25613 -5.4999318
-15.936835 -196.3205 -5.4860911
-14.328213 -196.32005 -5.750504
-13.922398 -196.32866 -5.9333549
-10.055016 -196.31024 -5.9543328
-9.3230991 -196.35516 -5.9330368
-10.187108 -196.3324 -6.1738729
0.491216 -196.26401 -6.1984291
3.751631 -196.2403 -8.6554794
3.78967 -196.2265 -9.3699818
-8.493681 -196.15854 -4.773222
-4.6474061 -196.09259 -4.7475729
0.236297 -196.1461 -4.6283498
-4.6364102 -196.07269 -4.888659
3.5037949 -196.13889 -5.0456638
-14.611452 -196.19942 -5.3700709
-3.781944 -196.12022 -5.6832981
-17.472977 -196.00229 -5.9368582
1.082577 -196.09883 -6.6130872
-11.307014 -196.0899 -6.8266282
5.432013 -196.07155 -7.6902938
-18.756176 -195.88188 -5.4230108
-5.3405132 -195.9088 -5.5160208
-16.71509 -195.89928 -5.7022848
-15.830696 -195.85449 -6.1358118
0.99462801 -195.9308 -6.1424112
-18.262688 -195.82864 -6.3327122
3.62923 -195.91483 -8.1056471
-16.171288 -195.70401 -4.6256571
-8.9423141 -195.78604 -4.700139
-8.287055 -195.75204 -4.627419
-4.4715972 -195.74664 -4.6582818
-16.295025 -195.61765 -5.1249051
-13.692265 -195.63654 -5.0176101
-3.8772581 -195.62347 -5.0864758
-15.997368 -195.68173 -5.3693709
4.628201 -195.68172 -5.4025111
-0.56213897 -195.71509 -5.688817
-6.2226138 -195.67917 -6.072226
-4.675396 -195.78647 -6.0484281
-4.9327202 -195.65802 -6.5489221
-8.320467 -195.50665 -4.7193532
1.084938 -195.43256 -4.8855209
1.24124 -195.42947 -5.3628302
-8.899025 -195.52675 -5.7798409
-0.21281099 -195.54385 -5.611342
-11.28688 -195.44279 -6.4536309
-4.2648449 -195.54823 -6.6405969
3.4157259 -195.46884 -8.6291618
-19.711641 -195.37729 -5.4181352
-9.4940624 -195.33235 -5.7920871
-5.3827071 -195.39612 -6.084168
-16.714291 -195.38461 -6.499331
-0.49586999 -195.33682 -7.083055
19.924414 -195.08556 -4.1612692
1.157825 -195.01756 -4.8356519
-16.304264 -195.15735 -6.22789
-9.5255203 -194.96071 -5.9062271
1.711506 -194.9808 -6.1440568
-0.171671 -194.76332 -6.0968642
-16.310171 -194.72466 -6.5076098
17.043991 -194.53009 -4.2498269
-5.9725652 -194.50298 -4.4108291
-3.4682209 -194.25723 -7.3345332
-9.9531374 -194.18076 -4.5457811
-11.451736 -193.61011 -4.65588
19.528107 -193.53752 -4.1608438
8.2976208 -192.98981 -4.1835899
0.13283999 -192.83325 -8.2867813
2.9140739 -192.82318 -12.472761
-0.60428101 -192.76541 -8.2666149
-0.47398099 -192.71593 -8.3525276
3.017879 -192.66188 -12.432835
6.2416711 -192.44675 -5.6349888
-0.158968 -192.56874 -6.2392459
6.043427 -192.41087 -6.2088819
6.6021271 -192.47314 -7.057693
-8.5034676 -192.50281 -8.3604507
-6.5767479 -192.44235 -9.2926607
6.5278511 -192.43634 -9.2034435
0.011043 -192.21623 -4.2715039
0.61745602 -192.2368 -4.2877159
1.81217 -192.2569 -4.3122482
2.8943701 -192.32291 -4.570014
2.1387939 -192.30663 -4.689754
4.6011691 -192.38695 -4.7191329
4.2368159 -192.36411 -4.8886852
4.585186 -192.36815 -4.9498219
5.8087621 -192.3819 -4.9458032
6.1492348 -192.36584 -4.9527268
2.970619 -192.31856 -5.0979438
6.6522698 -192.32068 -5.3374958
3.8883491 -192.32394 -5.737803
0.56002498 -192.26204 -5.933063
6.5940671 -192.23981 -6.122581
2.238508 -192.23895 -6.2009521
2.6274481 -192.27216 -6.2233391
-5.045084 -192.20071 -6.592896
4.5988312 -192.3313 -6.6823401
5.338038 -192.37146 -6.6573238
2.8779981 -192.23193 -7.3172898
3.3599811 -192.21216 -8.3916473
-11.109451 -192.34149 -8.4476852
-5.7910228 -192.3681 -9.0350342
6.2223172 -192.36378 -10.367762
5.7558818 -192.20078 -10.475428
5.7790618 -192.24028 -11.430704
-10.569502 -192.20448 -12.714544
-10.291084 -192.23805 -12.744682
-8.5713634 -192.30502 -12.682279
5.689312 -192.23062 -12.766085
-8.0341225 -192.37968 -16.691307
-3.016562 -192.07724 -4.5804458
-0.105093 -192.18997 -4.646266
-4.1293912 -192.03421 -4.8852601
-3.338398 -192.02739 -5.4194198
-2.937696 -192.04706 -5.4204001
-3.001575 -192.16046 -6.0170431
0.30384099 -192.12448 -6.0433459
-1.679213 -192.07834 -6.7131071
-1.726112 -192.04431 -7.1208458
-0.55397201 -192.04913 -7.9209318
-17.35685 -192.08913 -8.3923979
-2.6500969 -192.05783 -8.2748642
-6.689024 -192.00618 -8.4119396
-1.044565 -192.04367 -8.5667019
1.290785 -192.13611 -8.5648336
-1.830217 -192.16742 -8.642889
-3.281666 -192.00665 -8.8884439
1.500689 -192.14174 -9.0852776
-1.796972 -192.00836 -9.248641
-1.3764811 -192.01013 -9.3738756
2.6064451 -192.18344 -9.3922367
-2.580456 -192.01547 -9.7407398
-2.0747049 -192.04065 -9.77635
0.92083299 -192.15659 -9.9446735
1.690935 -192.14696 -10.153351
2.8134329 -192.15918 -10.182886
-2.030072 -192.0585 -10.281008
1.437624 -192.1183 -10.51174
3.2948279 -192.12045 -11.029874
3.767385 -192.12938 -11.068896
0.224775 -192.02617 -12.732328
1.761829 -192.03873 -12.760165
2.105293 -192.05341 -12.769773
-5.0361171 -192.19516 -13.347771
6.8292198 -192.18539 -13.216434
-9.713007 -192.0665 -13.455828
2.641088 -192.04187 -13.470141
1.664284 -192.02792 -14.122515
5.433495 -192.18456 -14.273105
6.1410952 -192.14938 -15.310026
3.8357351 -192.04599 -16.229944
5.5959091 -192.08838 -18.40416
-7.391695 -191.87976 -4.557806
-6.102695 -191.91922 -5.3389082
-4.6893158 -191.94937 -5.473856
-5.3933978 -191.93974 -5.8167691
6.5729179 -191.96231 -5.9290452
-6.7367439 -191.89108 -6.328763
2.7875249 -191.84218 -6.338953
-0.035944 -191.95724 -6.5214772
-8.2837849 -191.80231 -6.683228
-7.1491742 -191.88177 -7.1453562
3.882102 -191.93646 -7.3995271
-1.454742 -191.99612 -7.647614
-4.2487841 -191.91434 -7.930851
-1.7572581 -191.99997 -7.8686848
1.0406801 -191.80478 -7.893311
-0.00070999999 -191.99852 -8.1430779
0.56224102 -191.81436 -8.1307135
6.6271052 -191.81636 -8.1835823
-2.193254 -191.8289 -8.2520638
-4.3071561 -191.94376 -8.5865574
-5.885232 -191.82005 -9.541604
6.7036419 -191.83719 -9.4254818
-4.5545959 -191.81421 -9.7959642
-15.390381 -191.83878 -10.080103
-6.9339809 -191.85278 -10.301512
-5.792388 -191.85687 -10.200148
-7.0975199 -191.83646 -10.469467
1.3583699 -191.99542 -11.457573
1.487434 -191.94955 -12.25407
1.91021 -191.97586 -12.283913
-3.765475 -191.89188 -12.6136
-1.377218 -191.827 -12.616353
-0.97809798 -191.87288 -12.658615
-17.85813 -191.92326 -12.901184
-16.98077 -191.90042 -12.823481
-2.150805 -191.85406 -13.314659
-14.476097 -191.87936 -14.188905
0.339724 -191.95792 -14.183401
1.6846009 -191.99332 -14.603313
6.688395 -191.82233 -14.728186
-3.9497681 -191.8028 -16.618095
2.2464509 -191.95355 -17.441732
-1.8569649 -191.80313 -17.800205
-11.449966 -191.80417 -18.276125
0.54060698 -191.86017 -18.611286
-17.713905 -191.67589 -4.782115
-11.808098 -191.70508 -4.8710561
-18.845047 -191.6071 -5.4947009
-10.681851 -191.71509 -5.9106579
-17.75341 -191.74142 -6.1415811
-14.480547 -191.76575 -6.5456052
-12.369339 -191.78934 -6.4486098
-5.6597142 -191.60876 -6.437912
-10.719555 -191.6754 -6.9697232
1.3040659 -191.76102 -7.1202898
-10.332516 -191.63618 -7.3062911
-10.188393 -191.67981 -7.3934932
0.53389698 -191.77888 -7.3397279
-10.099186 -191.66714 -7.927546
-11.080484 -191.62994 -8.0532532
-10.614577 -191.6615 -8.7003899
-6.9340639 -191.76697 -9.0907764
-7.4219251 -191.75641 -9.3220882
-10.674648 -191.63153 -9.5201979
-7.8267169 -191.737 -9.4519253
-19.170246 -191.66483 -9.8858175
-18.196045 -191.71352 -9.9355612
-9.3646746 -191.65001 -10.214938
-8.9166365 -191.71997 -10.28367
-8.1674242 -191.72003 -10.312149
-19.479362 -191.77559 -10.422121
-7.507236 -191.74619 -10.50783
-4.190825 -191.79774 -10.83847
-10.755577 -191.69333 -12.213266
-9.6039238 -191.73241 -12.595631
-6.6698842 -191.67529 -12.78583
-5.4277339 -191.72133 -12.897802
-3.4351139 -191.79152 -13.15492
-17.776222 -191.66963 -13.492144
-17.365822 -191.68527 -13.529343
-16.677727 -191.67633 -13.419488
-18.605301 -191.65768 -13.801746
-7.7913208 -191.61295 -13.800163
-2.2280281 -191.78625 -13.800561
-4.1575742 -191.73988 -14.03993
-6.970448 -191.62801 -14.224403
-3.425163 -191.78445 -14.487415
-7.3688931 -191.73019 -15.090956
-0.928532 -191.75092 -15.750507
-0.87434 -191.68025 -16.191999
-2.0754969 -191.79924 -17.099937
-4.6288409 -191.65456 -18.130917
-8.4355011 -191.71707 -18.203121
-6.149879 -191.62794 -18.328281
-0.53110498 -191.74474 -18.253052
-4.5182881 -191.66089 -18.514181
-11.12822 -191.61708 -18.861319
-7.2420268 -191.74872 -18.818626
-17.472408 -191.4283 -4.76684
-13.613155 -191.59686 -4.7462912
-18.145432 -191.50275 -5.4406538
-15.717737 -191.57129 -6.2361689
-14.969152 -191.50946 -6.2323132
-15.709554 -191.53802 -6.5421529
-6.4978962 -191.52931 -6.4811029
-2.222656 -191.52859 -6.7541418
-15.258398 -191.46346 -6.9924011
-14.276985 -191.49725 -6.9639578
-13.755389 -191.51169 -7.1168408
-11.782134 -191.44241 -7.1077471
-1.887199 -191.58173 -7.0276752
-3.2938261 -191.54341 -7.2939992
-5.114686 -191.54086 -7.43648
-11.830449 -191.55315 -7.8712249
-11.756155 -191.57454 -8.0808926
6.6675072 -191.45445 -8.0760288
-15.048997 -191.42245 -8.2608023
-12.893887 -191.52025 -8.6813803
-14.12639 -191.42938 -9.5089788
-18.578953 -191.41914 -9.6773415
-8.9703102 -191.5918 -9.7045927
-14.969288 -191.40173 -9.8311386
-14.510996 -191.4216 -10.118317
-3.462671 -191.50281 -10.547728
-10.703165 -191.43527 -11.750651
-7.4480309 -191.55869 -12.126378
-2.545841 -191.42017 -12.276285
-10.18107 -191.50542 -12.650263
-17.791687 -191.58359 -13.156396
-10.287108 -191.49622 -13.022635
-19.653336 -191.58017 -13.322804
-13.020488 -191.42239 -13.439392
-8.9083958 -191.53998 -13.767496
-8.6374006 -191.54929 -13.706019
-11.702649 -191.41705 -13.851512
-9.3313084 -191.51251 -13.843548
-18.68441 -191.40445 -14.166468
-11.421286 -191.44485 -14.198725
-10.180796 -191.49014 -14.113739
-15.801262 -191.41031 -14.489161
-14.984602 -191.4574 -14.554235
-11.019804 -191.51099 -14.605984
-11.609196 -191.52859 -14.819332
-10.729359 -191.45291 -14.900971
-7.4581342 -191.50952 -14.979302
-9.6607437 -191.42177 -16.780792
-15.375566 -191.4281 -16.890734
-7.5270491 -191.43456 -16.891315
-7.604527 -191.57751 -17.160728
-19.177155 -191.48228 -17.234306
-6.615767 -191.51627 -17.74539
-8.5567627 -191.51373 -17.996372
-7.0393648 -191.50992 -18.640779
-19.852444 -191.33458 -4.8478808
-18.078045 -191.37891 -5.8994431
-17.785343 -191.36911 -5.8699298
-18.57695 -191.35869 -6.2080188
-18.536701 -191.30994 -6.690465
-16.98757 -191.38034 -6.8456311
-9.7115736 -191.30327 -6.9648919
-12.188473 -191.3624 -7.7372751
-18.476551 -191.30141 -7.8969359
-12.276226 -191.28384 -8.2930288
-17.055483 -191.37082 -8.7193851
-16.248114 -191.37752 -9.4826031
-19.176222 -191.21385 -9.6694384
-4.5503688 -191.36122 -10.552024
-17.380789 -191.37155 -11.352077
-1.1261851 -191.38344 -11.44148
-5.8047199 -191.26591 -11.722281
-1.427937 -191.34824 -11.636272
-1.423746 -191.31281 -12.190952
-10.976411 -191.35986 -12.480242
-1.1667629 -191.36757 -12.441994
-16.274673 -191.25996 -13.884923
-19.008123 -191.20328 -14.722492
-17.86158 -191.28296 -14.763115
-4.2691212 -191.36749 -14.699395
-17.320133 -191.28558 -14.889619
-2.981988 -191.39307 -14.951709
-2.613533 -191.37923 -14.986553
-4.991858 -191.28632 -15.475191
-4.2590351 -191.39754 -15.74781
-2.476063 -191.37303 -16.125984
-10.753804 -191.3734 -16.362131
-14.080753 -191.31294 -16.555487
-10.764088 -191.39217 -16.554207
-7.6124339 -191.26471 -16.654312
-18.655655 -191.36539 -17.39838
-19.290565 -191.23758 -17.591656
-14.247564 -191.39148 -17.457771
-18.928429 -191.29425 -17.64147
-18.503639 -191.27318 -17.700611
-17.304424 -191.30591 -17.771864
-16.878868 -191.31729 -17.830578
-16.455967 -191.32504 -17.889038
-15.597801 -191.32016 -17.909176
-12.166951 -191.30826 -17.914173
-16.176954 -191.30412 -18.028025
-14.231155 -191.35452 -18.097027
-12.130266 -191.34882 -18.055662
-15.507723 -191.26112 -18.731098
-13.851284 -191.22449 -18.60895
-16.345108 -191.02612 -6.3680491
2.6823959 -191.0119 -6.3807249
-19.629684 -191.01443 -6.6757231
-11.862838 -191.16995 -7.0153689
-16.604755 -191.061 -8.1199846
-12.880195 -191.11325 -8.1237173
-12.211029 -191.16908 -8.1188869
-19.80208 -191.1794 -9.7683992
-18.523388 -191.16461 -9.8542023
-19.899509 -191.16348 -10.250443
-5.8847551 -191.1769 -10.622664
-19.631214 -191.15611 -10.834063
-17.648151 -191.02258 -10.953823
-12.537636 -191.01469 -11.093411
-8.2281628 -191.02963 -11.006355
-17.44054 -191.09381 -11.384434
-5.9304099 -191.09238 -11.404186
-14.246349 -191.0714 -11.633199
-17.494814 -191.08278 -12.55764
-19.739573 -191.10898 -13.500454
-18.556797 -191.14105 -13.497315
-19.725256 -191.08871 -13.809095
-17.313396 -191.13834 -14.136175
-10.701653 -191.16457 -14.84334
-12.568535 -191.11615 -15.075661
-9.5378971 -191.01605 -15.283607
-5.6396332 -191.17632 -16.550125
-14.753876 -191.18077 -16.947201
-9.0702934 -191.01233 -16.809404
-17.333195 -191.08211 -17.30374
-18.594196 -191.05988 -17.769617
-16.004944 -191.1207 -17.682331
-15.561157 -191.13272 -17.742201
-15.133152 -191.1026 -17.711222
-19.444038 -191.04041 -17.817196
-18.496727 -191.07831 -18.295547
-16.622873 -191.13753 -18.610449
-18.616497 -191.00743 -18.902054
6.8099141 -190.97723 -3.99787
-18.69191 -190.95973 -7.4550238
-16.887407 -190.81613 -10.720552
-14.626678 -190.82774 -10.995821
-9.8302994 -190.96649 -11.656515
-11.507119 -190.98341 -12.36011
-9.9748573 -190.8503 -12.37435
-17.664658 -190.9924 -15.585892
6.715281 -190.71703 -6.1973362
-18.892437 -190.65677 -10.845404
-17.774899 -190.72708 -10.94339
-16.611734 -190.77463 -11.079681
-18.714886 -190.73564 -11.279232
-17.402748 -190.79312 -11.269919
-16.20153 -190.76254 -11.580328
-16.962854 -190.70078 -12.220418
-17.673098 -190.77736 -15.401447
8.0997076 -190.46303 -3.992708
6.718699 -190.57954 -4.249671
2.681478 -190.58859 -6.2090459
-19.616016 -190.57309 -11.281285
-18.624989 -190.56821 -16.284256
-18.257694 -190.5874 -16.203297
-6.263988 -190.50557 -19.571426
6.731288 -190.22191 -4.2377958
-4.7195282 -190.39075 -19.372158
-6.673677 -190.19368 -19.686489
6.6928058 -189.87547 -4.5079989
6.8182182 -189.90167 -7.615591
6.7647781 -189.84749 -11.382273
6.7130241 -189.64252 -4.570334
6.6964612 -189.71359 -7.723011
6.8401341 -189.74182 -12.75878
17.981541 -189.59532 -3.989727
17.595884 -189.41725 -4.9905591
-10.838751 -189.48357 -7.264142
6.7203512 -189.54953 -7.6567631
6.7462749 -189.46133 -8.0697327
12.840034 -189.24265 -4.777884
17.780136 -189.25656 -4.9877882
15.307708 -188.82806 -4.1363158
13.142057 -188.93536 -5.176199
18.249851 -188.9702 -5.3787818
6.8039432 -188.98161 -6.5876369
6.9032922 -188.95941 -13.778749
17.985973 -188.6848 -4.3904481
6.7492328 -188.6539 -5.8957529
6.798306 -188.68379 -7.705822
13.074492 -188.38039 -4.6049151
15.378832 -188.25391 -4.63936
6.7774749 -187.90839 -6.1509271
-10.412899 -187.92938 -7.5550489
6.8782949 -187.35754 -5.0292239
6.8564639 -187.0273 -4.5263662
6.785809 -186.80287 -4.394794
6.9035478 -186.93987 -6.5684972
6.9711342 -186.94753 -12.630465
6.9186311 -186.67165 -4.3605061
17.806179 -186.48232 -3.8867199
17.656416 -186.34126 -3.998136
7.0066061 -186.34766 -7.8241768
13.424449 -185.66896 -7.9051042
11.824266 -185.42688 -12.319427
12.894588 -185.48875 -12.243462
13.125099 -185.22153 -3.8199129
6.9377422 -185.30467 -4.5462842
6.9633341 -185.3717 -5.3737769
9.7507839 -185.32507 -12.302544
13.696264 -184.91512 -4.5222979
11.172691 -184.92172 -4.8180261
9.3378897 -184.90489 -5.5482478
9.5197859 -184.93584 -5.48768
12.121609 -184.85165 -8.230978
11.38262 -184.90158 -9.9441681
13.074732 -184.94489 -9.9837828
9.8429394 -184.77214 -4.243865
8.3257294 -184.62601 -5.23212
7.392849 -184.70851 -5.4185162
9.4793606 -184.72212 -8.3049698
8.5704803 -184.67725 -8.5675545
12.937851 -184.76517 -8.6593227
7.4677181 -184.62242 -9.3936996
12.811207 -184.78624 -9.6015129
9.0437174 -184.63959 -9.8039064
12.70527 -184.68597 -11.317812
11.380363 -184.68813 -12.587134
7.0812068 -184.7101 -13.074755
12.922641 -184.69603 -13.515312
12.547102 -184.72382 -13.783234
12.949505 -184.69012 -13.909204
8.48277 -184.49457 -9.4180984
8.6667604 -184.52226 -9.5005531
9.7542877 -184.56482 -9.4859333
10.502077 -184.58171 -9.4896984
8.5890245 -184.54787 -12.170386
8.9799061 -184.5675 -12.541121
9.3777218 -184.53601 -12.990499
8.1213074 -184.51454 -13.026655
11.416485 -184.48331 -13.810001
12.177227 -184.59798 -16.667282
7.016468 -184.27405 -10.926682
13.303331 -183.81442 -8.5571814
5.5600619 -183.95221 -15.23864
13.002544 -183.43503 -12.525987
12.785225 -183.03641 -9.6409302
19.413071 -182.4623 -7.5904799
19.685719 -182.48257 -7.7525549
15.301882 -182.2775 -7.6896791
15.52862 -182.29947 -7.7517262
13.618747 -182.38788 -8.3807278
17.811916 -182.28928 -11.937971
18.620087 -182.1102 -12.11974
19.32444 -182.1447 -12.101069
12.664227 -181.99252 -9.2784109
15.812451 -181.67229 -4.6807408
15.005747 -181.63919 -4.98422
15.873491 -181.67706 -4.9168401
15.752207 -181.72482 -5.4508152
15.020901 -181.62463 -5.786427
19.02499 -181.7908 -5.814847
13.582483 -181.61766 -6.1354871
13.695416 -181.65907 -6.332365
16.285486 -181.64215 -6.3196239
16.529129 -181.6571 -6.2371378
18.695057 -181.74799 -6.292882
6.365757 -181.71185 -6.7629342
17.013126 -181.61337 -7.366919
14.832878 -181.6526 -7.818563
17.428753 -181.62785 -8.0107164
19.075176 -181.68597 -8.7766819
17.792976 -181.62131 -9.0975933
17.792948 -181.644 -9.6507931
18.373861 -181.62163 -11.887514
19.92412 -181.6044 -13.564825
11.981688 -181.52588 -4.7738652
12.445503 -181.5463 -5.0585279
17.839542 -181.48244 -5.5313339
17.458603 -181.46036 -5.7570539
12.260557 -181.50098 -6.1732278
12.938826 -181.48584 -7.1824861
15.474632 -181.5856 -7.0498381
14.923498 -181.43463 -7.690474
15.412546 -181.58514 -7.7039328
13.47327 -181.50017 -8.0248175
14.548915 -181.51559 -8.3424501
15.836823 -181.56 -8.6604271
15.80539 -181.53226 -9.0891857
15.818701 -181.53589 -9.3357992
16.238354 -181.52277 -9.7566032
16.809998 -181.57346 -9.6593542
13.334461 -181.47272 -9.9124584
16.984348 -181.5267 -11.91436
15.638022 -181.40393 -12.679374
19.45579 -181.5515 -12.641365
17.329924 -181.4866 -13.01487
17.794256 -181.49582 -13.050932
19.78137 -181.58517 -13.036871
17.357393 -181.46048 -13.437696
18.970644 -181.54141 -13.459041
18.555878 -181.50992 -13.760427
19.579914 -181.4864 -14.725249
19.678333 -181.47775 -14.95266
8.6536541 -181.32126 -6.081852
14.563538 -181.30531 -6.1693978
8.6563625 -181.26822 -6.5510259
10.204767 -181.39311 -6.6065941
7.8553219 -181.25989 -6.9250088
14.142435 -181.24966 -7.093801
9.8219051 -181.34978 -7.3728232
10.185076 -181.35959 -7.3791442
7.7507811 -181.24036 -7.7576418
13.763481 -181.35889 -7.6806121
8.5264978 -181.24814 -7.8422132
14.253498 -181.38794 -11.363933
15.748512 -181.39746 -13.103436
17.396524 -181.35358 -17.795048
10.620105 -181.13605 -7.5600519
14.716573 -180.95836 -14.67105
14.77865 -180.70312 -14.586159
18.214991 -180.76648 -14.861099
6.9799919 -180.2393 -11.31249
3.8605821 -180.30887 -11.693251
-15.42462 -199.81041 -5.0670209
-19.122061 -199.91315 -6.4293079
6.4400988 -199.97002 -6.8614092
8.5333824 -199.93936 -6.8308158
9.5713234 -199.8371 -6.8500428
4.2955899 -199.90492 -7.3466868
1.86239 -199.89804 -9.1052818
10.190853 -199.96526 -9.6160851
9.936306 -199.91034 -10.922234
8.6907158 -199.81512 -11.357695
4.6205182 -199.97116 -11.606615
3.5856881 -199.86609 -13.248152
1.369885 -199.71768 -4.4554701
9.1430264 -199.71912 -4.4928088
-18.89233 -199.65955 -4.7896409
-19.288177 -199.73274 -4.93015
-16.190052 -199.65652 -4.9934001
-19.340023 -199.77565 -6.1647139
-15.873523 -199.78247 -6.2249761
10.091202 -199.63388 -6.8317518
11.303269 -199.61505 -7.9683952
9.0917625 -199.63393 -8.0793781
2.8273561 -199.75806 -11.311337
4.0262151 -199.66986 -12.178213
10.225116 -199.48499 -4.4057431
-15.454993 -199.44269 -5.180162
4.7402501 -199.48001 -6.8825932
9.3276901 -199.4574 -9.9286671
11.078087 -199.58717 -10.340456
2.7043719 -199.55714 -16.876595
-14.982658 -199.39722 -4.8119192
6.229053 -199.24738 -5.3643599
-16.223335 -199.37048 -5.7909198
10.049654 -199.30923 -9.7063026
4.2121038 -199.36638 -12.07701
-15.450642 -199.05695 -5.762825
7.7851748 -199.10306 -5.7121472
-16.221077 -199.11584 -5.9138942
5.021656 -199.00919 -6.8812079
9.385561 -199.09375 -9.0883694
9.2987309 -199.00772 -9.239192
1.493513 -199.0589 -9.4158564
5.4704919 -199.1313 -9.5063105
-3.1640899 -198.93314 -4.5846238
12.584337 -198.9679 -4.4423151
7.3170128 -198.8399 -5.1807079
2.634531 -198.82172 -11.296818
10.619954 -198.8521 -12.443864
4.2085652 -198.81084 -12.83702
4.9936562 -198.60031 -7.78582
11.664026 -198.4191 -4.3645291
15.794191 -198.52388 -4.309288
10.566875 -198.55876 -6.7450891
5.5934849 -198.53934 -7.81212
4.532383 -198.5145 -9.1736202
12.692511 -198.39124 -4.6267891
10.731819 -198.24004 -6.8125429
5.5666871 -198.3363 -11.181799
4.51543 -198.25446 -12.015443
16.79377 -198.10738 -4.2571812
5.7050591 -198.14841 -7.450263
10.888378 -198.1239 -8.6824837
4.9887381 -198.0923 -11.257232
14.792641 -197.974 -4.342937
10.317039 -197.82092 -9.3649139
10.763533 -197.76974 -12.181198
5.4990191 -197.55179 -8.2394018
11.045088 -197.41748 -8.7914524
10.560108 -197.4117 -11.106256
9.5541 -197.45454 -12.388779
15.315676 -197.21619 -4.3115358
0.34659901 -197.30927 -5.2091451
5.6799741 -197.3909 -7.7780132
0.46600699 -197.01512 -5.311317
-11.876659 -197.17776 -5.7148361
-11.614464 -197.14818 -6.5399098
9.1387491 -197.07571 -6.6088128
5.6892929 -197.01826 -7.8338742
-0.045162 -196.96603 -5.1893988
-9.8233738 -196.99545 -5.5130191
1.2401071 -196.82373 -6.1204338
-4.8372712 -196.84207 -6.9617462
-11.468091 -196.62238 -5.4083109
-8.9311047 -196.65891 -5.8984051
-0.29244301 -196.6467 -6.2582951
-14.629389 -196.67903 -6.6693139
3.820106 -196.65512 -8.2486715
-10.609962 -196.44266 -4.6091542
4.1218138 -196.49655 -4.7304721
0.54741901 -196.4601 -5.7369838
-5.2824011 -196.54744 -5.9274712
-0.854725 -196.53581 -6.628787
10.748512 -196.40224 -12.19488
-2.9895899 -196.25238 -4.360765
19.591951 -196.26498 -4.2178912
-7.121613 -196.2589 -4.4875679
-10.895198 -196.22636 -4.7013659
4.5808668 -196.26007 -4.766067
0.150995 -196.29149 -5.1058011
0.24827699 -196.24509 -5.4402032
1.31286 -196.04929 -5.1450849
-8.7286701 -196.11571 -5.809495
-8.1518822 -196.06053 -5.8853068
-4.9472942 -196.0619 -5.887022
7.5926828 -196.13654 -11.559891
5.9111562 -196.05934 -12.057491
-6.380909 -195.8623 -4.4902101
-0.12262 -195.80304 -4.560153
4.1214561 -195.98845 -4.403461
-4.8630972 -195.95801 -4.9744821
-4.5885811 -195.9433 -5.0077929
-8.111702 -195.83658 -5.3203859
-13.300718 -195.91183 -5.4621382
-8.1249828 -195.90744 -5.871088
-4.1842241 -195.81938 -6.0367699
-3.5765171 -195.82547 -6.0809979
-16.932022 -195.90717 -6.325253
-9.9531317 -195.86249 -6.2156682
-11.295843 -195.80064 -6.4876418
3.131283 -195.83415 -8.9872913
3.280653 -195.80553 -8.8995342
3.8641119 -195.74637 -4.7250009
-16.936958 -195.67706 -5.6786218
-9.6282482 -195.74947 -5.7979941
-11.791299 -195.78026 -6.2234511
-10.477164 -195.75919 -6.516685
-10.30437 -195.77428 -6.500175
4.8635888 -195.7081 -7.5708818
1.047714 -195.50609 -4.6792722
-19.598373 -195.46631 -5.32022
-16.095173 -195.5042 -5.9244361
-17.517021 -195.53889 -6.4178562
-3.7780671 -195.2038 -5.397727
-17.290936 -195.22264 -5.510211
-0.46116799 -195.39598 -5.5537281
1.030145 -195.23172 -7.0698152
-16.401045 -195.03925 -4.704073
-10.215312 -195.1405 -6.3786302
-17.139042 -194.99823 -5.3513489
9.5307493 -194.63779 -4.2466698
5.7293978 -194.73782 -4.6785851
1.715138 -194.65741 -6.0861969
-16.523582 -194.62799 -6.6381912
-5.047349 -194.6019 -7.0901852
12.387161 -194.44147 -4.165688
-15.410137 -194.56842 -6.4682188
-6.2521272 -194.07927 -4.4712481
1.4890569 -194.19749 -4.7840819
8.7829628 -193.91711 -4.271976
11.96054 -193.66891 -4.640883
12.248698 -193.53239 -4.7470751
-4.5908279 -193.5914 -6.0961552
12.020629 -193.0433 -5.029644
4.4327931 -192.83267 -7.6046581
-3.735821 -192.66653 -8.2900229
-1.836354 -192.6022 -12.61706
4.7140999 -192.40594 -4.6226468
5.8757758 -192.44041 -5.2912078
-1.3953151 -192.56055 -6.273416
5.4185162 -192.42526 -6.291985
4.5142608 -192.47595 -6.5665398
6.5081229 -192.54858 -7.9038801
-6.6896362 -192.53024 -9.0945911
-2.97631 -192.56186 -12.629871
2.929739 -192.5665 -13.46666
6.6341238 -192.20898 -4.578362
2.072504 -192.23352 -4.8992162
3.8334451 -192.35892 -4.8466969
5.042356 -192.36938 -4.975996
2.698503 -192.31699 -5.8914328
6.3189459 -192.36652 -6.1418929
6.0957408 -192.36362 -6.367949
-4.3587689 -192.32164 -6.6640992
5.358161 -192.32693 -7.65587
-14.573429 -192.21912 -8.3599033
-10.670192 -192.29053 -8.4669418
4.9230828 -192.29263 -8.56252
4.9941678 -192.28853 -8.9898767
4.9760218 -192.20502 -12.708851
6.5045428 -192.25989 -12.796447
5.4453282 -192.20291 -12.883635
6.6831021 -192.21806 -13.701486
5.8416562 -192.2274 -16.178249
-8.1258068 -192.21126 -16.83691
-4.2281532 -192.01274 -4.306777
6.5771999 -192.09424 -4.5024872
-0.89747602 -192.15533 -4.6471891
-3.7527671 -192.04617 -4.903266
-2.9335351 -192.07294 -4.9174819
-4.068819 -192.0049 -5.4359312
-0.124872 -192.15271 -5.4683189
0.256118 -192.19923 -5.7690859
-3.0323701 -192.06384 -5.887094
-2.2539101 -192.14853 -5.9590821
6.6248822 -192.19501 -5.845386
-0.47072801 -192.11391 -7.0105238
0.061962001 -192.11578 -7.1443391
-0.099422 -192.1004 -7.2986269
0.96641201 -192.15448 -8.3396206
1.708136 -192.15891 -8.2186527
-16.281361 -192.11392 -8.5689325
2.1715729 -192.14127 -8.5775433
2.9610479 -192.19449 -8.59869
-17.372133 -192.05042 -8.6105833
-2.501009 -192.13837 -8.6329918
-12.201447 -192.05708 -8.8084087
-5.1773152 -192.09679 -9.5005341
0.94439799 -192.10832 -9.4202747
-0.17497399 -192.05411 -9.9005308
4.4925418 -192.17383 -9.9145679
-2.877713 -192.00708 -10.280107
-2.452996 -192.05199 -10.317434
6.0839462 -192.19989 -10.499936
-0.69458801 -192.17828 -11.780479
3.0521109 -192.09624 -11.746993
1.134006 -192.02257 -12.307907
2.2027359 -192.04968 -12.265013
3.7945459 -192.1087 -12.331188
-1.499823 -192.0396 -12.588135
-15.157755 -192.02924 -12.763777
-13.065305 -192.07068 -12.743833
-0.64604002 -192.18561 -12.698019
-5.3306251 -192.17859 -13.08729
-5.1230731 -192.1777 -13.49406
3.8060219 -192.15257 -13.492744
3.3242941 -192.06989 -13.912048
-13.425277 -192.01144 -16.945652
-9.5406113 -192.15459 -16.946396
6.9264688 -192.17772 -16.931103
4.7719922 -192.04718 -18.274651
5.0961761 -192.04419 -18.240988
5.542881 -192.01418 -18.227318
5.990253 -192.11807 -18.465961
-9.3633833 -191.82468 -4.3305221
-9.103569 -191.8215 -4.3226719
-6.100945 -191.9604 -4.3852181
-19.222229 -191.84804 -5.1294799
-18.44194 -191.89195 -5.1249428
-4.3539681 -191.97058 -5.1296258
-3.068516 -191.97733 -5.0506802
-4.2396159 -191.96324 -5.3516169
-3.975162 -191.97751 -5.3629608
-8.4992924 -191.81694 -5.7391429
-9.0514803 -191.87578 -6.5365872
-14.314341 -191.94832 -6.6834168
-4.1304898 -191.95082 -6.6811271
-1.7475621 -191.84128 -6.6944141
3.3824461 -191.99422 -6.6650071
-4.3379922 -191.88225 -6.9284272
-0.051897999 -191.89204 -7.0479298
-3.3754549 -191.84528 -7.3094091
-0.039161999 -191.98276 -7.2910452
-6.7212481 -191.80843 -7.5300341
-5.1049519 -191.84076 -7.9486508
-19.558985 -191.90784 -8.5752802
-17.057205 -191.91193 -8.58887
-15.912256 -191.99899 -8.631464
-15.307404 -191.91248 -8.702055
-10.935801 -191.82562 -8.6935101
-6.9769788 -191.80595 -8.6250792
-6.2433138 -191.82275 -8.6262941
-5.7852259 -191.8575 -8.6518965
-5.509305 -191.81686 -9.0968904
-4.172195 -191.8573 -9.3198357
-3.0870941 -191.91908 -9.509655
-3.741487 -191.87387 -9.8322086
-1.410373 -191.99478 -10.126575
-17.325699 -191.9035 -10.393136
-0.75556701 -191.96954 -10.398207
-18.527054 -191.80295 -10.477984
-16.953232 -191.92264 -10.493636
0.84524298 -191.90399 -10.487161
0.93177402 -191.80811 -11.136312
1.269653 -191.98161 -11.167982
-17.193371 -191.99448 -12.658503
0.86471897 -191.97073 -12.97171
-0.495922 -191.92964 -13.485311
-2.665334 -191.80746 -13.931091
-2.1768579 -191.80597 -14.099966
-1.730927 -191.89043 -14.107168
-0.67714101 -191.82663 -14.172713
-14.037064 -191.87436 -14.23
-13.159218 -191.93266 -14.313809
2.9000471 -191.89355 -16.168728
-15.018636 -191.94136 -16.963867
-13.587015 -191.81766 -16.935028
-1.045547 -191.83765 -17.234833
-1.424353 -191.83337 -17.471504
-9.2116776 -191.84421 -17.766417
-0.73658001 -191.87973 -17.664986
-11.796741 -191.71896 -4.3826032
-13.38402 -191.63177 -4.9218078
-9.0600357 -191.78378 -5.1164579
-8.644166 -191.78883 -5.0938559
-13.389168 -191.63547 -5.966383
-10.197845 -191.72748 -5.8644819
-9.3542366 -191.7695 -6.1729231
-11.757309 -191.68266 -6.3146992
-10.468973 -191.67575 -6.3098159
-10.147247 -191.71149 -6.2573328
6.5790329 -191.75836 -6.522388
-11.308172 -191.64873 -6.6708651
-2.1393361 -191.7635 -6.7314062
-10.23084 -191.69052 -6.875246
-11.735204 -191.64734 -7.1500788
0.91289097 -191.75998 -7.1625171
-10.591919 -191.62476 -7.296258
-9.9776897 -191.66245 -7.2561688
-3.37326 -191.78787 -7.3114052
-13.47472 -191.61333 -7.6839738
-10.475704 -191.64407 -7.7464399
-8.4554901 -191.67358 -7.7630191
6.6298938 -191.646 -7.7771029
-14.824875 -191.74527 -7.9518909
-8.2821159 -191.73541 -7.934495
-8.0699406 -191.76282 -7.9882102
-7.0095978 -191.79681 -7.8906622
-5.3788948 -191.65936 -7.826889
0.64178699 -191.6969 -7.8606982
1.3563221 -191.77116 -7.9032121
-11.273197 -191.61661 -8.0510712
-6.7899952 -191.79016 -8.1606178
-15.843343 -191.79568 -8.6611977
-13.39537 -191.62048 -8.6971493
-12.81192 -191.62321 -8.7616701
-12.378639 -191.63467 -8.7742996
-9.7689552 -191.65024 -8.7381725
-8.1357994 -191.7124 -8.6701279
-7.742425 -191.79251 -8.6392126
-10.281075 -191.6532 -8.9914532
-17.0681 -191.61781 -9.0230608
-14.884148 -191.68881 -9.1076126
-9.347847 -191.6521 -9.0088263
-9.104105 -191.65332 -9.0038013
-15.231636 -191.75578 -9.3154755
-11.730499 -191.61694 -9.212285
-7.0104332 -191.76213 -9.4979057
-15.039597 -191.74887 -9.7531176
-14.61441 -191.77759 -9.7717485
-18.587708 -191.67557 -9.9146729
-17.084766 -191.70633 -9.8294373
-12.159752 -191.61914 -10.174378
-18.764732 -191.72092 -10.312307
-9.8544245 -191.72589 -10.421911
-7.407342 -191.65042 -11.734051
-19.31316 -191.6123 -13.353683
-14.467392 -191.72781 -13.430378
-3.8377531 -191.78279 -13.425773
-14.0634 -191.65553 -13.789818
-6.1847429 -191.65509 -13.781789
-12.233871 -191.72003 -13.958443
-6.106493 -191.64107 -14.101434
-8.2903938 -191.7229 -14.633709
0.98070902 -191.65404 -15.272606
-12.846416 -191.61348 -16.956196
-6.2035332 -191.64507 -16.983212
-12.480484 -191.70667 -17.354328
-4.190556 -191.67615 -17.367176
-3.7470641 -191.70193 -17.39893
-3.3986349 -191.76904 -17.398272
-2.932646 -191.72446 -17.73568
-6.4137568 -191.60248 -18.236589
-17.376991 -191.47456 -5.1176648
-19.003471 -191.40042 -5.3667612
-15.56753 -191.48634 -5.5988011
-12.874853 -191.5555 -5.864707
-15.072296 -191.50803 -6.561295
-8.5541077 -191.48634 -6.6961408
-8.4757328 -191.48419 -6.944838
-5.8415098 -191.49689 -6.911489
-3.25699 -191.53882 -7.1133151
-13.400299 -191.53339 -7.2506962
-11.894958 -191.45921 -7.3348012
-11.13308 -191.59538 -7.2749858
-8.5998573 -191.42946 -7.3868861
-6.4490471 -191.42709 -7.9435601
-5.435276 -191.48166 -7.9222512
6.6063962 -191.50912 -7.8949199
-15.108549 -191.43637 -8.1248598
-13.387591 -191.4801 -8.3030396
-15.858685 -191.40286 -8.7337799
-15.134215 -191.43271 -8.6936588
-14.721357 -191.45883 -8.7341576
-12.210074 -191.50513 -8.6959248
-13.711548 -191.43082 -9.4740915
-12.26218 -191.5405 -9.4607105
-10.726102 -191.58923 -9.7142677
-8.6633492 -191.59656 -9.7199221
-13.050417 -191.46281 -10.168261
-12.162976 -191.52306 -10.129156
-11.368567 -191.52707 -10.242241
-4.3274961 -191.53391 -10.397365
-2.737638 -191.51215 -10.548839
0.629893 -191.51704 -10.580934
-4.6890788 -191.40556 -10.91417
-10.701683 -191.4026 -11.003178
-10.91589 -191.52866 -11.209991
-7.4773712 -191.57269 -12.314512
-4.3189659 -191.45825 -12.535762
-2.582478 -191.44763 -12.450453
-9.5048075 -191.56384 -12.868532
-13.006777 -191.49309 -13.10239
-10.514654 -191.49062 -13.481467
-8.1935177 -191.56683 -13.715368
-7.0447769 -191.58221 -13.862765
-8.167738 -191.56787 -14.326515
-7.7722549 -191.58553 -14.290812
-19.583954 -191.5377 -14.736423
-13.031634 -191.42583 -14.628469
-10.570625 -191.55049 -14.667755
-3.690969 -191.4321 -14.939618
-13.855064 -191.42004 -16.082016
-16.015926 -191.48326 -16.934387
-10.331039 -191.55956 -16.863188
-6.1826291 -191.51468 -16.989609
-9.7828445 -191.47031 -17.392994
-10.885823 -191.4216 -17.732185
-9.0299416 -191.52155 -17.912701
-9.8935518 -191.41148 -18.25281
-8.8920565 -191.47772 -18.329435
-6.747386 -191.58102 -18.217142
-14.95351 -191.5125 -18.76708
-11.356689 -191.46075 -18.710651
-6.6092172 -191.51724 -18.626259
-19.462925 -191.36935 -4.6391168
-19.833729 -191.31346 -5.323843
-18.95373 -191.33328 -5.9217558
-9.8483467 -191.28464 -6.3556719
4.4054322 -191.27789 -6.6828871
-18.543005 -191.34636 -6.9312868
-18.03026 -191.3381 -6.844595
-12.056279 -191.23648 -7.3274779
-9.8318472 -191.34509 -7.2244968
-16.707497 -191.36279 -7.8318148
-17.800959 -191.33105 -8.0928345
-17.029709 -191.36023 -8.1124411
-18.216726 -191.37627 -8.8826904
-17.213627 -191.35075 -9.5098267
-17.750813 -191.26842 -9.855073
-17.058937 -191.32599 -10.186443
-19.358477 -191.21564 -10.229889
-16.313541 -191.37909 -10.593345
-1.401898 -191.36807 -10.448765
-5.813005 -191.27553 -10.929794
-5.5204902 -191.35394 -10.951553
-4.586832 -191.39516 -10.915403
-7.7224722 -191.3909 -11.332472
-5.4951739 -191.34344 -11.255184
-14.409878 -191.20132 -11.422466
-4.4506421 -191.30807 -12.521403
-13.889748 -191.39247 -13.06715
6.750195 -191.2366 -13.0215
-16.688452 -191.3696 -13.45327
-15.382406 -191.267 -13.425854
-15.349663 -191.28482 -13.839624
-19.48658 -191.36269 -14.087637
-4.288487 -191.36884 -14.990879
-4.6002421 -191.28928 -15.443192
-13.970558 -191.24237 -15.947363
-10.838461 -191.34863 -15.890568
-5.4256558 -191.29031 -15.921141
-17.379906 -191.28662 -16.063784
-13.835629 -191.38132 -17.468739
-12.179981 -191.33868 -17.439972
-14.467943 -191.28854 -17.690495
-12.608883 -191.32022 -17.856039
-11.04347 -191.3768 -18.120983
-10.225256 -191.37561 -18.46748
-12.603207 -191.25565 -18.646418
6.6599622 -191.10434 -4.5360489
6.727715 -191.07852 -5.5096002
-18.577805 -191.0683 -6.9576702
-15.135147 -191.02483 -7.6101618
-18.677687 -191.05193 -8.4621677
6.7116661 -191.02696 -9.7094288
-19.329084 -191.18512 -9.8133326
-13.392633 -191.13745 -10.784047
-6.6677241 -191.14133 -10.660268
-6.2036152 -191.08484 -11.110311
-7.441339 -191.18259 -11.616886
-17.356918 -191.13591 -11.967016
-17.382263 -191.18909 -12.062708
-6.7727528 -191.10373 -12.144094
-7.1062412 -191.06787 -12.255981
-6.624609 -191.05278 -12.29099
-7.2631621 -191.11449 -12.428417
-16.994076 -191.18561 -13.267935
-17.066681 -191.1792 -14.302074
-16.661097 -191.17709 -14.270618
-16.174227 -191.18518 -14.365705
-10.981044 -191.1051 -14.981016
-9.4033413 -191.10027 -15.083176
-15.476524 -191.0412 -15.674839
-10.834408 -191.02026 -15.802946
-9.0130806 -191.00812 -16.440405
-7.5436778 -191.07886 -16.637733
-18.816082 -191.05475 -17.323105
-17.975365 -191.1178 -18.323818
-17.446243 -191.0614 -18.642601
-19.897175 -190.95078 -6.8971958
-19.473145 -190.94186 -7.406559
-15.84977 -190.99158 -7.5237041
-19.360439 -190.87915 -8.258894
-18.962843 -190.95105 -8.2679701
-12.216887 -190.8103 -11.04228
-13.290476 -190.91061 -11.303652
-12.374447 -190.98059 -11.320524
-14.218031 -190.99748 -11.500228
-9.8161774 -190.97006 -11.434235
-14.844209 -190.85892 -11.992052
-13.386972 -190.88516 -12.179777
-12.043633 -190.92972 -12.294106
-13.332176 -190.8334 -16.288378
-18.710487 -190.99861 -18.550684
6.7193112 -190.65897 -5.8686829
6.7155662 -190.61406 -7.7104049
-17.164028 -190.71429 -10.715085
-19.272449 -190.66516 -11.10533
-13.720034 -190.74954 -11.124393
-13.880382 -190.71155 -11.276602
-17.208078 -190.71539 -11.851116
-16.357582 -190.75569 -11.978754
-19.096672 -190.64581 -12.037997
-13.583694 -190.78789 -16.921604
-3.9315641 -190.64847 -19.308941
6.8148861 -190.33591 -5.626462
6.8350258 -190.3645 -9.1602612
12.888103 -190.13005 -4.6314301
12.602551 -190.11572 -5.2090158
6.7190351 -190.14629 -5.9655371
6.6092072 -190.14821 -14.783485
17.936687 -189.71439 -4.967484
6.7519732 -189.78241 -5.9151621
18.139715 -189.41727 -5.0212021
18.358791 -189.24826 -4.6282172
6.728363 -189.14645 -4.2867012
19.601068 -189.04802 -4.227632
6.8205662 -189.03194 -4.672996
12.93161 -189.1161 -5.13625
3.730864 -189.16902 -6.0179801
18.569399 -188.97499 -5.009779
12.319337 -188.88547 -5.2155709
12.636927 -188.73584 -5.2686639
6.889524 -188.75499 -8.0144091
12.597366 -188.4437 -4.215682
6.8736758 -188.51913 -8.0233126
12.703924 -188.3869 -4.2471919
6.7291222 -188.22084 -4.8270941
6.779068 -188.29503 -6.0911369
6.8438911 -188.20023 -6.139616
6.8580999 -188.13995 -9.3293018
6.9310269 -188.10497 -13.960575
6.7905202 -187.46838 -6.149734
6.7868729 -187.48709 -9.5099363
6.788157 -187.02548 -4.511621
6.9542222 -187.04974 -12.918085
6.9644332 -186.95627 -9.2954903
19.052628 -186.61205 -3.9401979
6.9889069 -186.64864 -9.309433
16.51931 -186.48907 -3.94771
17.479481 -186.57024 -3.918761
5.445179 -186.52762 -15.144148
7.446033 -186.25705 -3.9599631
6.8581891 -186.31197 -13.261553
7.0128641 -186.2469 -14.09329
7.0147491 -185.84029 -13.080914
10.833754 -185.7674 -3.9742329
6.9425511 -185.216 -13.294022
12.928055 -185.02252 -3.950032
13.043085 -185.1376 -12.114618
13.52902 -184.96292 -3.8649831
11.482325 -184.93939 -4.1397681
11.813393 -184.94714 -4.6399498
6.9496469 -184.90881 -7.5553122
8.9908066 -184.81793 -9.9686069
10.675827 -184.85004 -9.9411793
11.938631 -184.80222 -14.086389
14.140006 -184.67947 -3.853771
8.5044031 -184.77802 -4.3246298
7.7764702 -184.75259 -4.6934671
9.7419186 -184.7406 -4.898726
13.505101 -184.66158 -5.0511451
10.651405 -184.61102 -5.6192508
7.091711 -184.73083 -5.8668299
8.3106775 -184.6879 -8.2775612
10.543656 -184.75923 -8.9819136
12.901357 -184.68198 -9.0666351
12.461304 -184.78809 -9.2129402
12.893093 -184.69017 -10.533472
12.733007 -184.71402 -11.637333
12.864513 -184.56009 -9.3752527
7.0206838 -184.5928 -11.45805
3.6425991 -184.20215 -7.2077322
7.0742841 -184.29683 -7.5986218
8.7768822 -184.36624 -9.5087757
12.924915 -184.32718 -12.772651
9.4281311 -184.38596 -13.838447
8.861824 -184.36797 -14.062113
18.049465 -184.01422 -4.9723492
18.038179 -183.8903 -5.1196589
13.172919 -183.81902 -8.4980564
6.4326401 -183.02769 -7.8960538
-19.849726 -183.1973 -8.4901924
12.828041 -183.14026 -9.1441221
-11.075442 -182.95685 -11.804577
18.169796 -182.40675 -7.6241002
6.4599042 -182.55423 -7.886024
17.875841 -182.29648 -7.7280102
19.158733 -182.24228 -7.8584671
14.661482 -182.10739 -12.164834
16.181503 -182.14168 -12.122103
16.897034 -182.18851 -12.116907
19.035599 -181.82124 -4.3309212
18.218065 -181.80925 -5.4690361
15.789222 -181.89178 -12.280388
16.470938 -181.85339 -12.354356
13.127077 -181.87221 -13.265957
12.958727 -181.85126 -13.846922
13.8315 -181.62123 -4.2529731
18.208706 -181.78207 -4.201746
15.277201 -181.65622 -4.6771641
18.329906 -181.76183 -5.0179372
18.616531 -181.78127 -5.0078578
15.326787 -181.69838 -5.391284
17.372499 -181.77563 -5.4689879
19.134373 -181.76566 -5.7654948
15.621613 -181.63335 -6.091094
16.307009 -181.64839 -6.0735822
18.66774 -181.74765 -6.070281
18.692074 -181.73579 -6.5122499
19.8393 -181.74432 -7.4787979
14.940993 -181.70682 -8.0569954
17.491905 -181.62482 -8.7042923
18.972021 -181.6814 -8.9137974
19.43911 -181.70615 -8.8865337
16.533386 -181.65869 -9.689949
19.563519 -181.61856 -10.266415
14.248886 -181.55949 -4.6155729
10.58658 -181.41971 -5.9724488
18.30117 -181.45151 -6.3066931
17.485474 -181.40735 -6.484479
12.268148 -181.47308 -6.6887422
12.972125 -181.49451 -6.6265569
13.71791 -181.52917 -6.9971428
18.614613 -181.431 -6.870913
15.536259 -181.59474 -7.2238178
6.2399979 -181.42294 -7.7171168
14.280479 -181.48447 -8.6875057
13.340752 -181.43222 -9.0409431
14.255895 -181.46613 -9.3397474
15.38698 -181.52464 -9.3513708
18.164856 -181.58096 -9.2947712
14.991032 -181.54034 -9.6454754
13.126892 -181.50072 -9.8475962
13.763272 -181.45149 -10.205087
16.207539 -181.45691 -10.222712
13.370401 -181.41254 -10.565541
14.32983 -181.44353 -10.771289
16.859894 -181.47807 -12.392117
16.237045 -181.42108 -13.295525
19.373074 -181.55609 -13.483918
17.629271 -181.5891 -14.07738
9.1035805 -181.33572 -5.799583
14.901833 -181.34827 -5.8690519
9.7588358 -181.37057 -6.1681519
17.862495 -181.39917 -6.1626492
14.928436 -181.35751 -6.2165751
8.2213402 -181.28688 -6.7046728
6.9577899 -181.22145 -7.5990191
10.542183 -181.35747 -7.659286
13.961758 -181.28149 -7.645813
13.767841 -181.33215 -12.263777
16.367523 -181.35521 -14.559486
16.28529 -181.33249 -14.638337
13.866116 -181.14108 -7.5494819
14.555321 -181.04506 -14.894017
15.692326 -180.80579 -14.173022
15.323533 -180.95978 -14.399742
18.020206 -180.96831 -14.371942
18.573347 -180.90025 -14.29998
19.965092 -180.91936 -14.388609
18.141811 -180.94048 -14.560175
16.1675 -180.9684 -14.618958
18.119587 -180.95306 -14.902092
4.1424599 -180.42453 -11.696939
6.6778512 -180.43904 -12.528189
4.9343019 -180.35927 -11.769753
7.1521449 -180.03752 -11.094534
18.724323 -199.91342 -4.388474
17.334238 -199.8177 -4.9679661
8.8667946 -199.96835 -5.2337542
-19.236311 -199.87642 -5.7546129
8.36761 -199.93326 -5.7270608
17.371431 -199.93988 -5.8497829
1.683695 -199.92142 -10.363049
17.226582 -199.76607 -4.5380459
-15.923996 -199.70518 -5.8265319
-18.905655 -199.71536 -6.1561222
10.452673 -199.67786 -7.4444208
10.726618 -199.76782 -10.345745
-19.224054 -199.56131 -5.0111222
-15.357303 -199.44424 -5.4941478
4.632782 -199.53809 -7.355907
6.2504091 -199.58025 -7.4296179
10.990269 -199.45508 -8.0573158
8.9566622 -199.44138 -8.2293606
1.654386 -199.50238 -10.173368
18.832527 -199.33139 -4.357626
-18.907455 -199.34766 -4.8732929
6.2494769 -199.2368 -9.1734276
-17.816149 -199.00308 -4.7841082
5.619556 -199.11499 -4.618577
11.316484 -199.16537 -7.912024
10.944103 -199.00461 -11.420069
4.5653038 -199.17836 -12.652293
10.910485 -198.86966 -6.7129512
7.8940468 -198.85777 -8.6943836
11.152683 -198.89233 -11.120521
-10.129642 -198.7905 -4.6051869
12.383971 -198.60303 -4.9030108
11.793501 -198.68585 -5.1433911
10.74457 -198.65883 -8.3495407
5.763927 -198.44772 -7.4729948
10.739595 -198.5479 -7.4843702
4.952754 -198.42484 -9.1635628
9.0499878 -198.46225 -9.9872036
3.3691671 -198.57927 -10.111137
4.8670411 -198.54338 -13.787724
8.4513931 -198.27104 -9.3644447
2.9898641 -198.31619 -10.127525
10.972696 -198.15152 -7.7694998
10.053932 -198.0481 -8.9539671
5.3334508 -198.14056 -9.5501127
4.6372809 -197.82661 -7.0961061
10.777668 -197.9462 -8.0620642
