# .PCD v0.7 - Point Cloud Data file format
VERSION 0.7
FIELDS x y z
SIZE 4 4 4
TYPE F F F
COUNT 1 1 1
WIDTH 1595
HEIGHT 1
VIEWPOINT 0 0 0 1 0 0 0
POINTS 1595
DATA ascii
13.340063 50.424591 -3.8764009
16.065971 50.714375 4.2102351
2.8881021 50.705482 -0.164077
10.994015 50.692745 -0.865798
19.000128 50.765991 -3.075913
17.025959 50.959259 4.1655221
4.102181 50.950249 -0.50636601
10.656966 50.906029 -0.918818
15.479947 51.010983 2.5791121
2.9572501 51.047054 -0.59508097
4.5791178 51.054428 -2.6551249
17.69862 51.234791 4.2207909
3.169373 51.443867 -0.90001398
15.808357 51.780083 4.2021041
16.072052 51.684715 4.144855
-0.046537001 51.675396 2.4848781
4.5792942 51.692078 -1.603676
1.4558049 51.670547 -3.1961269
-2.5727661 51.825455 2.3106911
16.955935 51.966499 -2.3862989
2.1397991 51.95879 -2.857116
14.461079 51.926731 -4.6613169
15.832417 52.137226 4.061986
16.781563 52.153061 -2.70647
5.269453 52.462139 -2.31791
5.7658248 52.677589 -1.664744
5.00984 52.692886 -2.343313
5.691834 52.895695 -1.375596
17.359249 52.980766 -3.2754929
19.180874 52.999523 -3.4216969
11.092749 53.250607 -3.1587491
6.840868 53.41283 -1.290091
5.3201499 53.55336 -1.711357
4.569819 53.431343 -2.398917
4.1726289 53.46402 -2.6043251
19.814016 53.426041 -3.445895
14.630411 53.700954 -5.2590208
7.055398 53.865906 -2.3465409
18.200302 53.88644 -3.3039229
7.4089389 54.28875 -2.488049
7.2840562 54.40477 -0.189991
17.148916 54.872459 -2.101439
18.720139 55.082626 4.3558369
-10.137299 55.18853 2.1407299
-8.0615292 55.183685 -2.7148271
19.277952 55.264969 4.4157448
-9.9340057 55.256271 2.1064
-9.3675537 55.251225 -1.112608
-7.6465869 55.221508 -1.134039
-7.160934 55.24297 -1.1491539
-7.3995461 55.222874 -1.568848
-10.559057 55.333523 -2.3178511
-10.53949 55.276337 -2.856245
13.283707 55.565048 3.3011141
8.1418047 55.51741 0.143658
2.7048531 56.380634 1.0499769
-7.4348631 56.495232 2.228368
2.8791151 56.441368 0.94917601
15.18409 56.510212 -0.74072403
11.457895 56.767677 -6.710309
18.271133 56.966064 -1.230086
11.841729 56.911751 -8.1109943
17.91934 57.165924 -8.8841724
16.891407 58.344299 0.14564399
18.525307 59.960625 1.763522
4.682775 40.015327 -4.8089871
13.945436 40.086586 -5.828629
18.713194 40.290394 -1.576946
18.371193 40.277992 -1.604931
9.9054747 40.28215 -2.70418
9.5114136 40.510315 -3.527379
16.139704 40.565975 -7.3072381
14.873432 40.85886 3.2868619
18.219582 40.997131 -0.91083199
17.889996 40.822617 -1.463482
17.915218 40.820908 -2.680773
14.842055 40.912518 -4.6873741
18.353245 41.017681 -1.378016
10.287422 41.098022 -3.6907339
14.778099 41.182018 -5.390029
15.256341 41.054188 -6.0009451
16.602144 41.088535 -6.7860808
17.991322 41.283154 -1.658059
19.695698 41.321186 -5.159914
13.967336 41.219028 -5.8249021
18.748346 41.246796 -8.2100201
19.398691 41.470379 -3.409981
19.780586 41.677704 -1.09811
17.482479 41.71302 -9.6686649
16.743927 42.110271 -8.050787
17.044029 42.14431 -8.2195148
5.1493092 42.280975 2.8757851
18.590567 42.224777 -9.5638371
15.039173 42.984959 3.1630521
7.3570871 42.953957 2.925586
13.45098 42.986801 1.633093
16.698673 42.82 -7.0286932
6.2335 43.093758 2.7402749
19.944981 43.07444 -1.783255
19.600513 43.15247 -3.2735369
19.018511 43.013702 -3.5058529
2.570971 43.085392 -4.9140172
15.08432 43.355751 3.2884891
-4.2134171 43.365685 -1.257468
2.9407761 43.427387 -3.4780209
9.1220741 43.790455 3.3760171
17.149925 43.75676 -7.206882
15.0238 43.912735 3.6759429
-5.4528122 43.82378 -4.5951209
17.230207 43.95882 -6.9526892
10.242155 44.106228 1.359066
13.963302 44.153423 1.374613
1.691557 44.108528 -1.569533
2.1051569 44.119431 -3.7043321
19.125664 44.357136 -7.6160212
14.190232 44.493881 1.319941
0.50194502 44.56432 -2.1790709
16.89994 44.524086 -7.357121
13.964967 44.674046 1.367498
-0.084720999 44.6035 -1.695161
17.19593 44.603825 -7.0552678
11.821585 44.849091 2.8844011
12.235651 44.96344 1.2731971
4.9914069 45.032696 2.2854929
7.740036 45.168671 1.201591
5.0657821 45.072254 1.053316
18.979567 45.049774 -6.8732982
17.075916 45.01799 -7.1319141
15.070547 45.292511 1.417452
15.288988 45.339828 1.420097
10.091889 45.35656 1.188373
15.094853 45.286491 1.115755
0.14213599 45.20155 -1.88554
0.23013701 45.323532 -4.0534401
18.622419 45.383221 -6.7297969
7.81742 45.570911 3.14447
11.362923 45.501335 2.8867791
6.8974948 45.585423 2.6217921
8.6348324 45.586357 2.308929
9.656002 45.569374 2.2675359
14.518373 45.420982 2.2766211
6.5571551 45.562439 1.200174
10.795818 45.473602 1.206793
11.67631 45.414074 1.273319
13.846546 45.5956 1.200586
9.4052277 45.473862 1.168538
18.979187 45.625824 4.039866
6.4541378 45.645504 3.0089869
7.0761051 45.625286 3.0091569
6.1951332 45.656857 1.976368
1.961852 45.722313 -1.812574
19.535248 45.77681 -4.5498362
18.588669 45.688026 -7.0839601
15.18808 45.938606 3.759727
2.2632959 45.854858 2.894824
14.53363 45.814102 1.107788
15.264163 46.044319 1.452209
1.763809 46.100517 -2.5577641
1.4773411 46.31218 0.85883999
2.0686009 46.348808 -1.3209521
2.3727441 46.270939 -2.3488891
5.500946 46.377674 -3.8165779
6.2266078 46.562454 0.87204599
13.722966 46.49416 0.894858
2.7390161 46.516457 -2.5057721
1.951722 46.707123 0.97565001
2.008467 46.835278 -0.275269
4.6157689 47.105026 -1.48568
-0.36033201 47.0942 -3.1376481
15.315546 47.423492 1.480915
0.27632499 47.556183 -0.73915398
19.099871 47.77166 4.0965209
5.002388 47.773067 -1.617512
3.244369 47.637455 -2.5272989
15.353447 47.828545 1.362751
15.381423 47.835911 1.120276
5.1647878 47.942802 -1.1756999
5.297081 47.835773 -1.016387
2.5446041 47.800049 -1.278705
1.353363 47.887005 -2.1219201
15.347679 48.167969 2.8370321
15.400487 48.182613 0.93099302
15.343672 48.1996 0.33504999
2.2683711 48.078041 -1.4749711
1.667604 48.000393 -2.7353489
15.342252 48.210117 2.576957
6.133708 48.560184 0.148967
15.432095 48.955902 0.95655698
1.578091 49.392982 -3.4780619
11.429605 49.520229 0.31290901
13.894871 49.416843 -0.440404
17.91456 49.66309 4.3064828
13.932342 49.7295 -4.8082032
15.23395 49.801292 -3.2813301
4.6490502 50.199699 -0.0097439997
17.480103 50.052601 -3.68871
11.166819 50.18502 -4.0267072
18.852865 50.261185 3.888221
2.403769 50.390556 -0.33742201
17.154102 50.311676 -5.5665388
5.2861891 50.573486 0.117646
13.791286 50.466209 -3.5819521
16.928921 50.729778 4.2281518
18.693041 50.758862 -3.531091
6.1877828 50.82362 0.085902996
2.5650129 50.95359 -1.28889
4.9514842 50.871185 -3.9588649
11.810318 50.847511 -3.997694
18.500702 51.109516 4.2536411
15.494106 51.019791 1.678704
11.171289 51.026772 -0.65543902
12.208422 51.034218 -3.9850559
17.728079 51.103165 -5.8298912
16.203907 51.455345 4.2220039
17.292654 51.473175 4.185967
6.0767059 51.521317 -0.202767
5.560997 51.593529 -1.048748
6.9218769 51.592785 -1.012748
15.203709 51.583431 -4.579463
18.91795 51.684593 4.2069278
-2.5323091 51.798603 2.4140961
0.63377202 51.74379 2.3868511
1.514938 51.758881 -3.9448609
15.302088 51.647877 -4.5926428
15.991414 52.186077 -3.381963
17.152933 52.186665 -5.165061
3.993149 52.70541 -1.657956
13.506451 53.086807 -5.3369179
19.302502 53.602478 4.4196892
4.5734248 53.684315 -3.0870161
-10.537323 54.018799 -2.7892079
15.094044 54.340164 -6.0414548
7.7232032 54.563103 0.19228999
14.851525 54.576233 -6.16366
14.719374 54.854477 -7.6336389
7.8230748 55.180923 -1.109992
-8.4960842 55.175587 -2.670156
-11.960918 55.376938 -0.492632
-13.759281 55.445446 0.46142599
12.418097 55.650993 -6.7754259
19.058882 56.171402 -1.699644
18.95895 56.145954 -2.4253559
6.8142409 56.315636 -3.217767
14.663419 56.513092 -2.2889791
7.4022942 56.733952 -3.678097
14.803482 56.829689 -2.9941511
0.073076002 57.07695 0.874286
0.54409403 57.138081 0.860735
18.764473 58.412827 4.511075
18.550968 59.057415 4.5419998
8.6095142 40.053692 -2.821471
-6.196609 40.02961 -3.2437429
10.049236 40.066841 -3.622293
14.840184 40.131485 -8.2720957
10.791763 40.262558 -5.2571802
9.7843285 40.318691 -5.732338
9.8272057 40.58564 -4.2684221
9.3320971 40.700317 -3.688653
-5.8409882 40.96637 -2.0052669
14.299757 40.804302 -6.6021342
15.521631 40.885109 -6.8640141
15.007113 40.954586 -7.1458821
18.595119 40.933273 -9.2184381
8.9769077 41.010426 3.0803671
18.5242 41.074184 -1.0936691
16.249105 41.051376 -6.9243779
18.287247 41.197956 -8.267417
19.183029 41.37785 -2.913646
19.416813 41.321838 -9.2510128
17.986511 41.790878 -9.5932989
14.997515 42.262535 3.1314089
6.4935579 42.290512 2.8276141
19.31234 42.297825 -5.4327912
14.96426 42.563671 3.3720191
19.602655 42.493118 -3.6152079
18.271322 42.441608 -9.6419268
6.9864349 42.986843 3.1053791
19.96611 42.977497 -1.431816
-6.5307512 42.971386 -3.671885
17.511906 42.923729 -8.4099607
8.7279425 43.055439 2.232183
-6.824635 43.166393 -4.0115638
-5.6553988 43.292 -3.1332231
16.656813 43.222885 -6.3455129
16.934566 43.219059 -8.4780455
14.904738 43.409985 1.449362
2.622462 43.452255 -3.5037489
-2.0641861 43.667534 1.842181
19.661686 43.665501 -1.623794
15.042213 43.870586 3.394856
0.99389303 43.826839 -1.301067
1.538015 44.042797 -1.599354
1.478214 44.058231 -2.0328419
16.317715 44.017105 -5.9603682
19.502337 44.033409 -8.0671225
-1.866341 44.266033 1.8920031
0.93250102 44.230671 -2.4415541
1.921298 44.221832 -3.437604
12.838513 44.474369 1.3380229
1.393557 44.47596 -2.7021899
17.344152 44.490055 -6.9694018
16.686644 44.483612 -7.08112
19.808624 44.513557 -8.3577538
9.2883224 44.647614 3.298275
-0.26194099 44.637035 -3.6793499
18.641726 44.780708 -6.9940929
18.170933 44.761528 -7.1812148
-0.22114301 44.934395 -0.85291499
1.301996 44.916462 -3.602634
18.066597 44.844837 -7.0401602
15.257391 45.193882 3.496026
8.0332928 45.089417 1.197558
19.437254 45.355774 -9.1280165
16.583591 45.471603 3.9811671
17.705574 45.442722 3.973963
10.894123 45.554398 3.4692831
7.2639771 45.536064 2.2522321
12.548784 45.43158 2.161483
5.5668969 45.480812 1.936887
9.5536499 45.584045 1.885463
9.6187563 45.573143 1.971415
9.2880392 45.538952 1.206997
15.333413 45.418713 1.144536
7.265276 45.757683 1.096959
19.314579 45.637207 -4.9036059
-3.165834 45.664253 -5.5376711
18.780083 45.643578 -6.761528
1.362661 46.04258 -2.003628
3.047071 46.206779 -3.419059
2.0480311 46.408863 2.0925789
15.262094 46.640621 3.8585429
15.283051 46.613438 3.3350921
0.88381398 46.765614 1.866563
2.4347291 46.650696 -1.540255
2.5888579 46.642376 -2.120913
1.987563 46.831249 -4.7677288
0.869497 47.018711 2.272728
0.50805497 47.53167 -0.56800997
15.335097 47.799759 3.4331169
2.009624 47.712692 0.60947502
1.366863 47.879906 -2.601203
1.449062 48.039421 -1.5271569
5.3332911 48.153328 -1.459155
15.36014 48.203827 2.272208
2.460933 48.466042 -2.4970601
14.238682 48.513008 -2.563247
9.1800709 48.716087 0.356116
15.371554 48.931862 2.9160531
12.582506 48.866966 -2.608053
-1.200968 48.907238 -3.275269
15.84418 49.11034 -1.02627
14.598348 49.136356 -1.995388
13.457951 49.062309 -4.791038
-3.2353401 49.266289 1.925284
15.424744 49.397419 1.676074
12.863984 49.20467 -0.82200998
13.854715 49.213432 -4.9712782
15.427774 49.43623 3.3204069
12.103146 49.477921 -1.421401
14.401573 49.556026 -4.9532609
12.782272 49.62859 -3.867924
15.442438 49.858231 1.665269
12.190096 49.947773 -2.708293
15.385044 50.068314 4.0554509
15.430862 50.13969 2.509985
18.707958 50.199478 1.839366
14.011025 50.054035 -4.8288908
18.914986 50.285763 3.240607
11.179476 50.325684 -2.716753
17.423079 50.304558 -4.232913
15.459225 50.534946 2.6455269
19.368231 50.488766 2.0537541
2.772881 50.595184 -0.58626997
4.6011629 50.52626 -2.9212589
15.485477 50.654999 1.343948
2.6559551 50.695503 -0.128032
-3.6880469 50.664635 -2.4037809
-1.849159 50.724224 -3.2297249
1.7697721 50.917877 1.832567
4.6030211 50.982075 -0.107457
16.209238 51.071842 4.246089
17.421457 51.02882 4.2039089
4.1896782 51.045071 0.082607999
17.291088 51.004967 -5.809145
-12.15119 51.085533 -14.907997
19.028896 51.347649 4.2852921
3.4334249 51.290737 -0.16845299
4.4994431 51.239429 -0.298455
5.594327 51.24588 -0.233215
15.5408 51.406258 2.9704759
16.090954 51.990379 3.974714
-2.373116 51.807209 2.4872611
-7.8000221 51.992985 2.367522
-2.1236229 51.806179 2.3203909
7.263597 51.948105 0.220737
4.802074 51.979095 -0.276373
15.827971 52.139446 3.974771
2.782495 52.322437 -1.564827
1.8255399 52.246414 -2.889966
-11.759829 52.303429 -15.155206
17.627836 52.420612 -2.420527
19.739147 52.808796 -0.98992503
18.968491 53.288521 4.3834372
5.0953078 53.292301 -2.70173
5.3742809 53.452484 -2.346709
3.9872439 53.731258 -2.7165101
7.2522302 53.840858 -1.312732
7.2063599 53.955067 -1.902962
5.9860978 53.900978 -2.5631499
6.205328 53.858078 -2.5805621
15.027266 54.109749 -1.455223
7.4304228 54.162296 -1.816468
14.141296 54.169319 -5.407268
7.6743979 54.371399 -2.4946561
15.430574 54.369453 -6.0969071
19.509222 54.704811 4.52528
7.330194 54.657162 -2.3401871
19.315781 54.99707 4.4758778
14.782072 54.83971 -7.5554781
15.220798 55.342152 -1.1063679
-10.059694 55.348915 -1.2248811
-9.6449509 55.332157 -1.208679
-7.7214999 55.282925 -2.2331729
-9.7418346 55.238785 -2.744884
-9.8778076 55.239998 -2.886831
-7.1539578 56.59198 2.1841149
14.720588 56.562649 -2.596035
14.95886 56.998158 -4.1973081
17.210617 56.985607 -7.8587542
17.739765 57.354519 -0.99192202
15.311759 57.640297 -1.130627
8.1573353 58.207829 -3.7729709
18.901535 58.806797 4.554317
17.679342 59.070896 0.218042
18.959457 59.160767 -1.111087
-1.739616 59.491428 -0.076880999
17.953094 59.600754 0.40016001
19.975668 59.874226 1.994655
18.88102 40.163048 -3.199883
8.9817314 40.248867 -3.7409999
18.70793 40.45406 -1.588968
9.9751244 40.441078 -5.8741579
18.537903 40.641518 -1.6050791
10.660305 40.732452 -4.1852479
10.096136 40.625809 -4.3029928
14.088018 40.680786 -6.0406981
14.669599 40.937347 -5.854908
14.330929 40.910854 -7.2452998
14.89315 41.057785 3.34988
-5.5960178 41.083565 -2.4345131
10.246227 41.054321 -4.2275171
4.530767 41.394676 3.015528
14.953883 41.381111 3.0199111
14.457251 41.200821 -5.0079889
15.306242 41.495186 -6.3807731
16.404572 41.470192 -7.8412619
19.798637 41.766315 -1.269136
15.304852 41.840191 3.6863861
15.009151 41.886101 3.3558929
17.328733 42.166042 -8.5152931
17.556641 42.0117 -9.5310221
-6.5783162 42.496788 -3.4019411
-6.838202 42.539082 -3.6963799
15.012049 42.628319 3.1541381
8.2608109 42.99086 3.059186
8.5565186 42.970245 3.0721819
11.782602 42.904964 1.55626
4.693574 42.850136 -3.1866939
11.383715 43.012215 1.658924
10.347415 43.078304 1.5108089
-5.5860772 43.169369 -3.6184421
3.0859251 43.010807 -4.5626459
15.856886 43.054951 -6.1378179
15.115179 43.250336 2.82652
14.881315 43.310074 2.1883531
-5.6456661 43.24622 -3.3823831
19.425568 43.271481 -3.4452479
17.81719 43.232933 -8.0600405
14.830695 43.416157 2.506125
9.6794262 43.414581 1.4777
14.90643 43.75618 2.2070689
19.383259 43.613907 -1.616484
19.88158 43.782497 -9.0555363
18.860996 43.720528 -9.3818741
0.789671 43.806427 -1.640252
1.3720731 43.85054 -1.8928519
2.1639049 43.804138 -4.6292052
17.945608 43.803371 -7.9388709
18.0336 43.993393 -7.916595
2.7617259 44.049355 2.6925859
2.9336009 44.12281 2.7910931
1.152365 44.009949 -1.297322
2.8014419 44.166603 -3.405128
16.920216 44.367107 3.8990619
15.084094 44.237396 3.079113
1.799068 44.23909 -2.71593
1.716036 44.278851 -2.8671491
8.984127 44.532925 3.3145471
17.397806 44.487106 -7.5089622
15.074856 44.664734 3.7470789
8.9435368 44.698177 1.253647
17.742258 44.645363 -7.365973
18.975349 44.617249 -7.260756
11.192023 44.945965 3.7325211
2.151726 44.855045 2.9988811
13.198269 44.967037 2.4931991
5.4426889 44.835072 -4.2452269
17.866163 44.95277 -5.9933119
17.412317 45.109127 3.9927101
11.771992 45.103035 2.6765671
-1.473104 45.144058 1.86847
1.750767 45.028931 -2.425946
0.55083698 45.091228 -3.38903
16.234074 45.139465 -12.304635
17.30798 45.371487 4.0055089
18.764475 45.225983 4.0045581
15.280119 45.356186 3.584084
12.083384 45.245083 2.4194691
15.06554 45.258705 2.250499
-1.430355 45.339149 1.844869
15.330806 45.382633 1.0957659
2.853431 45.250137 -2.6292231
16.896988 45.258148 -6.1437759
10.136467 45.592674 3.423378
5.8510242 45.50914 2.9966991
10.161675 45.406059 1.233876
3.4929869 45.464397 -4.4495859
7.3191299 45.67524 2.7486119
6.9030581 45.653366 2.1001389
7.8839598 45.649605 2.071815
14.788485 45.62841 0.671426
1.811813 45.730129 -2.0398059
19.820938 45.98642 -4.5564532
1.691013 46.064812 -2.3586831
4.9896488 46.195316 -2.3162451
3.6354499 46.185467 -3.5634151
12.690488 46.303574 1.010927
5.6990938 46.213058 -3.7905049
15.271877 46.498272 1.490149
2.2152159 46.576637 0.91522402
4.5184422 46.402245 -2.6460071
15.305354 46.940758 2.170573
0.35210001 46.883381 -0.17826401
4.5405102 46.980534 -1.742318
15.290554 47.296753 2.662936
-0.049446002 47.326954 -3.820164
15.349937 47.430382 1.048562
3.7427011 47.493439 -1.798991
3.480288 47.517426 -2.3726799
15.355433 47.713558 1.636935
12.649873 47.714024 0.61531699
0.45764399 47.615253 -0.333745
2.7524681 47.830257 -2.7569239
1.474858 48.127502 -4.9144969
19.480616 48.221882 4.1755371
15.353161 48.271206 3.468477
0.244247 48.2295 -4.3545618
12.543154 48.563118 -0.52780998
15.393267 48.606388 3.2546401
15.360367 48.605522 2.8531621
13.01051 48.684364 -0.253966
12.161427 48.725864 -0.59823602
2.725225 48.714626 -3.299917
15.18856 48.896309 -1.1905071
14.58532 48.975082 -1.4508851
4.745718 48.86348 -2.5577459
3.65782 48.939106 -3.6447091
11.759348 49.079708 0.34825701
14.055917 49.035339 -0.085309997
12.688305 49.022987 -0.57285798
12.58357 49.106796 -0.83694899
14.130941 49.055092 -1.4786659
15.695095 49.361855 4.046731
15.394416 49.315308 2.9193521
2.854244 49.243809 2.565047
15.39216 49.328178 2.247793
13.953981 49.379955 -0.92847103
13.797231 49.295143 -4.7829609
16.105118 49.4692 -2.690428
16.037428 49.564533 -3.4747281
2.833065 49.697853 2.596766
1.929724 49.669266 1.9553829
12.084359 49.769695 0.184962
14.225846 49.680138 -0.84157503
14.585516 49.795601 -4.540288
14.675917 49.819496 -2.3468101
2.878124 49.876877 -4.711194
17.740059 50.07782 4.3246622
15.435947 50.088078 1.296771
4.7104168 50.198826 -3.617831
17.103903 50.068546 -3.9603069
4.4294648 50.257812 -2.9221499
16.102709 50.269623 -3.7977359
14.166209 50.455593 -3.6305251
16.571539 50.569939 -3.810708
15.421776 50.66798 2.9091401
15.586723 51.079594 1.033236
12.817013 51.011517 -2.2545259
0.449736 51.079975 -2.607372
15.605008 51.290413 2.257596
2.2461259 51.320015 -1.340047
2.895056 51.366413 -1.212144
0.59784102 51.238625 -3.240433
16.882881 51.406197 3.9644041
-1.0865 51.593834 3.103714
-3.3433061 51.429909 2.3942521
17.797367 51.781567 4.163733
5.6148839 51.815781 -0.26133999
19.135159 52.115429 4.2893448
14.290129 52.151531 -2.1958179
15.325891 52.247761 -2.4837501
16.098606 52.531509 -2.773803
19.181906 52.449104 -3.6895969
1.832918 52.481209 -3.9381959
4.0426898 52.723785 -1.587285
19.831268 52.657097 -1.70488
4.5639391 52.91394 -1.7482769
5.9680882 52.838139 -1.654662
18.641895 52.817459 -3.0460639
14.07278 52.985138 -5.3171682
6.1655369 53.050697 -1.6459301
11.180056 53.304893 -0.650787
9.4530544 53.357533 -0.82904798
6.5629559 53.398537 -1.34508
18.197971 53.307968 -2.619611
3.4230189 53.724739 -2.6197829
2.3377509 53.94743 -3.036972
6.9521689 54.137142 -2.268373
17.239071 54.475807 -2.2690871
17.023228 54.906647 -3.836921
13.597505 54.809177 -6.2890668
-8.8339691 55.216309 2.169471
-9.8060837 55.261642 0.47799799
-8.9298353 55.206146 -2.709291
-8.4071999 55.219254 -2.7826741
-10.83087 55.241386 -2.8979959
-12.481812 55.464863 -1.164032
15.852249 55.403687 -7.7476602
11.834921 55.967354 -6.6000671
7.949944 56.007805 -1.116545
11.3466 56.111912 -6.547452
15.439346 56.64711 -0.86017102
17.005003 56.62204 -1.988446
0.70888001 57.22337 0.99958998
-7.0724392 57.702404 2.2428341
19.571581 57.801582 4.6242352
-7.0239768 58.008579 2.258502
5.911274 58.473328 -5.4145389
16.159725 59.327446 -8.319644
17.846079 59.482914 0.44132501
18.132284 59.535614 -0.44286701
14.109683 59.498074 -7.376977
19.359537 59.798641 -0.54603702
19.432938 59.980759 4.7202501
-13.272247 40.07082 -13.642887
8.8413181 40.306767 2.996789
8.7160063 40.223904 -2.627584
15.217371 40.389381 -7.385324
9.111846 40.443348 -3.736511
13.94397 41.114014 -5.04531
18.250446 41.296757 3.947279
15.28006 41.232918 -6.9332638
9.6664124 41.43795 3.2610941
4.5060878 41.675987 3.059191
16.899052 41.728725 -8.5231228
17.827482 41.85265 -9.6445761
18.164513 42.159683 -9.4603758
18.467396 42.236824 -3.5226159
6.604506 42.509575 3.062109
14.572552 42.788013 3.3959579
19.158943 42.650269 -0.80953503
11.682567 42.942822 2.7023139
3.9741831 42.958031 -4.147141
19.416744 43.199341 -3.4787951
-5.936832 43.007881 -3.9448349
10.74503 43.367126 1.379243
18.010847 43.500366 -8.5277901
18.532864 43.513466 -8.4041214
14.207769 43.773899 1.401794
10.101257 43.731472 1.352282
-5.0216222 43.708179 -4.8162971
16.22476 43.624634 -6.9672379
10.039246 43.86335 3.294862
2.1921141 43.940533 -4.8373361
9.6660519 44.334427 3.4495571
13.484996 44.293873 1.359092
14.235759 44.381649 1.3753051
14.868175 44.598228 2.5719531
-2.3382759 44.454365 0.52794498
2.251574 44.440331 -2.8346021
-7.0370159 44.558815 -3.5436411
2.4115491 44.657917 2.989862
15.113274 44.83102 3.1743381
6.5723739 44.915009 1.185995
0.93499798 44.879013 -3.93608
13.815782 45.089043 2.5009899
-1.429691 45.195389 2.018579
5.7136869 45.130215 2.1693389
9.7605476 45.019932 1.242144
19.323202 45.105408 -9.056695
1.606522 45.377277 -2.449348
10.389524 45.57592 3.7237029
10.469292 45.570393 3.4429989
6.1040192 45.493237 3.061044
7.1795931 45.502502 2.308917
6.5122619 45.556999 2.1210251
14.104495 45.419155 1.329698
7.1185169 45.418869 1.175441
5.923624 45.572037 0.93867099
-0.84864002 45.673637 3.136343
10.153446 45.643963 2.3503561
8.2042065 45.625511 2.093389
10.987938 45.654022 2.167119
6.2109761 45.78196 0.94919097
15.260262 45.900394 3.3849609
15.253836 46.193447 2.709388
6.565187 46.028145 1.043969
1.954613 46.138878 -1.367968
15.299755 46.302914 3.0725069
1.877939 46.347034 1.874743
2.865535 46.333912 -2.7225461
1.708864 46.469387 2.1820021
0.439062 46.470222 0.369389
2.229733 46.517006 -2.6386509
1.893011 46.623955 0.661255
6.0777349 46.636032 0.779737
1.859683 46.628395 -1.822569
1.810925 46.643333 -2.8399501
15.299303 46.947441 1.467805
6.0708728 46.861221 0.76459402
1.807194 47.199982 2.4675779
4.6313391 47.021858 -2.310358
1.281769 47.324356 -0.146108
4.8878279 47.360394 -0.32441801
14.327234 47.400486 0.76466298
1.922938 47.705837 0.574323
15.420193 47.70657 0.48023799
1.99095 47.654987 0.24121501
2.677299 47.625305 -2.3988061
2.3618829 47.955475 -1.323674
3.411407 47.835983 -1.663004
-3.1191671 48.29195 -0.95096999
4.2621708 48.627071 -0.50296402
1.542713 48.79491 -2.881597
15.400476 48.841377 1.653108
13.114285 48.973812 -0.33546299
11.88764 48.947838 -0.57318401
4.7533021 49.092598 -0.47243601
4.1268239 49.000835 -3.987314
13.64766 49.021721 -4.903964
15.413372 49.36681 3.769675
4.5133839 49.352676 2.154649
15.588802 49.221149 -1.004691
15.435378 49.776691 1.380191
16.40255 49.717171 -2.654089
15.415841 49.828976 3.7341819
11.721119 49.912781 -2.70155
14.837833 49.865025 -2.8096731
2.317492 50.004776 1.8097841
3.084641 50.561417 2.0444591
3.797755 50.471138 2.1785581
17.66094 50.440765 -3.5769451
15.869219 50.435917 -3.9507589
17.301718 50.620636 4.2332001
2.253077 50.648392 -0.458022
17.642555 50.720356 -4.543612
16.949123 50.994331 4.1788859
11.891291 50.97134 -4.0074372
18.840347 51.177135 4.2393599
15.536761 51.115738 1.3284349
15.589655 51.306847 1.4595129
6.5140972 51.286758 -0.17782
17.4513 51.746124 4.2127261
1.266729 51.661755 2.565716
13.251377 51.719337 -2.260426
-3.162683 51.894093 2.3004429
2.404994 51.825096 -1.506074
6.447587 52.031437 0.113017
17.252632 52.068634 -2.6180961
18.910995 52.139786 -4.4273958
4.6666751 52.331253 -1.493392
4.722136 52.3358 -1.6068619
2.0284231 52.380699 -2.7970741
16.909245 52.221165 -2.6679151
4.5572481 52.403992 -1.618135
2.0653911 52.553402 -2.670325
5.728806 52.600769 -1.142959
13.705265 52.778049 -5.2610269
6.16365 52.927208 -1.388767
19.572449 52.926834 -3.4678309
15.828896 52.869076 -3.7005391
19.055971 53.74128 -4.3499742
3.5208311 53.876682 -2.941618
6.9224372 54.100128 -1.0705301
7.6257091 54.486603 -0.95761001
17.907291 54.428047 -3.1769171
19.895847 54.672977 4.5498872
15.796726 54.848309 -6.2246022
15.192612 54.924999 -7.530057
-9.0184631 55.114578 -1.097195
-7.5621428 55.157215 -2.488349
14.0662 55.028332 -5.4080658
7.9336839 55.385567 0.118983
-12.471764 55.421764 -1.243665
0.22325499 55.55899 -1.911369
-6.9759059 55.568298 -3.239912
11.939399 55.718658 -6.354825
18.422504 56.15469 4.4151931
-7.5983162 56.368408 2.263814
8.1351891 56.244644 -1.089658
14.6421 56.569324 -1.464401
-1.011898 56.792778 0.55905098
0.195593 56.647911 -2.1089931
17.968214 57.14875 -1.081236
17.38953 57.100475 -9.0398149
-1.819204 57.232727 -2.252835
8.0953522 57.520885 -2.31688
5.1268358 57.402027 -4.0140262
19.791943 57.775356 4.5611048
16.334274 57.635525 -0.074332997
15.490728 57.699524 -1.209826
1.5943151 57.990414 1.388777
17.219193 58.095654 -0.66863698
19.309925 58.378502 -4.686306
19.720085 58.412498 4.6249442
1.548396 58.616722 0.99450499
10.762506 59.35857 -3.672441
3.09325 59.433975 -5.3882179
18.200972 59.788925 0.47595999
10.872889 40.107395 4.035779
8.7568302 40.098152 3.06372
8.8635836 40.189114 -2.57952
10.599831 40.1745 -5.743412
8.6860991 40.216732 3.0031879
9.6856518 40.504269 3.9384329
14.918979 40.551327 3.2944009
18.189337 40.765091 -0.96519297
14.849609 40.919952 3.4154961
18.703228 40.92522 -1.411608
19.40781 41.18964 -3.5836279
14.694395 41.097626 -4.9327278
14.957977 41.146866 -4.9291811
15.281387 41.09507 -5.9417658
19.411236 41.106365 -9.2840548
18.320415 41.237862 -1.41541
18.35734 41.248371 -3.9855001
14.239342 41.220898 -4.9866691
18.528261 41.878868 -3.7439339
19.958679 41.844894 -5.2168221
6.185163 42.282616 2.741374
19.820599 42.349361 -3.8394339
-8.178957 42.891659 -0.83097798
17.632404 42.977112 -7.98071
10.161629 43.19582 1.502226
11.009983 43.016113 1.509233
19.374933 43.074242 -0.71819401
3.2869811 43.088829 -3.3999391
15.541127 43.109413 -6.1886988
16.651249 43.07122 -6.7349811
11.057626 43.264267 1.394853
3.6060181 43.298336 -3.3862031
17.026207 43.357273 -6.320682
10.104376 43.491776 1.40429
14.535183 43.509964 1.436995
17.566671 43.461266 -7.9007101
10.483251 43.612061 1.371321
17.88409 43.627686 -8.0567989
16.165476 43.803158 -5.946959
-5.3014932 44.035271 -4.3522272
16.538136 44.158218 -6.2520018
7.8910141 44.339279 1.2853709
5.297359 44.461639 2.9038341
18.814232 44.426018 -7.6438351
16.11619 44.653515 3.903203
5.56039 44.766171 3.2159109
6.2439318 44.669544 1.345984
8.5563507 44.778637 1.219072
10.197006 44.647163 1.275808
11.040054 44.646488 1.321288
16.272732 44.66021 -5.524765
19.450127 44.619606 -7.6467552
14.966862 44.862823 2.187017
5.0306358 44.99469 1.824424
-0.068846002 44.982159 -3.520957
17.743696 44.829456 -7.0582638
15.293249 45.103897 3.8164301
11.225509 45.086189 3.6552041
15.094723 45.064514 3.721287
8.0585537 45.084675 1.216572
1.566671 45.188183 -2.324636
15.246952 45.369022 3.711637
11.698271 45.334084 2.9020419
15.286857 45.418465 3.346956
1.957695 45.433777 2.7656951
5.8666272 45.487179 2.630908
6.5259171 45.571671 2.619271
6.0314269 45.56456 2.50633
8.5741053 45.584957 2.425935
8.9100237 45.569893 2.5501289
14.161757 45.43541 2.219892
12.209743 45.428493 2.1954441
9.0920572 45.58342 1.949019
13.680813 45.448578 1.796494
8.7384348 45.463558 1.2024961
8.5465851 45.535797 1.085955
2.0964789 45.470028 -2.6071789
2.922807 45.497128 -2.829906
15.266621 45.619511 3.8607459
6.296041 45.646526 3.078608
10.885148 45.635284 2.658313
8.1219244 45.628929 2.5841391
8.4154205 45.65416 1.138491
18.936939 45.722759 -6.953094
4.779295 46.136688 -2.4484611
4.8376322 46.067291 -2.610841
15.246689 46.241581 3.8194079
15.256295 46.371952 3.498168
0.96356398 46.482845 3.091197
2.4791131 46.40678 0.935431
6.5993862 46.679638 0.85892498
2.0324571 46.612633 -0.65136498
1.849157 46.634655 -2.0941629
-1.285067 46.857071 1.852113
15.330581 46.983223 1.159024
15.300174 47.108391 3.406085
5.0621829 47.173428 -2.3849151
3.8896899 47.354919 -2.4719651
1.794512 47.519894 0.64761502
1.074194 47.597153 -1.692077
15.297788 47.774342 3.798964
15.306089 47.777054 2.667433
1.789788 47.869072 -0.124076
1.9006 47.813396 -0.53363401
3.0686419 47.934566 -1.882293
-0.199434 47.881119 -2.97177
19.193666 48.07864 4.1269078
1.5053329 48.001816 -2.5488119
13.439955 48.065327 -3.2648411
13.467309 48.329674 -0.052255999
3.373039 48.37254 -2.5473509
13.58823 48.288227 -2.84517
0.123835 48.582573 1.934142
15.405872 48.459023 0.49169299
5.3536878 48.459732 -1.608086
9.4770241 48.63237 0.37326699
13.618502 48.776031 -0.246398
14.09917 48.78561 -3.3054309
15.737245 48.996723 4.0152659
15.452896 48.999573 -1.375214
15.412786 49.0509 2.322793
14.128597 49.018784 0.0066379998
13.479991 49.06237 -0.60717398
13.203352 49.077259 -0.80233002
15.026377 49.013023 -1.7888941
13.624437 49.047287 -4.7763128
15.643254 49.257988 3.908318
13.514328 49.295914 -0.99746102
14.145433 49.300232 -4.9542189
15.458169 49.568596 1.18109
0.101901 49.485157 -3.919472
16.56324 49.713997 -2.295892
16.636606 49.994129 -3.4414439
11.545641 50.037483 -2.713804
18.827629 50.234524 4.0107808
15.423196 50.201527 2.9457979
18.823494 50.259487 1.801679
5.15943 50.245743 0.131541
4.6866188 50.369827 -2.720295
17.432148 50.309021 -3.5547709
17.362312 50.242199 -5.5398231
17.517609 50.448929 -5.5531769
17.652117 50.795521 4.2619381
1.509935 50.688835 1.812609
2.153111 50.700344 1.93014
4.5532932 50.682598 -0.145179
13.022207 50.659149 -2.593302
1.974591 50.82917 -0.35922
4.863049 50.907558 -4.0952549
18.154291 51.107449 4.2425718
16.635405 51.061409 4.1823912
-4.0167751 51.03521 -4.8855262
18.382746 51.243336 4.2563028
4.3245549 51.215736 -0.338254
3.4192159 51.325077 -0.459566
4.859529 51.337234 -2.937243
15.764459 51.54282 4.066916
6.7011499 51.57283 -1.0016741
4.676105 51.785793 -0.46974799
4.698844 51.619987 -1.441497
15.176163 51.605801 -4.5168738
-13.461815 51.74427 -15.246832
19.208107 51.927059 4.3235059
5.373034 51.81395 -0.215159
5.9280472 51.935997 -1.054581
-2.174149 51.990772 -3.2757249
17.140768 51.889774 -5.1802511
1.880585 52.146523 -2.6393449
18.887222 52.020611 -4.341187
2.1126699 52.386047 -1.607959
19.104788 52.414482 4.3782492
19.267586 52.445946 4.378015
5.0832391 52.559845 -1.4273731
6.2455111 52.730789 -1.3973809
5.336328 52.707928 -1.693519
-0.97347099 52.618526 -4.7344451
5.5655379 52.832806 -1.366021
5.3046422 53.283325 -1.484161
-1.187897 53.963783 -1.947456
6.9609542 54.041622 -1.334314
8.0096464 54.386227 -2.4359021
8.1409378 54.418797 -0.28612199
-0.27412 54.446003 -1.417031
7.4549532 54.620438 0.155018
7.4531221 54.846939 -1.262675
-0.094351001 54.874424 -1.9461991
15.731297 55.131611 -7.3564682
-8.9580421 55.301052 -1.170776
-8.8398275 55.298 -1.5976011
-10.137222 55.260841 -2.9037111
9.580431 55.371223 -5.8435969
8.0540257 55.773319 -0.240334
15.881067 55.884411 -8.1336288
11.144026 56.05378 -6.558445
7.7664819 56.428791 -1.241792
16.027887 56.629089 -6.6081028
-0.54540002 56.948395 0.632025
12.160423 56.859055 -8.3263216
14.249514 57.184692 -8.2440367
8.1783037 57.301762 -3.180795
16.100748 57.422703 -0.16464099
16.545271 57.921764 -0.051987
16.668236 58.172371 0.157083
16.951067 58.289909 -0.010047
17.004705 58.27441 -0.66202599
17.345135 58.654633 0.161856
8.314806 58.648155 -3.789901
17.808125 59.690113 0.935202
18.440922 59.803738 0.66501802
9.7053089 40.11937 3.930933
14.865719 40.134918 3.307709
9.5448551 40.060677 -5.8877921
10.009349 40.323265 -2.853687
-6.135426 40.443687 -4.2938728
16.271595 40.519241 -6.9741201
10.977826 40.622654 -4.5629749
14.889019 40.613632 -5.8592992
15.596539 40.753994 -7.86412
18.961887 40.936451 -2.594491
14.70274 40.872192 -6.3662839
18.287388 41.12011 -1.606315
19.128143 41.169449 -2.907387
19.576542 41.26141 -5.2271571
15.118905 41.214638 -6.365541
16.401268 42.464947 -7.9579778
17.680496 42.463833 -9.0287457
9.949688 42.757229 3.397294
14.800866 42.773842 2.4639421
6.7825518 42.744286 1.704679
7.7732821 42.976288 3.007879
17.474998 42.917652 -8.2358627
10.730356 43.116325 3.520051
15.000992 43.035461 3.315439
3.8870511 43.122967 -2.659972
-6.3874912 43.043659 -3.2022541
15.821728 43.141041 -6.94135
16.357124 43.128067 -7.022573
17.758362 43.052467 -8.1630497
19.726191 43.394379 -1.75766
15.228874 43.589951 3.849977
19.419806 43.582756 -1.785574
-3.674403 43.78476 -1.372625
18.295658 43.628902 -8.1745605
11.619219 43.927559 1.351856
4.8326168 43.831463 -3.135653
-5.7027912 43.944042 -3.9802909
15.070786 44.125343 3.3413301
16.524673 44.086693 -7.358067
17.692486 44.058823 -8.1117172
1.1472189 44.294403 -2.9096899
16.167164 44.237743 -5.460505
17.866421 44.299194 -7.8369002
1.688271 44.542236 3.3380899
9.8194075 44.509365 3.3266959
9.6288967 44.536652 1.275617
15.667921 44.539165 -5.3190012
9.2638893 44.60767 3.190906
5.4915972 44.772335 2.1924651
1.647024 44.791939 -3.7240551
-0.112223 44.689865 -4.0411792
5.4089699 44.791649 -4.3317261
-0.330957 44.880718 -1.3695689
19.064734 44.952503 -6.7541051
17.963148 44.882797 -7.294281
5.6796198 45.189701 2.454926
12.246931 45.123829 2.4687209
4.77349 45.179424 1.725027
19.549498 45.198574 -5.7542772
16.199369 45.278656 3.987488
9.0001173 45.34869 1.215181
7.3931322 45.279514 1.176046
18.610519 45.291153 -6.2545929
16.523575 45.529984 4.0101199
15.25723 45.412872 2.6686599
7.8068061 45.596653 2.308454
13.951664 45.432808 2.198071
5.932137 45.557301 1.958443
13.317266 45.473049 1.772774
2.7122469 45.480095 -2.8445289
1.44656 45.553879 -3.9015191
16.325115 45.417778 -5.3086529
7.6785011 45.613678 2.983391
7.7912898 45.633362 2.5755441
9.7392244 45.638649 2.529563
10.128386 45.626518 2.5500009
10.638765 45.635178 2.20419
7.3400321 45.638424 1.98373
14.925651 45.656429 0.68038601
1.23076 45.768314 -3.9319651
15.242503 45.903297 2.6646669
14.511167 45.927765 1.2075419
1.542454 45.969437 1.070622
13.776947 46.079399 1.108438
13.324986 46.289082 1.143654
15.295676 46.281666 1.1694109
4.3691411 46.668606 -2.497314
3.936281 46.983765 -4.4750051
16.098764 47.044361 3.946347
15.336367 47.07996 3.134351
6.3860002 47.137684 0.80625701
4.90029 47.033043 -1.60953
-1.1631221 47.358627 -3.438951
13.918892 47.498077 0.739227
4.042655 47.456558 -1.67421
13.024236 47.702168 0.59352797
2.9010129 47.716927 -2.4968851
2.8174551 47.785431 -3.34024
4.0004811 47.816017 3.1194789
5.4534898 48.183681 -0.258903
2.2829771 48.06036 -0.62128502
13.637046 48.014614 -3.2966361
15.381138 48.315453 1.631565
15.362882 48.581749 2.2068479
15.398359 48.466316 0.34197399
12.720687 48.444851 0.104923
1.7567329 48.495789 -1.62656
2.985718 48.464928 -3.753243
13.287796 48.644657 -0.17162199
-4.1379571 48.781441 -0.98855001
-3.300756 48.938839 -1.358377
12.324986 48.88525 -2.581835
14.698371 49.189587 -4.035974
14.003458 49.19928 -4.9992938
2.671804 49.243294 2.464623
15.413941 49.516563 2.5875821
13.475396 49.443794 -0.53450203
11.53157 49.519798 -1.678759
16.017563 49.505543 -2.9332399
15.712957 49.66827 4.0463438
15.467693 49.731361 0.98257798
12.25962 49.641869 -1.383389
15.874877 49.688538 -3.49875
16.662533 49.933289 -3.6319871
14.198659 49.945477 -4.8048558
12.956841 50.090004 -1.067621
18.780739 50.240768 4.1349368
14.871282 50.33543 -3.570704
17.583397 50.449936 -3.535388
11.787544 50.541039 -3.984282
10.968903 50.726318 -0.195473
-2.699049 50.71843 -2.679359
18.165459 50.612453 -4.3806739
15.483381 50.967117 2.229527
11.225349 50.886719 -2.0932651
19.212255 50.844215 -2.9058051
18.316051 50.906689 -3.1338799
18.985821 50.861179 -3.3048539
15.51465 51.03886 3.97967
15.728209 51.301468 -4.2718821
15.762525 51.567024 3.9635971
0.322622 51.526131 2.534447
3.8746791 51.530079 -1.153131
2.557796 51.52739 -1.3584239
0.62839299 51.63805 2.5482931
17.092869 51.857544 4.0905399
-4.1077352 51.82019 2.37429
4.955112 51.896095 -1.350175
6.9323921 52.081284 -0.33232999
2.963378 52.185226 -1.513936
5.2721748 52.246578 -1.4133641
5.0520568 52.617764 -1.7103781
-12.702501 52.66608 -15.382821
13.946079 52.825333 -5.279542
18.386797 53.159706 -2.297796
19.355085 53.012173 -3.6134679
6.830328 53.572857 -2.385499
6.5170488 53.54977 -2.4055009
14.93096 53.908455 -1.447466
4.7849498 53.84972 -2.751152
7.2402072 54.162548 -1.113353
15.078564 54.656166 -1.383809
13.916062 54.619904 -6.0941858
15.073935 55.002571 -1.221204
-10.586359 55.293121 0.43718401
-9.4339275 55.340767 -2.0988729
-8.2832737 55.290947 -2.204962
16.604708 55.768974 -6.3707142
7.6615672 55.854061 -0.973153
9.2011585 56.172432 -5.3854079
-7.4421711 56.514748 0.53649902
19.821663 56.953018 4.6042051
-7.0141392 56.902637 2.2060471
15.533403 56.847351 -0.45632699
4.4307561 57.098236 -3.5020521
15.402637 57.355221 -0.91031301
4.6418252 57.368488 -3.9038429
1.240585 57.444973 1.630402
2.983799 57.475555 -4.9240928
16.285206 57.790073 0.12758499
5.8467932 57.944927 -4.2136979
5.2998009 57.932014 -5.0463681
4.3714161 58.087658 2.979485
17.120495 58.462444 0.096928999
18.737473 59.209908 -0.91223902
16.01055 59.46764 4.3777142
19.739687 59.628979 -0.922611
18.548552 59.840099 0.876544
17.652954 59.829105 -1.804917
8.20397 40.19141 2.762475
-19.86763 40.109261 2.2451799
-17.52335 40.195381 -0.20285
10.12273 40.102711 -4.1727719
-14.432343 40.247028 1.689131
18.768023 40.264137 -1.659694
9.8271065 40.299282 -3.12397
9.7009907 40.229088 -3.3173339
19.754259 40.357994 -3.959352
14.522479 40.311081 -5.9610481
14.828243 40.297897 -5.9241042
-19.900169 40.454693 2.2591751
17.999565 40.553844 -2.949142
18.952717 40.474613 -3.2733159
4.2264128 40.516853 -4.898582
15.670494 40.55619 -7.6315632
14.939956 40.654449 2.991504
-14.577721 40.637226 1.541212
14.322212 40.640148 -7.2706151
18.07881 40.897743 -2.674258
10.63566 40.912598 -4.1886559
9.9589968 40.893272 -4.240561
15.624098 40.855152 -6.8537831
-19.92042 41.010803 2.283273
-16.292362 41.126629 1.656911
18.904243 41.053101 -3.634165
18.544491 41.091457 -3.9583371
18.559792 41.128075 -4.1537352
14.980807 41.005657 -5.9454789
14.991886 41.378914 3.3466339
9.7201481 41.410561 3.199831
-18.664536 41.435677 1.443586
18.9877 41.599266 -2.5040829
14.969349 41.734425 3.344584
17.762573 41.929615 3.9666331
15.058996 42.17424 3.388597
-14.393749 42.01186 1.293013
19.840317 42.009247 -1.389511
-6.2893262 42.181313 -3.428231
17.555042 42.206623 3.975785
15.038074 42.204971 3.5015309
-17.79406 42.206745 -0.104022
19.536045 42.311211 -3.658407
18.947308 42.307068 -5.5671272
14.992874 42.730007 3.6467631
-16.87804 42.798805 1.1195149
19.389206 42.756294 -1.01344
19.418621 42.992256 -0.93687397
-18.100584 43.141384 2.076298
3.6451991 43.039104 -3.275861
16.983341 43.032898 -7.1291609
16.152903 43.108437 -7.2403908
16.897142 43.032932 -8.5060844
-18.144909 43.236683 1.545604
-18.460835 43.258923 0.04479
-18.496128 43.279533 -0.163417
0.693174 43.553734 3.25878
17.59877 43.59547 -8.1417475
16.221281 43.731773 4.011375
15.211605 43.626106 3.850008
15.945166 43.665173 3.981339
18.188831 43.624069 -8.537879
18.766243 43.815155 -8.9638233
-1.54213 44.031315 2.058255
9.8309507 44.128605 1.3882101
16.931211 44.063343 -7.5340829
-2.625946 44.346962 0.44107801
18.224689 44.310207 -8.1085043
7.0654759 44.639149 1.248477
0.76547599 44.623302 -2.4638391
1.652256 44.676273 -2.428093
18.11375 44.943161 3.977931
13.707867 44.886612 1.339005
0.126748 44.879333 -2.0601001
1.39713 44.959511 -2.539736
18.523708 45.007828 3.9861081
15.132389 45.014019 3.4157319
-1.674733 45.120209 1.851867
12.936798 45.160347 1.3043849
0.86399102 45.108582 -2.4762881
18.145473 45.106834 -5.9390488
5.003778 45.371868 3.005229
5.4875598 45.310974 2.11938
15.025152 45.278893 1.7637039
12.172596 45.354176 1.286643
12.518489 45.233879 1.293601
1.02246 45.283379 -3.78234
18.558617 45.287189 -5.9305568
16.796806 45.239815 -6.2326331
6.6456809 45.582977 2.934315
9.6612597 45.576195 2.508661
9.4031458 45.543896 2.357852
5.727479 45.416851 2.0641961
11.182472 45.567989 2.197417
18.562885 45.454865 -6.96104
7.4131951 45.670094 2.0709059
7.0190439 45.678284 1.991271
9.8888922 45.64579 1.903248
15.241421 45.880508 3.795316
1.3485759 46.052029 -1.8231879
19.990749 46.084118 -4.5111718
1.755656 46.201477 1.025323
14.240326 46.309677 0.92640001
13.324253 46.526161 0.96737301
1.104979 46.484451 0.39804301
15.272491 46.645535 2.728822
12.61751 46.608147 0.93114901
1.78578 46.785416 0.24050701
0.22869299 46.763199 -0.182933
1.93489 46.674011 -0.222084
15.28218 46.889648 3.7930081
4.1931849 46.988419 -2.3309679
4.8071771 46.963863 -2.479002
4.9500332 47.055141 -1.448552
2.2771571 47.259758 -0.66285098
5.253171 47.308201 -1.012273
1.90022 47.452477 2.2469101
0.73918301 47.43755 1.087309
0.97253299 47.485085 -1.4093519
-1.138672 47.406033 -3.074451
18.625149 47.707054 4.0534101
1.924183 47.777412 2.2067599
15.336969 47.795631 2.297646
0.88408297 47.616936 -0.70385498
2.1290669 47.928204 0.140091
2.167872 47.881256 -0.63008499
1.609262 47.969482 -1.566492
2.9258759 47.836533 -1.510246
4.09093 47.897438 -2.365134
1.517557 47.978779 -3.03655
15.306765 48.264923 3.8568649
15.369427 48.275898 1.343226
3.643311 48.275318 -1.125301
2.338285 48.258022 -2.0013511
15.569641 48.5298 4.0219889
15.600518 48.459927 4.0569358
15.440291 48.555347 3.878067
13.528305 48.531528 0.28169399
1.833912 48.505234 -1.382145
13.971842 48.546833 -2.472147
15.397412 48.760227 1.150473
13.699314 48.631508 0.18986499
12.437811 48.643909 -0.49090099
14.299326 48.736752 -2.332736
15.487052 48.933563 3.8047459
13.397349 48.869659 -0.12842201
1.808615 48.808861 -2.039953
14.120316 48.960396 -2.473377
11.684919 49.148903 -0.98665297
15.184505 49.007957 -1.392345
14.182875 49.081089 -2.8183899
15.920611 49.334988 -2.8107171
11.389849 49.525471 -1.426816
15.956341 49.442276 -2.7194691
10.981622 49.724579 -1.065429
10.966979 49.764965 -1.862134
4.1612682 49.681732 -4.0279231
11.351997 49.978363 -1.840245
13.841702 50.153728 -3.7928951
15.457893 50.219265 3.856133
18.926178 50.335548 2.7228341
12.994122 50.331921 -1.351667
15.509619 50.559669 1.010758
17.199644 50.425724 -3.9680419
2.1761639 50.680077 -0.348649
19.222734 50.683601 -2.8973041
11.72588 50.717953 -4.2291212
2.5459111 50.869034 -0.53214198
19.21151 50.935616 -3.235621
3.8463171 51.167694 -0.101667
1.428566 51.367271 1.864103
5.7845931 51.365685 -0.25359601
4.754168 51.287395 -2.568114
17.047731 51.411285 4.104928
0.115507 51.634785 2.3673379
6.3697 51.77433 -0.029742001
2.05006 51.607895 -1.391416
-3.4242041 51.819214 2.290499
6.6182179 51.830112 0.164432
4.9992919 51.991985 -0.449752
17.11348 52.084679 4.0456462
5.345243 52.045162 -0.42876399
5.3213019 52.607975 -1.3719079
6.4629331 53.028271 -1.34524
17.119812 53.026382 -3.3044541
18.704538 53.228256 -2.3552511
19.491631 53.448269 4.411952
6.4788508 53.546597 -2.1534331
4.996891 53.750202 -2.5718429
6.5283141 53.691315 -2.602247
7.000772 53.932953 -1.779682
6.8305612 54.030224 -2.537194
3.6203351 54.084686 -2.942867
7.6712999 54.382889 0.065993004
7.7230878 54.361015 -0.026941
7.7439499 54.361893 -2.2513039
10.980516 54.209373 -5.0518241
-2.300072 54.483368 -1.4565049
19.31352 54.967957 4.3652892
-7.704679 55.139442 -2.3900771
9.1833191 55.073334 -4.7700438
18.696609 55.560768 -2.3323531
10.300653 55.556122 -5.309032
15.104506 55.699379 -0.887788
-7.1122909 55.897369 2.1247029
-1.727205 56.38866 -0.634902
7.6887798 56.586075 -3.156225
16.008076 56.406734 -3.5090129
12.565096 57.025826 -8.3111763
4.8299689 57.341522 -3.8892381
5.0476189 57.698639 -5.1099119
17.387451 57.923092 -0.80034
17.192001 58.149776 -0.813546
4.3398328 58.17223 -4.3528209
0.66188598 58.482643 0.94402403
10.614279 59.035225 -2.168366
17.674572 59.376846 0.81652898
18.18972 59.767403 0.87226897
10.314599 59.889648 -2.4375701
15.983635 59.80415 -8.6483183
14.913586 40.173698 2.976501
-19.567661 40.049469 2.336688
-15.389431 40.181084 1.9831949
-17.043362 40.043491 1.7019579
-14.639477 40.113586 1.518941
-17.662739 40.139606 1.271152
-14.27877 40.11195 0.95368499
-14.654697 40.060619 -2.1661041
-6.6618609 40.153866 -2.5431609
-15.50359 40.06464 -2.73999
10.998154 40.133064 -5.438354
10.839158 40.072716 -5.6454811
-18.499111 40.32563 2.2469971
-14.877686 40.389694 1.8411109
-17.349796 40.218513 1.3699009
-17.487129 40.220573 -0.200884
-16.235004 40.294109 -0.91977602
11.445055 40.224216 -5.1469512
11.728507 40.21368 -5.1195459
-19.514648 40.555412 2.3017299
-17.301987 40.599506 0.00526
-16.361626 40.424908 -0.92574799
-15.809031 40.492371 -1.355258
-19.826975 40.683372 2.4610269
-19.162601 40.619652 2.3240891
-15.302509 40.676792 1.9976031
-19.133774 40.779648 1.722901
-17.353741 40.729183 -0.173563
-17.091139 40.677521 -0.131574
-16.281387 40.685394 -1.274107
9.959527 40.757412 -3.742486
-19.199528 40.727787 -4.3749189
14.173845 40.795197 -5.950973
16.033566 40.656425 -7.6047182
-19.901442 40.922733 2.471364
-19.537144 40.811081 2.41874
-19.830395 40.901207 2.319881
-14.52066 40.93935 1.6584001
-17.726435 40.977364 0.95109099
18.88031 40.987015 -1.170249
-15.949829 40.909618 -1.317722
14.190746 40.950809 -5.764925
14.678665 40.821583 -7.2368889
16.053242 40.90192 -7.6437631
15.156029 41.104805 3.6521809
14.905922 41.0508 3.02145
-18.031002 41.0956 0.95395303
-16.226843 41.058121 -1.278717
-5.8229332 41.017658 -1.996927
18.892258 41.092911 -3.3454101
13.896461 41.085911 -4.2853322
-19.911385 41.320095 2.401087
-16.585709 41.404228 2.17941
-19.886883 41.684521 2.4139881
-19.834877 41.706947 2.3054321
-19.0145 41.607208 1.376915
19.039532 41.675865 -2.596081
-19.268681 41.968346 1.363782
-17.60334 41.883816 -0.223841
-18.981838 42.11961 2.3803821
-18.593845 42.116646 2.2862539
-14.394125 42.005997 1.317664
-14.399059 42.16349 1.1976629
-17.562515 42.003513 -0.27960199
19.525673 42.028301 -1.196613
-15.683086 42.041653 -1.3771321
-19.872429 42.268772 2.4944
-17.922329 42.339771 1.251238
-18.810345 42.50008 2.2789979
-17.708084 42.551594 1.126803
19.648497 42.445549 -3.425293
-6.5247378 42.51825 -4.8002672
18.700377 42.440216 -5.4885421
-16.720093 42.717205 2.2056029
-5.7669978 42.614491 -3.1347909
-19.062931 42.952091 2.459825
13.119118 42.893082 2.5150101
14.589599 42.851154 2.4155481
-18.903522 42.868984 2.281436
5.94206 42.909958 1.672069
6.4040189 42.839642 1.6908751
12.662504 42.956776 1.566772
-16.888268 42.865326 1.242287
17.786198 42.942329 -8.4599228
11.725571 43.026604 3.7981219
-19.75568 43.083305 2.4271431
-18.190884 43.140617 2.179883
-18.06398 43.165936 1.911914
-18.091415 43.091652 1.249449
-18.510143 43.111828 -0.27345899
-18.891502 43.146362 -1.7860579
7.4746861 43.12254 -4.9958038
10.196053 43.321793 3.2892921
-19.902889 43.285629 2.421592
-18.250641 43.249565 1.98436
-13.913433 43.392857 1.652835
-18.848068 43.23024 -1.652746
2.653477 43.225746 -3.662076
16.328018 43.249802 -7.125412
9.8784323 43.511631 3.2840879
-18.406216 43.512581 1.442078
-17.701534 43.426899 -0.45933101
19.7145 43.518837 -1.5068541
2.3947661 43.490185 -3.3341689
-19.7883 43.610672 2.480391
-15.192211 43.63591 2.326035
9.8230076 43.612495 1.390633
-17.947525 43.799881 -0.34929699
16.731779 43.740742 -6.4062109
11.471924 43.909771 3.7613089
8.6437759 43.968334 1.3163069
14.448748 43.973698 1.389093
0.96706802 43.808895 -1.694918
1.35291 43.870289 -4.9053721
8.6526728 44.09079 1.313782
0.79682201 44.080685 -2.0757699
15.906921 44.149727 -5.4804459
-19.805779 44.080929 -11.487062
0.79707098 44.23016 -1.82328
1.530278 44.255672 -1.8160551
2.0934179 44.270576 -2.6946089
16.452694 44.251167 -5.875648
17.808771 44.280014 -7.428206
1.1517299 44.580967 3.2328701
7.7510819 44.597282 1.242641
-18.323959 44.41169 -0.221857
16.615765 44.587357 -5.9882369
11.396736 44.752014 3.6424611
15.139513 44.681877 2.93641
-0.077693999 44.78244 -2.0711501
1.419162 44.616264 -3.4158349
16.373796 44.706844 -7.1784139
17.82251 44.629524 -7.1258998
5.6316352 44.926338 2.8439419
8.5201139 44.8731 1.238712
10.127275 44.880806 1.255016
0.030205 44.924259 -0.85303801
-0.128866 44.864178 -1.903448
5.3053651 45.091728 1.938213
9.4765768 45.073696 1.236872
15.242966 45.264839 3.1437039
13.962927 45.294975 2.5761001
12.933159 45.325214 2.1938429
15.231856 45.261745 1.778849
2.7480741 45.39011 -2.6611841
0.139311 45.227859 -3.9870181
19.627197 45.220592 -5.6819549
18.857046 45.500011 4.0281649
