# .PCD v0.7 - Point Cloud Data file format
VERSION 0.7
FIELDS x y z
SIZE 4 4 4
TYPE F F F
COUNT 1 1 1
WIDTH 374
HEIGHT 1
VIEWPOINT 0 0 0 1 0 0 0
POINTS 374
DATA ascii
204.74742 -87.834282 0.124164
205.00223 -87.2612 0.45416901
204.94312 -87.325951 0.28750101
205.30043 -87.079353 0.235672
204.0112 -84.685555 -0.383616
209.07997 -83.02388 -0.53228402
213.7019 -89.886917 -0.32315499
206.96912 -89.157143 -0.54749
207.34445 -88.742615 -0.194905
204.24051 -87.891006 0.306467
204.63593 -87.807137 0.187344
204.74886 -87.373795 0.228793
205.01788 -87.351776 0.150288
204.27579 -84.481308 0.37821701
206.07672 -84.359589 0.353127
209.12816 -82.929947 -0.543414
209.1803 -82.686417 -0.26976901
205.65353 -82.41935 0.337008
206.29498 -81.885704 0.54255301
208.72598 -81.239166 -0.27500701
208.96384 -81.203308 -2.013643
215.04663 -99.60984 -1.49084
214.80029 -99.700172 -1.9055279
205.80255 -90.298515 0.117599
205.77188 -88.761902 -0.65324497
204.9765 -87.336166 0.43285701
205.43884 -87.103981 0.217021
205.35887 -86.964539 0.46117601
208.8746 -86.880234 -0.231378
207.47806 -86.453972 0.370258
203.36502 -82.885315 -0.334667
204.565 -82.119011 0.27865601
207.47919 -82.130951 -6.0586228
208.8521 -81.515991 -1.711144
208.65051 -81.207664 -1.705628
208.46484 -80.879173 -1.700388
208.46948 -80.756393 -0.43610901
208.08264 -80.293716 -1.689921
200.08411 -80.118042 0.190547
208.20599 -80.149673 -2.026407
214.59096 -99.7388 -2.839973
208.33032 -97.332214 0.58766001
211.64703 -96.660446 -0.23011
207.73749 -95.924339 0.057016999
206.47186 -91.230949 -0.32067099
205.31845 -89.302818 0.325618
205.17784 -88.646545 -0.047773998
204.27765 -87.888092 0.29089499
204.52829 -87.719269 0.63946903
204.48682 -87.752701 0.26104599
204.70291 -87.486389 0.250341
207.75452 -87.487595 0.268078
204.9496 -87.354111 0.27149901
205.37454 -87.062881 0.55712003
207.40811 -86.362236 0.61479801
208.17125 -85.8685 0.533508
200.68726 -85.840164 -5.3304882
209.51981 -85.732773 0.57111901
205.5063 -84.631134 0.537974
205.64984 -84.62471 0.50200599
200.03799 -83.618286 -2.7714751
209.00998 -83.264671 -1.720771
203.3212 -82.821342 0.28524199
203.46725 -82.660843 0.49917901
203.45146 -82.624695 0.33054101
209.12656 -82.683838 -0.32167199
200.88103 -82.610855 -4.7771311
205.9343 -82.213852 0.59740901
201.85852 -82.238136 -4.6047029
200.07635 -82.054199 -4.2492862
205.50789 -81.584412 0.599819
204.99829 -81.573608 0.353679
208.89792 -81.500633 -1.744485
208.89313 -81.361336 -1.049296
208.93906 -81.315964 -1.495285
208.65869 -81.146866 0.15202799
208.59909 -81.004784 -0.52200598
208.82233 -81.165787 -1.318967
208.61902 -80.970833 -1.053326
208.70197 -80.884636 -1.456077
208.42975 -80.660202 -0.97874701
208.53322 -80.618843 -1.412487
208.34572 -80.546906 -1.094817
208.36804 -80.52774 -1.356509
208.26456 -80.574982 -1.694912
208.15164 -80.255768 -1.072636
207.90659 -80.04911 -0.72736299
208.12885 -80.110245 -1.4736381
208.12149 -80.161362 -1.718709
215.03516 -99.670944 -1.4267139
214.56558 -99.782188 -2.930871
215.2178 -99.467499 -1.152424
208.31038 -97.339401 0.58663797
211.52589 -96.891022 -0.16142599
212.43701 -95.592918 0.62905401
206.03384 -90.654663 -0.204337
205.79962 -90.208099 0.17273501
213.28067 -89.955368 -1.349241
205.35373 -89.306839 0.28700399
205.28468 -89.093338 0.179243
205.16202 -88.939598 0.276526
205.60713 -88.899902 -0.60633397
207.24487 -88.74321 -0.323576
204.59042 -87.698051 0.21969
205.82689 -87.27224 0.112511
207.88419 -86.108421 0.51613998
205.54268 -84.548058 0.45153999
200.10828 -83.395355 -2.748585
203.3049 -83.012596 0.99615502
200.08604 -83.142761 -3.2103119
203.35144 -82.931488 0.107943
203.35208 -82.995689 -0.115489
203.66107 -82.657761 0.86368901
203.36761 -82.702072 0.53913999
203.32761 -82.699432 0.17275301
200.55685 -82.611336 -3.697525
205.87152 -82.143799 0.55003202
202.09859 -81.666229 -0.040116999
202.12555 -81.409958 -0.072247997
208.8866 -81.290344 -1.5097899
208.72041 -81.212448 -1.7444
208.83553 -81.195076 -0.69248599
208.63733 -80.909302 0.249614
204.50964 -80.803482 -0.082061999
208.42502 -80.849136 -0.38695401
208.6153 -80.949646 -1.065345
208.6749 -80.937012 -1.507857
201.05142 -80.721695 0.196279
208.46245 -80.779167 -0.274836
208.53145 -80.73259 -0.55333799
208.44107 -80.659836 -1.084789
208.48517 -80.557571 0.288616
205.42767 -80.155617 1.169659
208.17824 -80.173103 -1.1126111
208.15887 -80.190346 -1.756935
215.60962 -99.988182 -0.88779902
214.71042 -99.700546 -2.366591
203.93486 -98.920197 -4.7308221
204.42462 -98.637024 -4.760612
211.7601 -94.152786 0.44186899
211.70061 -94.025345 0.38564801
200.24484 -93.874962 -4.4615059
200.09616 -93.562729 -5.9138632
200.34401 -92.290863 -4.801064
201.27557 -91.862572 -3.7423639
206.7543 -91.689346 -0.134868
206.57309 -91.378128 -0.156688
206.11595 -90.614731 -0.256183
202.42677 -90.715622 -2.2972319
205.94576 -90.471527 0.191691
205.98224 -90.318832 -0.383304
205.80467 -90.153084 0.155706
205.95178 -90.09288 -0.958211
204.02637 -89.918503 -3.030448
205.61719 -89.710281 -0.031849999
205.77463 -89.72641 -0.96743298
205.55228 -89.508194 -0.303671
212.51405 -89.595551 -1.8795559
205.41249 -89.361458 0.32350501
205.2859 -89.090034 -0.112803
205.1272 -88.890533 0.18584999
205.01584 -88.658539 0.107135
200.07034 -88.629356 -5.120749
204.84023 -88.308693 0.112929
204.90607 -87.417435 0.19708399
208.86789 -85.834564 0.059593
205.48895 -84.562866 0.49656799
203.81773 -84.505661 -0.17010599
204.0193 -84.291412 -0.002568
205.98843 -84.124374 0.41076899
203.9192 -83.849686 -0.371959
216.839 -83.570129 -0.26932999
216.81993 -83.594414 -0.45517701
200.5994 -83.599617 -2.66063
203.38989 -82.871262 1.082358
203.37329 -82.942841 -0.154901
200.63663 -82.49527 -4.480514
200.11584 -82.03627 -4.3219442
201.91644 -82.166412 -4.6683211
208.74535 -81.200981 -1.120047
208.77881 -81.213104 -1.416191
208.90176 -81.307175 -1.422204
201.65834 -81.089226 0.56623
201.30038 -80.982903 0.27529401
208.5249 -80.779922 -0.27501801
208.4642 -80.664085 -1.094941
208.30466 -80.461975 -1.686134
205.355 -80.217857 1.170398
200.06125 -80.129486 0.26485199
208.60399 -80.141472 0.25860801
215.35379 -99.74559 0.14570799
214.54349 -99.695099 -3.0177989
215.15158 -99.533409 -1.415417
204.73312 -99.043076 -4.8272572
204.19775 -98.353592 -4.842504
218.231 -97.580902 -4.611907
208.32878 -97.123878 0.59222901
205.54581 -97.165611 0.095596001
205.64561 -96.95755 0.319159
211.73836 -96.556824 -0.166629
211.41196 -94.468651 0.38826799
204.55698 -94.244492 -4.2089
200.02348 -93.450439 -5.51439
202.83578 -92.716698 -6.4004111
201.59052 -92.411163 -3.1798899
206.80951 -91.819916 0.276389
217.0779 -91.542549 0.47523701
206.61166 -91.423981 -0.174955
200.24736 -91.104088 -4.5519252
203.44766 -90.999496 -2.4424291
204.18817 -90.83596 -3.154546
202.4595 -90.563812 -3.496038
200.75328 -90.539032 -4.6222
205.58723 -89.685898 0.36881
205.4278 -89.426361 0.34288999
205.17438 -89.354156 0.29050899
205.05835 -88.834457 -0.041758001
207.2713 -88.964966 -0.367356
207.06839 -88.99115 -0.499843
200.05319 -88.832817 -5.1126599
207.94003 -87.823799 0.27140799
204.71703 -87.512215 0.65802997
207.94157 -85.99781 0.59446698
208.13074 -85.840668 0.506468
208.69205 -85.734879 0.194261
203.33463 -84.263504 -2.1998401
201.16309 -84.350235 -6.0399532
203.34824 -82.888092 0.164654
208.30704 -82.962471 -1.456497
203.51999 -82.737579 1.101475
202.12302 -82.203201 -4.7048659
204.58722 -81.852539 -0.121443
204.44136 -81.294144 0.62578499
201.28635 -81.203156 0.281131
202.03996 -81.34832 0.144945
208.84811 -81.34024 0.14161
208.8204 -81.293938 -0.069990002
208.87326 -81.33551 -1.710474
208.5947 -80.865997 0.29284501
208.70738 -80.988876 -1.384554
208.51704 -80.744339 -1.723645
200.92966 -80.449982 0.783548
208.21161 -80.497223 -0.72589803
208.33937 -80.472336 -1.283684
208.15652 -80.12748 -0.049442001
210.70317 -80.033241 -0.32815
214.91811 -99.703178 -1.782679
214.50214 -99.429199 -2.9061661
214.20198 -99.399879 -4.1835599
204.65599 -98.984581 -4.7597532
208.57605 -96.328979 0.049006
207.10864 -96.146759 0.040564999
206.87244 -93.701759 -3.489151
200.77533 -93.149643 -3.447536
213.03493 -92.923988 0.44867799
201.00705 -91.963409 -5.4037838
205.86151 -90.202911 0.197148
205.95309 -90.260323 -0.30201101
205.66321 -89.758736 -0.13025101
205.26144 -89.10556 0.142701
205.14465 -88.898735 0.237406
205.19162 -88.883659 -0.418562
205.02409 -88.683258 0.225183
205.07663 -88.573074 -0.042658001
204.52063 -87.700928 0.52284497
204.67972 -87.51992 0.27065599
200.66029 -85.503929 -6.1955571
205.53888 -84.625526 0.50444299
205.68454 -84.754906 0.234191
204.11943 -84.661118 -0.20144001
200.66563 -84.577194 -3.7661669
203.43076 -83.451202 0.072508998
208.29755 -83.102859 -0.74114603
209.0751 -83.025116 -0.67675799
205.88043 -82.119179 0.53914398
204.57867 -82.10466 -0.035439
216.11856 -81.730202 0.545407
208.70833 -81.688896 -4.0035748
201.43156 -81.230202 0.64319098
201.92563 -81.315147 0.134314
208.90668 -81.376915 -0.47993401
208.75388 -81.281876 -0.60860997
215.64221 -80.939644 0.24732
208.44897 -80.602875 0.549097
208.52557 -80.646988 -0.63643098
208.36606 -80.552803 -1.083873
208.43063 -80.526016 -1.486551
212.57681 -80.253952 -6.9021869
201.02493 -80.007904 1.210605
208.1608 -80.152954 -1.386236
215.117 -99.861267 -1.021861
215.04778 -99.704109 -1.377213
214.1095 -99.747444 -4.4088898
215.37985 -99.509773 0.097534999
215.05539 -99.544792 -1.0220129
215.2316 -99.416801 -1.028264
200.40479 -92.327431 -4.8724031
202.13428 -91.948296 -2.9099801
206.76198 -91.686348 -0.161713
206.82803 -91.779434 -0.32627901
206.77112 -91.748466 -0.48844299
206.56418 -91.433029 0.26589501
206.31271 -90.918129 -0.059039
203.77452 -90.903229 -1.604535
203.09483 -90.90435 -3.1337061
206.09982 -90.554565 -0.23546401
205.68335 -89.901535 0.218904
202.74551 -89.884094 -3.004714
203.33214 -89.627464 -3.459101
205.30499 -89.096642 -0.057101998
206.79825 -88.865028 -0.37422201
205.48431 -88.985275 -0.410355
204.61156 -87.821106 0.15916701
204.98727 -87.381226 0.52097702
208.07745 -86.02581 0.63694501
202.54468 -83.412697 -3.6954899
209.12048 -83.153305 -0.83876401
209.05344 -83.149094 -2.226789
201.2529 -83.057724 -4.8550611
203.37296 -82.757156 -0.050779
216.34242 -82.052917 0.66348499
205.07666 -81.793182 0.102945
208.75525 -81.767174 -6.9678721
204.43021 -81.583282 1.064921
208.75427 -81.317841 -0.332636
201.44669 -81.012604 0.60323298
208.62112 -81.002853 -0.25289899
208.82233 -81.171921 -0.67939901
208.68343 -81.031586 -1.711935
208.64969 -80.991859 -0.58807701
200.21115 -80.655319 0.48632699
204.06172 -80.466614 0.91247302
208.70045 -80.250526 -0.037276998
208.11861 -80.031708 0.455356
208.17358 -80.197311 -1.0038199
214.41325 -99.91684 -5.2386169
215.17566 -99.705414 -0.56856
214.5932 -99.670166 -2.6592331
214.37393 -99.669823 -3.487391
215.27005 -99.456001 -0.63683403
206.02045 -98.110558 0.39864299
212.10219 -97.299789 0.28308901
212.10437 -97.177597 0.20151
200.2542 -93.716835 -5.91818
200.7027 -93.142349 -3.8121259
206.43002 -91.031006 -0.254233
202.56734 -91.076164 -2.956485
206.01883 -90.419342 -0.58491999
202.72601 -90.260109 -2.628068
200.61961 -90.31562 -4.5980349
205.48425 -87.095795 0.257936
205.64638 -87.011818 0.38890699
205.83943 -86.795868 0.242164
207.90417 -86.263092 -0.040573001
205.45161 -84.389252 0.37992001
206.0435 -84.29953 0.353383
200.69183 -84.321373 -3.728493
203.85573 -84.128891 -0.181886
203.28156 -82.691353 0.19430301
202.00829 -82.697006 -4.8516159
204.70618 -82.431404 -0.150034
209.5603 -82.418167 -6.2187529
200.85745 -82.358841 -4.915554
202.10043 -81.462898 -0.149159
209.51231 -81.565071 -1.3236639
208.91644 -81.383148 -1.092137
202.06857 -81.072906 0.169026
202.13568 -81.189621 -0.01144
208.84029 -81.161865 -1.405115
204.47878 -80.992409 -0.103233
208.66766 -80.994278 -1.080238
208.46642 -80.573792 0.31064099
211.80652 -80.590363 -0.332706
210.61649 -80.105743 -0.64980102
