# .PCD v0.7 - Point Cloud Data file format
VERSION 0.7
FIELDS x y z
SIZE 4 4 4
TYPE F F F
COUNT 1 1 1
WIDTH 109
HEIGHT 1
VIEWPOINT 0 0 0 1 0 0 0
POINTS 109
DATA ascii
204.87201 -139.90573 -0.686023
201.43706 -132.10777 -4.6513362
206.67851 -131.48341 -8.6102524
200.61218 -130.5979 -2.0990419
203.6058 -126.43525 -8.2324257
201.59274 -124.8842 -7.1428699
202.57271 -122.77586 -8.4731503
215.88611 -121.95813 -2.1735439
209.46591 -138.02042 -2.599107
209.39014 -137.50145 -8.2125387
200.0397 -137.27145 -3.2857189
209.16248 -136.08133 -3.591193
210.63327 -134.98682 -3.6510689
212.04276 -133.12112 -8.8412209
202.10556 -132.41829 -6.3617001
201.44633 -131.88269 -3.0168641
200.87451 -130.98601 -6.6277022
200.97598 -130.5986 -3.1397309
208.85019 -130.4814 -5.2386322
201.35199 -130.53986 -6.6727052
200.37241 -128.86139 -7.0580449
200.40569 -128.43459 -6.4499049
200.61041 -127.65928 -5.739615
201.02563 -127.33233 -4.2606921
207.04651 -124.63423 -1.518545
206.24916 -122.3998 -7.0987339
209.65341 -137.8609 -2.1562171
209.25853 -136.55467 -4.8993912
209.61624 -135.87314 -2.3147309
210.4552 -135.13683 -3.5798659
200.29498 -133.69304 -5.673461
200.33841 -133.01279 -4.9059381
201.2144 -132.60692 -3.8976591
200.12128 -132.41507 -0.86192399
200.15102 -130.28218 -4.855268
205.94116 -130.15714 -7.0119061
201.31 -129.80606 -9.607172
208.91631 -129.58488 -6.0737319
200.09888 -128.90668 -8.4608059
202.49377 -128.26836 -7.2397308
201.73116 -127.54234 -12.680611
205.32703 -125.3534 -9.1594076
201.83151 -122.04784 -8.3165035
203.85043 -139.74667 -12.753695
203.73666 -139.55908 -12.759878
200.02426 -137.08063 -3.2841771
200.00865 -133.38763 -5.093029
218.30122 -133.03552 -3.390027
202.87122 -132.86977 -3.35901
211.78319 -132.61333 -9.0712757
200.53476 -130.53589 -2.1168511
207.64828 -129.74855 -5.55091
200.49504 -128.27463 -6.4604459
207.76349 -127.43665 -6.7100458
201.02806 -127.34583 -4.209311
200.7299 -127.2411 -4.660954
200.14258 -127.16486 -2.2993641
200.69797 -127.19896 -4.1649742
200.26532 -126.75063 -2.8824689
201.55171 -125.26852 -7.1272612
200.33389 -124.82616 -6.7382588
200.75504 -138.65135 -7.3918071
210.89302 -138.21933 -2.6855519
209.75674 -135.66531 -3.8568959
201.24854 -135.7175 -8.2032089
203.01398 -135.38152 -7.6699252
203.10391 -133.46323 -7.9064641
219.38589 -132.27034 -2.602047
201.16698 -131.72696 -2.7153471
201.3035 -131.42831 -4.5825491
200.46878 -130.2739 -3.0133131
208.28937 -129.48695 -6.8461952
200.59564 -129.28333 -9.9540424
200.53503 -127.85725 -2.8054609
200.56795 -127.53975 -5.710423
200.0526 -127.34855 -2.8155439
205.47885 -125.64019 -7.552249
201.58517 -125.59503 -7.3124681
201.742 -133.2496 -4.6414032
203.57419 -133.32629 -7.9516091
218.54883 -132.76547 -2.5894799
203.87123 -132.55061 -6.5865259
200.11497 -132.32568 -0.84305
204.29108 -131.87888 -8.1528444
200.87437 -129.41476 -3.6397591
200.50729 -129.4559 -10.75565
200.05426 -127.97485 -0.85241902
200.12509 -125.30643 -5.1839228
200.1535 -125.30737 -5.282023
208.4938 -138.05632 -1.425629
208.63219 -137.74432 -1.1399601
209.71234 -135.51913 -1.844357
204.45471 -133.78368 -8.0237846
200.11537 -131.27855 -5.1472721
201.06277 -131.01028 -4.5822701
200.81467 -130.69443 -2.276021
200.2691 -130.2094 -2.5766571
200.57324 -128.23009 -2.795718
200.59726 -127.69517 -6.6772022
207.71326 -136.87575 -1.817858
209.79355 -135.52945 -3.6188631
209.77985 -135.38547 -2.336736
211.11862 -135.37988 -5.0006561
210.7287 -134.70076 -3.9041071
201.07121 -133.53108 -4.5267601
203.96732 -132.18927 -6.4925609
201.23712 -131.88387 -2.7115891
200.82088 -131.48645 -9.1935272
203.41383 -129.42566 -6.1160378
