# .PCD v0.7 - Point Cloud Data file format
VERSION 0.7
FIELDS x y z
SIZE 4 4 4
TYPE F F F
COUNT 1 1 1
WIDTH 162
HEIGHT 1
VIEWPOINT 0 0 0 1 0 0 0
POINTS 162
DATA ascii
200.56676 -56.728245 -0.176015
200.60074 -56.735703 -1.2346309
200.91608 -56.465557 -0.184769
215.89032 -49.60537 -4.0733991
201.92712 -45.394707 -4.8348622
202.37445 -43.531437 -4.680542
215.11717 -40.017738 -3.2593801
200.72757 -56.568325 -0.220171
200.84692 -56.513836 -0.48744899
201.27701 -55.616444 -0.15186
210.66965 -54.330582 0.69166601
210.97147 -54.350571 -2.464005
202.89552 -53.520527 -0.66761702
202.11687 -53.344582 -0.52726001
202.40169 -52.621559 -0.80238801
203.27138 -52.575264 -0.55918598
201.44022 -52.304749 -0.59765202
213.43114 -51.624733 -0.44431999
215.04343 -50.324795 -5.8313141
219.31384 -44.885059 -4.9280162
217.05489 -44.051331 -2.3797531
202.17242 -44.118069 -5.2054329
202.38272 -43.776703 -4.6564131
217.1937 -42.610577 -4.8280611
201.09387 -42.707649 -5.132802
200.18074 -41.817734 -5.0674
214.97957 -40.661388 -0.63235098
215.11165 -40.796619 -1.289399
214.25082 -40.610512 -2.978034
207.57788 -57.23835 -0.32551301
200.647 -56.73428 0.402439
201.3549 -56.022301 -0.50077999
210.81528 -54.300632 -1.928043
210.8999 -54.394547 -2.3181419
202.66241 -53.145927 -1.024539
201.72301 -52.304211 -0.44021201
201.7724 -52.287025 -1.06033
203.71027 -51.686924 -0.98206002
213.31146 -51.767063 -2.1748281
200.95093 -47.004288 -3.1149559
201.9351 -45.417812 -4.922873
202.11295 -44.333275 -5.144763
202.32883 -43.501873 -4.6655288
217.00174 -42.585022 -4.9687171
214.78622 -42.233276 -0.81079298
201.11259 -42.355381 -5.1412659
215.474 -41.691551 0.153265
217.16136 -41.066795 -0.68035197
215.22885 -40.627865 0.063867003
217.41791 -40.764271 0.066689
215.0038 -40.73019 -1.407236
213.41821 -40.695915 -4.4657369
213.82025 -40.181408 -5.8189998
201.1496 -55.647953 0.52491999
201.42245 -55.5172 -0.20378
201.3595 -51.820854 -0.53750801
213.39372 -51.791126 0.374143
201.48071 -51.510551 -0.503205
213.42957 -51.556824 -2.180413
202.47937 -51.337128 0.60801399
202.3017 -45.048645 -3.4761741
215.51184 -42.406021 -2.2456291
201.69211 -42.509945 -8.0313644
215.29083 -41.728474 -1.501052
215.15198 -41.081448 0.076490998
214.59184 -40.225727 -1.656034
200.20767 -57.664124 -1.820417
201.26956 -55.836132 0.43234399
210.62994 -54.460316 0.560938
201.90509 -53.901115 -0.28904101
202.21892 -53.406059 -0.37045899
203.30206 -53.381607 -0.386747
202.29565 -53.026234 -0.90785199
201.71028 -52.474274 -0.433806
203.51358 -51.987423 -1.09679
202.68445 -51.296841 -1.724969
210.26086 -47.202332 -1.099244
202.46925 -44.449013 -4.8436732
202.43262 -43.866646 -3.993329
217.23605 -43.083565 -1.285779
202.22122 -42.893394 -5.2315879
216.5849 -42.168488 -4.7959061
215.10529 -41.567394 -1.623757
214.43423 -41.404102 -3.325552
217.26379 -41.220108 0.079410002
215.15594 -40.645355 0.161781
207.55803 -57.146767 -1.963317
201.26987 -55.768318 0.201874
210.68779 -54.340813 0.568923
203.13184 -53.770386 -1.020521
203.49146 -53.380314 -0.96252
201.52658 -52.426052 -0.51564997
201.5498 -52.349113 -0.91533399
203.54224 -52.12743 -0.50632101
201.12752 -51.831985 -0.301478
213.38583 -51.718567 -1.930528
202.28806 -51.183861 0.476098
216.07919 -49.596626 -5.8077331
200.78181 -46.641056 -4.3740201
202.24512 -45.062408 -4.6591802
216.50356 -43.798229 -1.143208
216.73303 -43.637863 -2.5296299
215.74396 -42.593639 -2.2526829
201.24112 -42.524044 -5.1496639
215.58496 -42.276508 -1.268234
215.73233 -42.370724 -1.493504
214.55597 -40.488106 -1.518757
214.73235 -40.302322 -2.1170859
213.73245 -40.212189 -4.409934
200.30939 -56.800819 -1.224784
200.92625 -56.446281 -0.233542
201.39775 -56.103024 0.189788
201.15273 -55.771488 0.29298601
201.18811 -55.639542 -0.408622
201.2476 -55.625877 -0.489353
201.39943 -55.517487 -0.50465298
202.11693 -53.723778 -0.30258301
202.65485 -53.741661 -0.65869302
203.04544 -52.378143 -2.025327
201.48076 -51.992832 -0.91361099
215.67172 -49.581074 0.40375599
200.54367 -49.280434 -5.873013
209.58543 -48.675152 -0.37055299
202.2121 -45.132442 -4.8113961
218.77113 -43.141235 -5.1566691
216.05411 -41.832245 -5.1308179
213.78937 -41.360317 -3.065805
215.23187 -40.99144 -1.464728
214.69916 -40.276844 -1.291907
218.25092 -40.102097 0.061221998
215.26392 -40.079964 -3.2771831
207.58469 -57.04118 -0.30241501
201.13861 -56.292404 -0.23875199
201.35199 -56.050499 0.45131499
201.37175 -56.106018 -0.209674
201.19968 -56.182625 -1.534299
202.85889 -53.568024 -0.96354502
202.61044 -52.738743 -0.43433201
202.46762 -52.645248 -0.93567902
201.4747 -52.279419 -0.55885297
203.07463 -52.230667 -1.758813
216.32866 -51.774647 -5.9236832
202.23465 -51.592339 -1.0787621
202.91574 -51.11911 -1.732842
215.16534 -50.634258 -5.8128581
213.24911 -50.194923 -5.644156
215.99362 -49.389343 -4.4685512
209.99747 -46.485191 0.34604001
201.91719 -45.38681 -4.6609359
202.0173 -45.23877 -4.9602218
216.8866 -44.260597 -1.382764
218.84888 -43.097767 -4.9300122
201.51321 -43.135654 -5.1628861
215.65948 -42.831097 -2.2513289
215.85983 -42.044662 -5.1108809
216.36743 -42.04937 -5.0184832
200.24936 -42.163967 -5.2614102
215.21725 -41.126465 -1.6389689
214.74725 -40.873947 -2.13237
217.40413 -40.602066 0.57655197
213.60799 -40.463867 -4.6311889
214.36911 -40.063477 -3.0052321
