# .PCD v0.7 - Point Cloud Data file format
VERSION 0.7
FIELDS x y z
SIZE 4 4 4
TYPE F F F
COUNT 1 1 1
WIDTH 88
HEIGHT 1
VIEWPOINT 0 0 0 1 0 0 0
POINTS 88
DATA ascii
221.83412 -195.4832 -6.833364
230.00833 -195.38455 -6.927474
222.09213 -194.99681 -6.7178268
230.60562 -194.69029 -6.9603152
229.53696 -194.50818 -6.469871
231.02322 -194.21057 -6.9833841
229.82617 -194.15524 -6.4846401
233.09171 -193.10249 -7.0808082
232.1488 -192.76181 -6.5861421
229.98965 -192.32397 -6.6599631
233.75809 -192.23105 -7.1201758
230.18951 -192.10596 -6.6701288
235.62064 -191.28043 -7.2086701
233.30719 -191.18387 -6.717319
235.4063 -189.89395 -6.7451658
237.93178 -189.66309 -7.3056579
235.00978 -188.60782 -6.8998051
235.45262 -187.86046 -6.9274349
237.92877 -187.50485 -6.9136901
239.98309 -185.65182 -7.0636611
220.97124 -198.66103 -5.8090348
222.6066 -197.26312 -6.2418861
233.72531 -195.51431 -7.1925802
230.32117 -195.05415 -6.94418
222.72522 -194.64893 -6.8800402
222.51883 -194.56581 -6.7431641
230.23946 -193.69734 -6.5052862
233.496 -192.6176 -7.103981
229.77762 -192.55475 -6.6492252
232.51726 -192.27614 -6.6060662
236.74219 -191.53723 -7.1657839
232.22438 -190.9034 -6.762423
234.66486 -190.87059 -6.703651
234.84158 -190.66472 -6.7130952
236.16956 -190.5385 -7.242301
235.53975 -189.59877 -6.8262658
238.12512 -189.3877 -7.3177972
235.27823 -188.13818 -6.9167471
235.60129 -187.62903 -6.936502
238.44031 -186.60989 -6.9879298
236.54074 -186.09337 -6.2149968
234.97482 -184.88985 -6.27176
236.28729 -184.30316 -6.1595802
238.90198 -182.53783 -6.4003172
237.55676 -181.7594 -6.391377
238.59648 -181.49321 -6.2548599
239.16251 -180.41566 -6.4530349
224.12875 -199.8718 -6.8910432
221.56369 -198.10938 -5.639554
221.87306 -197.89314 -5.6495051
223.19968 -197.94977 -6.2546201
222.2486 -196.87361 -6.233952
222.15759 -195.01917 -6.336216
229.2215 -194.82712 -6.45468
222.74371 -194.39038 -6.7556472
222.8887 -194.28175 -6.7138338
232.88533 -193.33429 -7.0692668
229.65009 -192.82283 -6.6412988
230.42792 -191.75426 -6.683404
235.69629 -191.39972 -7.1913128
235.89738 -191.00867 -7.2145958
232.4323 -190.66202 -6.7734318
235.99081 -190.75253 -7.2317581
232.69759 -190.3134 -6.7880712
235.0896 -190.25931 -6.7983098
236.29156 -190.24509 -7.2519078
233.05544 -189.83012 -6.8080988
235.34409 -189.8746 -6.8142762
232.04379 -189.61287 -6.0874701
232.26135 -189.32709 -6.0974641
235.69923 -189.35028 -6.8364859
237.45209 -188.29697 -6.882411
237.74214 -187.8396 -6.9010491
238.13684 -187.10196 -6.9284611
238.60385 -181.7858 -6.25734
239.2316 -180.11795 -6.4611459
223.00928 -198.16272 -6.2452888
222.58841 -197.44185 -5.864028
222.24101 -197.02289 -5.8641391
221.67459 -195.38028 -6.6938419
222.30013 -195.05684 -6.8575668
222.08344 -188.40796 -4.7431612
221.87494 -196.57437 -5.7703419
221.90292 -195.19405 -6.7065349
222.07315 -196.53841 -6.690588
221.4866 -195.5797 -6.3060422
221.92116 -195.19778 -6.3257289
222.32137 -194.79353 -6.7309198
