# .PCD v0.7 - Point Cloud Data file format
VERSION 0.7
FIELDS x y z
SIZE 4 4 4
TYPE F F F
COUNT 1 1 1
WIDTH 1529
HEIGHT 1
VIEWPOINT 0 0 0 1 0 0 0
POINTS 1529
DATA ascii
31.120237 -21.157059 1.511345
39.501915 -21.022755 1.574209
33.101654 -21.077477 -0.52262503
32.890507 -21.011944 -1.483254
32.918312 -21.172607 -2.2675321
32.218269 -21.048006 -2.7439871
33.254982 -21.111664 -2.908534
33.497894 -21.183193 -2.8862469
31.571293 -21.120195 -4.0311608
33.435303 -21.084021 -4.2106738
33.628975 -21.180286 -5.0146708
38.107002 -20.808683 1.566731
31.914122 -20.835388 -2.3158879
31.542814 -20.85483 -2.570658
33.167931 -20.998568 -2.8036849
32.761234 -20.996174 -3.6607931
33.33366 -20.957775 -3.6217639
32.270229 -20.714756 1.458209
33.477798 -20.604855 -1.830227
31.693153 -20.574421 -2.868752
33.04303 -20.333595 -4.879663
32.489544 -20.183784 1.488622
32.854462 -20.166622 1.518864
38.992672 -20.071964 1.592554
39.974499 -20.099136 1.560385
32.291466 -36.236122 -0.23181599
31.029726 -36.169659 -2.725297
36.675545 -33.107956 -6.2893162
35.797153 -33.015221 -6.590661
25.71949 -31.525196 -6.7217708
35.682434 -30.940369 -5.634912
32.369682 -29.631342 -5.779366
33.361961 -28.156094 -0.303828
38.467773 -28.005569 -0.31593999
37.00597 -28.182564 -4.685925
37.751564 -28.086243 -5.394371
37.227341 -28.079079 -5.4075842
35.423969 -27.93091 1.743019
35.368294 -27.947104 1.483817
33.754211 -27.842451 1.287466
38.884449 -27.994808 0.43610901
38.877365 -27.988287 -0.190634
31.432684 -27.895573 -0.28361201
30.520821 -27.967762 -0.49386701
26.923046 -27.891552 -1.4204021
38.278496 -27.948948 -1.4574
39.370407 -27.9771 -1.73822
30.555447 -27.924271 -2.179853
36.524269 -27.872215 -2.0607741
36.655846 -27.89735 -2.109741
39.239685 -27.912775 -2.4732771
36.985832 -27.841599 -3.480123
39.409439 -27.924248 -3.825511
39.84697 -27.933056 -4.6962438
33.717274 -27.948608 -5.3993378
29.330845 -27.659718 1.739967
30.590317 -27.743063 1.440631
26.629528 -27.612692 0.95163
30.862114 -27.711937 0.62974697
32.171165 -27.765955 0.494706
31.425987 -27.611036 -0.067032002
33.861855 -27.666613 -0.060302
35.851906 -27.799429 -1.036065
28.7036 -27.607777 -2.0769401
27.525152 -27.700314 -2.2178781
28.372742 -27.602514 -2.544162
32.21476 -27.700584 -2.5998051
33.859623 -27.763786 -2.7200351
35.754845 -27.762012 -2.9843111
30.702377 -27.624249 -3.700716
32.52557 -27.65608 -4.1426649
35.349449 -27.713421 -4.2948599
35.277145 -27.741371 -5.1100812
27.841009 -27.696218 -5.515563
34.9114 -27.679487 -5.898067
35.351448 -27.719784 -5.9047208
35.419304 -27.683292 -7.3177209
36.347092 -27.729738 -7.4977221
32.510136 -27.604786 -9.2163849
25.160645 -27.535799 1.355074
25.309147 -27.522362 1.118726
25.760828 -27.553185 0.309187
28.973583 -27.546661 0.32117301
26.111309 -27.5326 -0.245628
26.078266 -27.477322 -1.684325
25.165148 -27.402685 -1.830135
27.480545 -27.493055 -2.2252951
26.261395 -27.456644 -2.678134
28.619015 -27.53698 -3.2485261
26.641642 -27.454268 -3.7893381
28.497635 -27.514837 -3.8913291
29.710365 -27.553169 -3.8105121
26.596582 -27.433289 -4.062129
29.961781 -27.481556 -4.2545862
26.17005 -27.421911 -4.8658762
28.592039 -27.48258 -5.425684
29.383236 -27.441927 -7.746891
27.65485 -27.481905 -9.9909735
26.659098 -27.43161 -10.14803
27.806232 -27.547607 -10.330284
31.995857 -27.464012 -11.351868
25.499283 -27.382851 -4.9557152
26.147074 -27.361736 -5.5306849
26.995409 -27.338684 -8.2131205
29.087536 -27.2798 -9.39534
26.523973 -27.237068 -12.259073
27.52261 -27.165321 -8.7631683
25.183659 -27.164314 -9.7619324
26.259111 -27.041241 -10.589456
35.863316 -26.938776 -2.1612289
30.575695 -26.905716 -2.3170159
35.454227 -26.849268 -2.28069
26.377794 -26.675743 -2.8332701
35.308754 -26.713718 -3.4635651
27.295849 -26.60611 -10.573841
25.391022 -26.489065 -10.644333
25.673218 -26.532135 -10.692921
25.892281 -26.227818 -2.9378641
35.107292 -26.330431 -7.7837481
35.852348 -26.154785 -1.78057
27.435703 -26.020729 -2.695951
27.002903 -26.037638 -3.7040031
34.895142 -25.922464 -0.137731
33.826958 -25.900726 -2.6896689
38.547958 -25.664614 1.440716
34.687271 -25.667896 1.12767
30.091934 -25.636005 -1.056024
35.32309 -25.686729 -2.6922071
35.407681 -25.702429 -3.468677
35.659924 -25.75256 -3.4250369
30.364937 -25.468157 1.506534
31.271385 -25.565681 1.5246871
27.437534 -25.418076 0.30369499
26.363632 -25.410717 -1.705537
27.841951 -25.522305 -2.6152649
34.867485 -25.494541 -7.0029101
27.182961 -25.366436 1.259032
27.340275 -25.301041 0.49738699
27.826401 -25.324697 -1.086336
36.694828 -25.391289 -1.016081
35.858582 -25.224913 -2.517662
34.972507 -25.351316 -5.46209
36.649708 -25.126141 1.067625
27.473442 -25.064754 -0.25081301
27.601753 -25.001614 -0.50938702
29.313938 -25.090111 -0.55540502
36.403175 -25.175472 -1.15373
36.246967 -25.166576 -1.722023
35.065964 -25.042965 -9.2570171
38.584778 -24.860806 1.450115
32.379234 -24.947294 1.21828
38.376564 -24.90797 1.3002191
26.900993 -24.924425 -0.26419899
32.534813 -24.836309 -0.49440399
29.474609 -24.959774 -1.275887
28.735344 -24.904146 -2.8802149
35.572102 -24.940363 -6.0639629
27.951883 -24.692284 0.59881699
32.333603 -24.70937 -0.084192
26.438559 -24.624626 -2.3721099
35.533363 -24.728138 -2.943727
25.672199 -24.658438 -5.0458698
27.713421 -24.630001 -6.759233
35.66291 -24.790018 -6.6469078
34.516636 -24.637951 -9.115633
32.361343 -24.48246 0.26733401
28.746014 -24.513405 0.070559002
32.713703 -24.50798 0.169267
36.615639 -24.495651 -0.215607
31.950005 -24.489182 -0.49040401
32.032562 -24.586603 -0.95714599
31.990116 -24.507641 -1.280877
29.265015 -24.546261 -1.67922
29.816833 -24.424957 -2.9411559
25.086426 -24.546562 -4.1120348
33.453392 -24.475758 -4.309896
34.967251 -24.407475 -4.767808
25.201834 -24.463354 -5.623735
34.668701 -24.481686 -9.8919182
36.805847 -24.325537 0.362279
26.624365 -24.255682 -0.28068501
32.183025 -24.314102 -0.63944203
30.024897 -24.240099 -0.81621999
33.570007 -24.218163 -3.52191
28.606482 -24.203394 -3.853514
35.45079 -24.315924 -4.4205918
28.094698 -24.217672 -4.949924
35.317768 -24.205475 -7.0629768
34.976963 -24.360201 -8.7914305
33.524601 -24.384815 -9.1299858
34.208687 -24.23608 -9.0764351
34.590439 -24.323996 -9.0144396
37.431046 -24.088776 0.901649
37.391644 -24.169231 0.244473
29.656374 -24.000422 -0.34670001
31.905418 -24.019407 -1.564553
25.752304 -24.099556 -2.58814
35.687561 -24.138712 -2.556283
36.046059 -24.110077 -3.3263421
27.356949 -24.105917 -4.4564028
28.481354 -24.060398 -4.4983549
27.892879 -24.177841 -5.4483209
34.384056 -24.067322 -8.720233
37.376106 -23.877895 0.72227502
37.402615 -23.857441 0.476329
36.724674 -23.866941 0.32751501
28.429092 -23.913975 -0.208066
29.560719 -23.974194 -0.46430999
30.238609 -23.817081 -0.55762601
25.35667 -23.854162 -1.416059
25.425079 -23.975592 -1.98815
25.418503 -23.803331 -2.9606569
28.47155 -23.914871 -3.290113
27.412909 -23.886833 -3.405623
35.017006 -23.864679 -4.6586299
34.117542 -23.826992 -8.6033421
34.588745 -23.899775 -8.7398596
37.336079 -23.793003 1.2952369
37.304379 -23.772572 0.50761801
35.275162 -23.680988 0.048051
36.734367 -23.757362 0.14613201
34.155174 -23.696369 -0.215294
33.512005 -23.754469 -0.70617402
34.999062 -23.647915 -0.94262999
29.959234 -23.688545 -1.502252
25.183849 -23.648584 -2.1238151
29.871979 -23.69277 -2.086478
25.744816 -23.641483 -2.5578351
26.834927 -23.721256 -2.9579501
27.26722 -23.678471 -3.793546
28.998329 -23.628738 -3.7995069
34.959747 -23.623501 -4.2659068
33.683559 -23.756514 -4.4528232
25.041353 -23.674736 -5.7862301
34.207413 -23.654915 -6.0578852
35.390869 -23.772907 -6.2403469
35.316933 -23.729469 -7.088408
27.222828 -23.666733 -7.3757882
34.647194 -23.732647 -8.4138794
37.354637 -23.542915 1.356757
34.006668 -23.4373 -0.115339
37.036419 -23.449795 -0.707847
36.736481 -23.510262 -0.86820298
26.901852 -23.564674 -1.048581
30.283035 -23.492599 -1.632341
27.389864 -23.42687 -2.19784
27.734632 -23.541616 -2.000577
30.079037 -23.448246 -2.5659959
27.173344 -23.566345 -3.531523
35.479858 -23.451691 -4.887547
34.636734 -23.462433 -5.5497642
34.600006 -23.550484 -5.7393651
33.558247 -23.558147 -7.1645389
32.027996 -23.230331 0.32725099
33.942196 -23.359503 0.0077490001
33.612648 -23.353855 -0.34304699
36.634766 -23.310104 -0.68771201
36.32906 -23.269833 -1.168234
36.873745 -23.359158 -1.547443
25.08227 -23.284302 -1.755311
35.694107 -23.222689 -1.81453
25.420065 -23.367384 -3.262357
27.879192 -23.274681 -3.399843
26.068777 -23.363743 -3.483036
34.693642 -23.218405 -3.7363491
34.634712 -23.343758 -4.2870011
27.938446 -23.370049 -4.8652601
26.925388 -23.209499 -5.2331338
27.821575 -23.264517 -6.530129
36.484486 -23.00362 -0.294045
36.265175 -23.178907 -0.48758
27.391638 -23.002611 -1.548514
27.486832 -23.093094 -1.706221
27.635849 -23.168362 -2.0913589
27.837631 -23.182425 -2.1317
32.529125 -23.174603 -2.253123
29.645182 -23.10886 -2.4172361
34.465736 -23.06773 -3.0338731
34.277454 -23.046976 -3.575098
25.057652 -23.145342 -3.6905789
28.868423 -23.039421 -4.500257
26.709734 -23.029228 -5.4538031
34.132034 -23.041515 -5.5135021
28.450151 -23.169142 -5.807786
34.267342 -22.913555 -0.585868
35.692413 -22.926365 -0.667404
34.888355 -22.979012 -1.098139
35.692642 -22.911606 -1.773499
25.957348 -22.924324 -1.842006
35.640049 -22.944798 -2.374578
34.476479 -22.970634 -2.746696
33.989006 -22.810499 -4.3846278
39.075394 -22.730415 1.498593
31.717752 -22.700081 1.273111
38.000454 -22.641914 1.3789051
31.281601 -22.630978 1.114653
32.022202 -22.707451 1.030041
33.966324 -22.637886 -0.34503999
34.434399 -22.694122 -0.47804001
34.109631 -22.650814 -3.5244031
35.692028 -22.487032 1.43137
34.458946 -22.570271 -2.9139459
29.820513 -22.4121 -3.3706291
34.144379 -22.59016 -4.485024
33.838169 -22.405643 -4.9447889
37.474945 -22.394867 1.470479
25.258183 -22.258053 -1.119723
34.165554 -22.230946 -2.1197939
32.025337 -22.366779 -2.7894671
33.506413 -22.241806 -5.350976
25.819946 -22.074982 1.424453
33.048775 -22.138523 1.4622149
35.064659 -22.117962 1.441819
39.024258 -22.153793 1.482631
34.505936 -22.007423 -0.73979002
34.138226 -22.021637 -0.82908303
33.387703 -22.013472 -1.322372
34.455208 -22.148216 -3.5516751
33.754684 -22.030022 -4.1071372
30.178738 -21.920748 1.465168
34.274067 -21.986383 -0.76142198
34.720009 -21.962416 -0.78977901
33.573193 -21.813875 -3.1242261
34.487759 -21.868916 -3.858084
33.904907 -21.837574 -4.1410761
26.574924 -21.991722 -4.269146
32.087669 -21.718639 1.4782439
34.256184 -21.732031 1.508141
34.403133 -21.603693 1.5051
25.666084 -21.73214 1.389461
34.459682 -21.790386 -0.85771102
34.762138 -21.657654 -1.849939
33.872833 -21.727167 -2.183742
32.570732 -21.74284 -2.4065189
31.480789 -21.677439 -3.07236
30.539595 -21.47016 1.454899
30.724693 -21.465691 1.400692
31.881218 -21.487293 1.467388
33.497093 -21.421534 -1.049824
34.434879 -21.494812 -1.303416
32.47036 -21.497503 -1.483889
33.827114 -21.538044 -1.417576
33.542397 -21.462656 -2.0799129
34.321854 -21.496677 -2.094265
34.358631 -21.401154 -2.2528951
33.752449 -21.505789 -2.9154651
34.082855 -21.453526 -3.136272
34.680241 -21.459375 -3.0056081
33.353355 -21.436285 -3.2947099
34.298229 -21.592421 -3.421962
33.642445 -21.484953 -4.7446752
33.469162 -21.408613 -5.7695179
28.131161 -21.372437 1.436213
33.466064 -21.324608 -0.52643597
33.289471 -21.257545 -0.87315297
34.61071 -21.371056 -1.383314
31.889458 -21.314762 -1.96975
34.250072 -21.377796 -2.4850769
32.041943 -21.238596 -3.1597919
33.296474 -21.346418 -3.087327
31.555111 -21.388294 -3.323302
33.667706 -21.33536 -4.393682
28.661827 -21.055431 1.5141391
31.830795 -21.1383 1.5478441
39.067322 -21.075573 1.550952
33.276134 -21.072451 -0.50953501
32.483238 -21.143238 -0.72675699
34.053123 -21.190947 -2.1946199
32.687897 -21.03598 -2.5862091
32.301655 -21.071121 -3.4388809
33.687252 -21.133818 -4.475245
33.32032 -21.098673 -4.9170551
26.238628 -20.825241 1.483384
26.659702 -20.862823 1.485929
31.050549 -20.917139 1.434997
32.648865 -20.955822 -0.92316401
33.135437 -20.95344 -1.668731
32.71246 -20.962196 -2.183717
31.586159 -20.853626 -2.34519
32.475105 -20.891769 -2.5805249
33.886536 -20.884785 -2.5238819
32.691681 -20.97419 -3.4027851
33.543556 -20.738716 1.548189
33.299095 -20.701427 -1.871577
32.39706 -20.777931 -2.2575409
32.34129 -20.777941 -2.4334309
31.544991 -20.710003 -2.784915
32.917702 -20.726894 -2.739022
33.408798 -20.77916 -3.7341139
33.364365 -20.637455 -4.4896011
29.376862 -20.545769 1.476142
31.521755 -20.444988 -4.3204131
33.151211 -20.407187 -4.3410091
27.005898 -20.259155 1.5243289
36.997444 -20.13073 1.570815
33.069923 -20.10582 -4.371161
35.376648 -36.339397 -2.6875811
35.656067 -36.370941 -2.672622
37.253853 -33.166962 -6.0271468
32.690601 -32.893646 -6.7845869
25.702211 -31.905926 -6.7885342
32.386505 -30.226084 -6.2016459
32.366081 -29.540609 -6.6920819
37.400486 -28.212431 -0.233217
38.13826 -28.234308 -0.33746001
37.415127 -28.267815 -0.66953301
39.349846 -28.085217 1.628633
38.979485 -28.027496 0.73730999
30.532543 -28.033628 -0.25050399
39.980339 -28.035175 -0.92901599
30.995195 -28.02737 -1.019949
39.893429 -28.010004 -3.574795
37.337608 -28.104769 -5.0036268
34.651672 -27.894691 1.443846
35.07563 -27.913155 1.377455
34.089596 -27.847439 1.116285
35.642357 -27.885 0.265809
36.523148 -27.868591 0.182208
39.469917 -27.935619 0.102773
31.082115 -27.976528 -0.29931501
34.688351 -27.836763 -0.206966
30.695267 -27.960232 -1.12246
35.005348 -27.863569 -1.113741
36.713135 -27.897022 -1.37164
31.455145 -27.861198 -1.490617
27.038666 -27.843998 -1.770914
36.674911 -27.874958 -1.827607
36.265465 -27.867357 -2.133018
39.046623 -27.967995 -2.0496659
39.768665 -27.952946 -2.133692
36.649658 -27.860817 -2.6522739
37.784668 -27.8985 -2.620702
38.568699 -27.936205 -2.6409681
39.011597 -27.942928 -2.6435721
39.717155 -27.960896 -3.0235331
36.589825 -27.817863 -3.789552
39.838837 -27.928453 -4.3359861
39.870529 -27.934479 -4.4380088
30.224731 -27.883966 -4.9865179
39.490158 -27.933643 -4.882906
39.147194 -27.877531 -5.749609
37.881821 -27.802629 -7.3845282
28.556862 -27.669342 1.645494
30.433258 -27.714638 1.642473
31.822014 -27.771471 1.737116
29.441658 -27.701103 1.425264
31.40279 -27.762644 1.352998
31.830376 -27.776642 0.50739199
35.814449 -27.745596 0.51166397
27.782696 -27.619179 0.35513201
30.158333 -27.669668 0.35756001
26.60355 -27.799776 -0.293268
29.030052 -27.624863 -0.366034
28.23468 -27.636923 -0.546152
30.012226 -27.626329 -0.74908203
31.560511 -27.679401 -1.905827
35.005615 -27.797832 -2.964149
32.154625 -27.682274 -3.0780561
34.285812 -27.782818 -3.2562039
31.844294 -27.660568 -3.7993579
34.05764 -27.734703 -3.72083
35.851677 -27.67771 -4.5387712
32.44117 -27.607538 -4.791853
37.896202 -27.681961 -4.6536951
36.197823 -27.776375 -5.3807631
35.171974 -27.729242 -6.1623969
35.419613 -27.706921 -6.1029739
34.99461 -27.691267 -6.285027
33.963673 -27.631432 -7.43648
34.436836 -27.602524 -8.0910788
34.234673 -27.620174 -8.2698002
25.678417 -27.541008 1.5237941
27.294453 -27.590721 1.0473
27.831287 -27.587513 0.86330003
25.793018 -27.514351 0.585177
31.032734 -27.574837 0.020979
26.54808 -27.437283 -0.124559
29.707203 -27.541367 -0.07406
28.536081 -27.558912 -2.0788059
29.411503 -27.454868 -2.199465
29.36479 -27.574944 -2.6610169
26.220133 -27.429974 -3.104871
29.435703 -27.526073 -3.407829
26.097839 -27.410088 -3.892144
26.146265 -27.422441 -4.0706358
35.819801 -27.563063 -7.4009662
29.66461 -27.450417 -7.96454
29.663275 -27.466404 -8.2133436
27.792774 -27.558418 -9.1412125
25.692095 -27.391253 -3.7984769
25.378479 -27.348866 -5.4574509
25.111134 -27.335278 -6.3541708
25.375488 -27.325615 -7.1394639
27.422953 -27.389502 -7.4608121
29.266205 -27.395248 -8.1616173
25.163349 -27.217602 -9.620739
25.97794 -27.222721 -10.590744
27.341675 -27.291286 -10.984106
27.336962 -27.262077 -11.394943
32.967297 -27.009232 -2.155926
36.603886 -27.135515 -2.327327
26.115429 -27.176907 -8.32658
25.011257 -27.180677 -10.550162
25.456184 -27.199886 -10.451883
25.114635 -27.158966 -11.330086
36.312134 -26.923706 -0.46314299
35.497261 -26.884705 -4.110683
34.635799 -26.686447 -0.27542701
25.085672 -26.629505 -2.087935
26.28764 -26.645628 -2.7111261
28.952463 -26.790913 -2.709209
26.719757 -26.714855 -4.1719699
27.471786 -26.683506 -4.5903211
34.253262 -26.66341 -4.8943911
27.710861 -26.691498 -10.574429
36.562439 -26.50881 -0.68302798
27.477448 -26.522673 -3.195823
34.213966 -26.55402 -5.4415331
25.598492 -26.500341 -10.59898
25.937279 -26.51041 -10.582376
27.32823 -26.573765 -10.670463
27.458788 -26.300465 -1.340148
36.537659 -26.256054 -1.365842
35.967537 -26.129272 -1.5409811
36.21693 -26.127441 -1.5081199
36.270134 -26.020176 -2.5699911
36.208488 -25.997648 -0.559313
26.261303 -25.862434 -1.300362
36.276886 -25.78754 1.687529
28.802145 -25.701883 1.568579
32.226425 -25.62397 1.5576479
28.288513 -25.762802 -1.148716
28.952381 -25.73177 -1.259921
28.375656 -25.680817 -4.0682631
35.535896 -25.745022 -8.0856991
30.28688 -25.426319 1.623275
32.032257 -25.464911 1.627654
31.915691 -25.534447 1.527328
26.937492 -25.426964 -0.83610302
27.337959 -25.41568 -1.67837
29.361122 -25.496153 -1.803045
35.68713 -25.516674 -6.8435078
27.432692 -25.349785 1.472859
27.519274 -25.236191 -0.214222
29.464939 -25.32896 -0.32102901
34.945076 -25.288687 -8.5317631
32.232033 -25.064821 1.621136
32.444492 -25.004532 0.88730198
37.387821 -25.120096 0.57560301
37.405418 -25.083872 0.26410699
28.405487 -25.107418 0.124876
26.967052 -25.176731 -1.385934
27.947514 -25.08585 -2.4653151
32.293976 -24.831074 0.50379598
37.415436 -24.903828 0.49930599
33.971714 -24.881948 -0.997302
26.577227 -24.877872 -1.650278
35.880386 -24.871767 -2.114656
36.151825 -24.82378 -2.1957359
26.239626 -24.924614 -4.1653051
28.193974 -24.971468 -5.4563742
35.138866 -24.948822 -9.8713017
28.0966 -24.728601 0.56688499
32.470444 -24.676346 0.30244601
26.476437 -24.645798 -0.65572
25.689487 -24.706581 -0.89947599
33.292374 -24.755611 -0.89522499
28.270124 -24.61264 -2.2212601
32.932076 -24.740517 -2.3637209
27.43346 -24.666576 -2.861763
27.056311 -24.781719 -3.7445631
35.473465 -24.797922 -5.444128
34.902939 -24.615059 -6.7138238
28.118307 -24.621792 -6.8661952
27.768736 -24.594084 0.454409
36.702209 -24.51602 0.31137401
32.631207 -24.459522 -0.035856999
36.501049 -24.570259 -0.50573999
32.252438 -24.470125 -0.72351998
27.0382 -24.596844 -1.515658
28.791506 -24.432535 -1.526643
30.135239 -24.532732 -1.4303761
27.857418 -24.50193 -1.907214
35.991222 -24.561125 -3.1587479
27.317532 -24.566254 -3.6717429
28.537676 -24.440762 -4.0226021
36.311661 -24.483217 -4.5701461
35.455055 -24.460695 -4.6374698
35.800201 -24.509003 -4.9472418
35.070366 -24.555244 -8.132082
37.432846 -24.30205 0.078442998
29.023434 -24.257084 -1.178637
36.983215 -24.240118 -1.276538
28.976147 -24.29475 -1.657609
36.282692 -24.266651 -1.828607
31.890057 -24.250973 -2.353395
26.964035 -24.365822 -2.7665529
35.728828 -24.24382 -3.064044
34.29575 -24.280714 -3.4193349
34.908577 -24.211897 -7.8370819
37.374264 -24.101461 0.55901402
36.821312 -24.098429 0.365363
26.509396 -24.18721 -0.44847
36.908031 -24.171457 -0.53454202
28.135807 -24.186134 -0.62514102
25.472496 -24.077202 -1.6808619
29.919195 -24.158386 -1.667276
30.148554 -24.123262 -1.620147
31.70849 -24.122181 -2.198123
26.64006 -24.180319 -2.624872
29.376766 -24.162016 -3.05392
29.562496 -24.051014 -4.357512
35.485752 -24.143507 -5.5178881
28.109365 -24.180796 -5.9477968
28.202269 -24.185825 -6.4840879
28.421713 -24.170752 -6.4048109
34.745468 -24.142488 -6.6546602
27.450962 -24.121313 -6.9405761
37.366528 -23.926231 0.24565101
36.824089 -23.804733 -0.007276
30.149237 -23.811211 -0.548935
30.225449 -23.905781 -0.70283097
25.775597 -23.848518 -1.455067
28.457184 -23.988075 -1.438959
25.654331 -23.880054 -2.236871
35.493095 -23.812588 -2.2897649
26.521717 -23.864044 -2.710701
30.277229 -23.866795 -2.6624351
26.29497 -23.941204 -4.483634
25.929661 -23.927193 -5.3502302
34.577469 -23.834427 -6.2318721
34.747223 -23.858391 -7.4356332
35.143757 -23.884354 -7.9260998
36.738594 -23.758308 0.32947099
37.367111 -23.74851 0.348524
34.797974 -23.763914 -0.28763801
36.269997 -23.601416 -0.61202502
34.316269 -23.703197 -2.15169
36.131599 -23.70697 -2.1305411
30.096306 -23.659637 -2.3163249
35.750652 -23.730654 -2.5911751
25.410351 -23.661858 -2.6452579
26.269855 -23.659916 -2.9451511
28.202333 -23.670532 -5.4111929
33.418846 -23.625866 -5.951385
27.863518 -23.764597 -6.2423029
27.836636 -23.79744 -6.8437529
34.502411 -23.768829 -8.1568336
28.308764 -23.500523 -0.106825
28.457327 -23.4853 -0.106333
33.556671 -23.481516 -0.301175
35.021542 -23.407644 -0.55905998
34.594387 -23.448353 -0.64714199
26.71496 -23.498821 -1.3093311
29.853703 -23.516953 -1.546497
36.83271 -23.55827 -1.5302759
26.170044 -23.414064 -1.9044
36.522636 -23.483044 -1.835639
27.842453 -23.499985 -2.2258279
35.439693 -23.580122 -2.204715
35.846054 -23.483723 -2.3901739
29.86113 -23.464565 -2.4418361
30.124815 -23.54196 -2.697685
26.086639 -23.452675 -2.9076021
25.766481 -23.410572 -4.976903
26.614227 -23.55327 -4.879334
28.224739 -23.444582 -5.530983
33.759903 -23.50906 -6.325223
38.604141 -23.257118 1.430143
31.943712 -23.238749 0.34793699
35.06284 -23.315884 -0.082856998
36.640678 -23.372456 -0.27922201
25.650995 -23.21011 -0.74977499
36.199375 -23.25844 -1.26026
29.918541 -23.333672 -2.2528679
27.863132 -23.309832 -3.103606
29.420979 -23.295666 -3.0817821
28.052044 -23.366777 -3.4376359
36.030479 -23.044048 -0.28422901
32.389198 -23.017231 -0.58360898
35.301331 -23.183445 -0.47815999
35.414753 -23.155102 -1.518622
25.893646 -23.071716 -1.728915
26.036383 -23.003334 -1.684305
34.545944 -23.193027 -3.556776
28.200483 -23.050297 -3.697221
26.846722 -23.159836 -4.048542
29.0681 -23.160353 -4.061142
34.886162 -23.076141 -4.7214689
34.906662 -23.02581 -4.9034352
28.309654 -23.102079 -5.7857862
33.229492 -23.006609 -5.6051559
31.750332 -22.865299 1.128226
34.110493 -22.928274 -0.65371197
34.626793 -22.95726 -0.950993
36.194016 -22.830536 -0.91580498
27.293427 -22.918159 -1.604746
25.594646 -22.843304 -2.0435309
34.236557 -22.881054 -2.513741
27.311905 -22.967627 -4.3655181
34.728394 -22.986851 -4.6236472
33.946274 -22.955799 -5.3194828
34.473663 -22.865719 -6.7392201
34.066723 -22.680531 -0.33371401
34.476112 -22.707905 -0.255748
25.106798 -22.670809 -1.6317329
34.283997 -22.68462 -1.689496
34.507469 -22.629677 -4.1819191
32.296932 -22.523937 -0.87667698
34.456711 -22.522594 -1.125808
34.782806 -22.477865 -1.95427
25.068085 -22.529291 -2.184448
34.899742 -22.461807 -2.0961969
26.665646 -22.425304 -3.978344
25.285061 -22.322983 -1.483243
34.126381 -22.219353 -1.814079
29.673012 -22.329483 -3.137336
30.010544 -22.344263 -3.303643
33.689613 -22.295235 -4.2542968
32.831905 -22.211605 -5.7553821
33.581684 -22.108009 -1.015861
33.800526 -22.110834 -1.307829
25.093781 -22.116901 -2.1431069
34.611015 -22.194529 -2.3016701
27.53657 -22.045227 -3.664789
34.449104 -22.199139 -3.87707
33.687267 -22.1751 -4.307796
33.679188 -22.106493 -4.6124358
34.094704 -22.133945 -4.906774
32.747765 -22.18326 -6.1315451
32.999249 -21.918064 1.470693
26.561478 -21.877495 1.393495
32.201035 -21.896049 -1.513756
31.952648 -21.934835 -1.871688
34.292839 -21.918505 -3.1806099
34.843391 -21.903618 -3.4042749
33.732521 -21.91011 -5.365757
34.311867 -21.623585 -1.9116271
31.321516 -21.796169 -3.5456531
34.474594 -21.651272 -3.5072091
32.107742 -21.547457 -0.75825202
33.674145 -21.492828 -1.081753
34.50042 -21.526806 -1.463954
33.635544 -21.45079 -1.763683
33.845284 -21.502878 -2.0878489
34.564117 -21.492727 -2.6673501
33.954311 -21.480837 -3.3754399
33.664371 -21.488226 -3.770735
33.852562 -21.547438 -3.7841589
33.02998 -21.280533 1.523787
32.19883 -21.298681 -0.72701502
33.063591 -21.364525 -1.222736
33.198895 -21.27335 -1.6917419
32.632004 -21.251312 -2.0845649
33.322891 -21.340359 -2.1087899
33.296799 -21.274485 -4.155488
36.594925 -21.037643 1.5652519
32.11515 -21.079357 -1.963359
33.234974 -21.028301 -1.88736
31.933119 -21.054081 -2.9211099
32.35239 -21.046326 -2.8614609
32.608429 -21.016273 -3.28214
33.08194 -21.113924 -3.2946661
32.163918 -21.007627 -3.4828589
32.856857 -21.036249 -3.5383749
33.628681 -21.113831 -4.3417168
26.854521 -20.888115 1.4610651
37.537308 -20.93552 1.503666
32.806282 -20.912256 -1.602653
32.431541 -20.997841 -2.21644
33.588928 -20.935423 -2.353231
32.910805 -20.93037 -2.5161469
32.750923 -20.870272 -2.6700399
33.461937 -20.956263 -4.3293762
33.471016 -20.808754 -4.7364621
32.136307 -20.977531 -5.2850909
28.132339 -20.698341 1.468552
30.959095 -20.742924 1.475549
35.383514 -20.637245 1.5342849
33.163895 -20.751858 -1.894758
31.980064 -20.665163 -2.7656109
32.91423 -20.726652 -3.2534959
33.388988 -20.745676 -3.68168
31.793446 -20.618099 -5.2978792
28.937378 -20.543453 1.4680279
31.968376 -20.434118 1.447156
31.822788 -20.52688 -2.8530879
31.40753 -20.201986 1.523329
33.180168 -20.231594 -3.9097829
38.549694 -36.486568 -0.80337602
35.908188 -36.400978 -2.660306
34.937771 -36.332504 -2.723033
27.695236 -36.071106 -2.7273891
37.920876 -33.182037 -5.19238
32.907829 -32.916874 -6.7351208
25.755428 -32.541611 -6.8888111
36.108406 -31.952169 -5.3686428
37.843224 -28.268158 -0.71765298
37.789925 -28.250473 -0.93644398
39.829819 -28.079641 1.655515
39.048599 -28.065344 1.518167
39.351585 -28.076748 1.531611
38.94577 -28.028622 1.016034
39.782639 -28.046087 -0.133893
30.061127 -28.04936 -0.231098
31.045931 -28.053869 -0.319823
39.427376 -28.023888 -0.27547699
39.749821 -28.06072 -0.252657
30.419813 -28.015789 -4.6095662
34.959419 -27.898703 1.660838
37.405838 -27.986013 1.47848
30.308903 -27.945545 -0.13714799
38.619034 -27.986824 -0.131846
30.157984 -27.945572 -0.333112
36.457005 -27.90427 -0.218895
27.651672 -27.894878 -0.556292
38.600212 -27.97023 -0.64083099
39.680218 -27.993855 -0.99634802
27.730545 -27.874783 -1.3038681
35.427132 -27.838501 -1.263033
38.297962 -27.953388 -1.664758
36.896461 -27.978416 -2.186089
38.266003 -27.938343 -2.071104
39.788132 -27.957554 -3.397877
36.659565 -27.800161 -5.1035471
36.727116 -27.801895 -5.3781071
39.352287 -27.862017 -5.9726019
29.786972 -27.718319 1.724492
30.148308 -27.731308 1.363432
26.331367 -27.608595 0.947523
30.540699 -27.703094 0.95335299
28.076185 -27.626156 0.37567401
35.950191 -27.735205 0.281515
32.110703 -27.689548 -1.814937
33.425095 -27.743908 -2.9812551
34.064419 -27.761992 -3.079077
31.607399 -27.603451 -4.5071969
36.711662 -27.755835 -6.3876352
38.669769 -27.784311 -7.1842442
33.68671 -27.661053 -8.526701
27.015511 -27.586191 1.471433
25.323263 -27.540237 1.304316
28.972397 -27.548012 1.225727
28.943996 -27.545166 0.171344
25.77253 -27.426754 -0.146584
27.034718 -27.43585 -0.041848999
28.674824 -27.571831 -0.18792599
31.68441 -27.592201 -0.052425001
25.833282 -27.47998 -1.451749
28.27401 -27.570362 -2.072365
26.599199 -27.461708 -2.6308849
31.122639 -27.591578 -3.348886
39.922493 -27.406738 -6.2865648
29.436563 -27.444101 -7.1181111
30.054207 -27.491497 -7.012764
34.236462 -27.488096 -11.43253
25.064974 -27.386616 -3.7513731
25.062197 -27.356169 -4.8566632
25.1975 -27.367481 -5.4276099
25.745104 -27.35091 -7.1150289
26.629786 -27.37829 -7.0469842
28.112976 -27.371017 -7.860652
25.873577 -27.289494 -8.158186
26.230965 -27.247595 -8.5573874
28.165272 -27.313721 -8.6124191
26.109608 -27.252331 -9.2035799
28.153412 -27.292908 -11.41378
27.779753 -27.263405 -11.880786
32.43121 -27.381735 -12.460793
26.09713 -27.179287 -8.4086437
26.964432 -27.16366 -12.274373
26.970222 -27.16713 -12.43122
26.428545 -26.821821 -2.6823239
27.242857 -26.82325 -6.5137272
35.132805 -26.932549 -6.5394049
35.708038 -26.959042 -6.4414749
27.384472 -26.669159 -6.450057
30.229736 -26.742668 -6.4886231
34.909668 -26.537178 -4.8927279
36.670212 -26.319836 -0.73913199
35.219177 -26.38072 -3.347975
28.75709 -26.188353 -1.027923
29.388502 -26.036947 -1.293154
28.223677 -25.80344 -1.2447619
36.63596 -25.990253 -1.325905
25.451553 -25.979803 -1.988794
36.409988 -25.968889 -2.5108671
35.711952 -25.910439 -3.857852
34.975113 -25.818699 -5.6267228
35.094978 -25.96254 -6.3988829
34.702118 -25.610626 0.233485
29.378616 -25.791689 -0.98411602
28.636227 -25.760761 -1.047624
30.414822 -25.68652 -1.282334
28.126572 -25.713261 -2.5741551
34.893803 -25.648878 -5.2915411
32.045433 -25.468895 1.567486
33.188728 -25.576218 -0.69454402
32.062355 -25.56316 -1.2013119
26.648785 -25.488312 -1.711638
28.159492 -25.467224 -1.904497
28.251322 -25.442562 -2.1989591
33.398838 -25.49391 -2.249898
37.46862 -25.315189 1.492066
35.929684 -25.39817 -1.8417079
28.095032 -25.392576 -4.5491281
28.164913 -25.227365 -5.1084442
35.486603 -25.326473 -6.6511579
35.469383 -25.329704 -8.1818142
35.078709 -25.22797 -9.9154921
37.387428 -25.066862 1.1365089
37.413254 -25.163424 0.94139099
28.187681 -25.038628 0.35261899
37.457253 -25.157579 0.0094950004
36.535198 -25.168316 -1.738487
27.448362 -25.002474 -2.3232639
27.425747 -25.085541 -3.745801
35.538612 -25.118853 -5.709621
35.884979 -25.090336 -5.7684169
35.665916 -25.143536 -6.9591331
32.37458 -24.929855 1.131686
36.693642 -24.885059 0.219074
26.642426 -24.885347 -1.181205
26.978516 -24.958752 -1.773759
28.438528 -24.802273 -2.18032
27.368988 -24.820955 -2.4768219
28.677225 -24.8255 -2.432658
35.035145 -24.894691 -3.5591459
35.096035 -24.935501 -4.1980791
35.523537 -24.883717 -5.7519631
35.246368 -24.960064 -8.0527344
32.342262 -24.615269 0.44442201
29.476452 -24.720631 -0.23141199
25.993713 -24.608402 -0.73085499
28.896049 -24.644043 -0.95417303
32.614925 -24.613104 -0.92475897
34.732735 -24.710293 -1.806581
26.113342 -24.650875 -2.5926399
35.708565 -24.673012 -2.5868771
36.813137 -24.475826 0.93020099
37.43428 -24.545551 0.97384202
37.384441 -24.556087 0.516855
26.667503 -24.45709 -0.053282999
29.663919 -24.494823 -0.442417
28.892445 -24.596279 -0.94771397
37.285072 -24.515739 -0.98479998
29.775837 -24.451492 -1.907627
27.437569 -24.425354 -4.8811002
27.477276 -24.571732 -6.052588
34.81311 -24.567133 -9.0432758
28.694769 -24.300455 -0.31211901
29.643578 -24.268688 -0.30761701
32.466309 -24.215199 -0.900217
30.692295 -24.318859 -2.171057
32.515301 -24.345459 -2.2283089
36.482262 -24.278543 -3.7558711
35.768642 -24.34268 -3.9843259
25.239864 -24.31637 -4.214292
35.635235 -24.361687 -4.220006
36.176094 -24.335516 -4.6839309
34.784912 -24.205957 -5.4332809
36.713711 -24.07263 0.84375501
36.952534 -24.072594 -0.274113
36.936691 -24.112448 -1.292046
29.852671 -24.157648 -2.169348
28.221249 -24.055237 -3.728174
26.692877 -24.011715 -4.2218151
25.465574 -24.089666 -6.406405
37.426384 -23.82814 0.249129
33.639633 -23.836605 -0.84326601
25.822929 -23.907543 -1.382357
36.539249 -23.888895 -1.849172
29.076775 -23.86202 -3.344053
25.296709 -23.972675 -4.561872
28.115704 -23.893757 -4.5858092
35.519222 -23.845459 -6.530098
37.117165 -23.749439 1.117222
36.763115 -23.773891 0.96343201
37.095158 -23.758377 0.86632901
37.331917 -23.756313 0.95927399
36.948215 -23.738369 0.285281
27.940308 -23.799442 -0.063277997
28.470623 -23.681282 -0.29451901
28.084511 -23.747272 -0.69751298
27.140232 -23.661163 -0.91215801
37.535038 -23.649361 -0.99580699
36.378502 -23.607418 -1.292183
26.54863 -23.730501 -1.759302
30.220442 -23.627415 -1.6048059
25.796785 -23.668564 -1.855172
36.259285 -23.719589 -2.130739
36.463573 -23.750452 -2.1278069
29.560183 -23.62035 -2.4921589
29.06868 -23.698257 -2.9030769
30.288261 -23.762154 -3.737422
27.099787 -23.728506 -4.543025
35.142857 -23.61459 -4.522613
26.233355 -23.772766 -4.955924
27.09284 -23.792873 -5.0007091
27.298088 -23.729919 -6.7071819
33.88974 -23.60355 -7.851481
36.796234 -23.422646 -0.43492499
36.278908 -23.431759 -1.130785
27.158445 -23.500704 -1.3033201
30.306919 -23.516867 -1.370585
35.792126 -23.426559 -1.903512
26.69759 -23.554489 -2.078819
31.896549 -23.416874 -2.0977089
25.045012 -23.541222 -2.6472731
25.376383 -23.451059 -2.6164081
26.483458 -23.551237 -2.9622509
35.303169 -23.450264 -3.8120351
39.320335 -23.320951 1.4881231
38.812057 -23.235683 1.237995
27.880127 -23.281267 -0.34826699
28.332336 -23.280706 -0.37103599
28.493412 -23.227663 -0.30650899
34.108376 -23.327789 -0.491404
35.926308 -23.266768 -0.530945
28.01762 -23.219032 -0.62388903
26.491142 -23.324978 -1.0523371
32.21608 -23.346642 -1.51923
34.842335 -23.290676 -1.432132
36.903183 -23.349812 -1.6868761
27.085423 -23.238342 -1.900918
34.351967 -23.309641 -1.946048
25.669949 -23.386703 -2.5726991
35.26228 -23.304529 -2.642545
27.149382 -23.39994 -2.8769419
27.392517 -23.385466 -3.4460311
25.238338 -23.352936 -3.732034
35.317593 -23.296537 -3.90874
29.591003 -23.246651 -4.0586219
29.599358 -23.355825 -4.3388882
25.552027 -23.373436 -5.070065
26.978096 -23.332851 -6.2668009
38.668617 -23.036942 1.459326
32.238388 -23.149954 1.224409
35.311668 -23.088352 -0.168392
35.009762 -23.058094 -0.48217499
36.98946 -23.176676 -0.70273101
25.279961 -23.03767 -0.88685501
36.455837 -23.131765 -1.080705
32.473969 -23.185925 -1.687734
35.397591 -23.170597 -1.736361
27.065756 -23.097216 -2.060771
27.542509 -23.163439 -2.084537
27.765499 -23.163773 -2.2755949
34.733295 -23.198086 -2.7992129
31.79624 -23.006634 -3.110198
34.145508 -23.139498 -5.7169471
34.819771 -22.861492 -0.71327299
35.006729 -22.948406 -1.378197
36.484993 -22.881666 -1.350245
32.43626 -22.921455 -1.468482
35.487156 -22.943611 -2.317044
36.105232 -22.88126 -2.8395669
29.519283 -22.89996 -3.0481851
26.651352 -22.90089 -4.2455058
34.887287 -22.974201 -5.0484529
32.051983 -22.690601 0.61390001
34.906498 -22.636253 -1.265239
35.835396 -22.74721 -1.785246
25.15233 -22.68096 -1.937951
36.073784 -22.717091 -2.5790479
36.157982 -22.720881 -2.604928
28.999268 -22.757835 -3.8318009
36.638554 -22.59531 1.457901
31.412647 -22.584948 1.095524
33.752987 -22.475876 -4.508667
25.648563 -22.380436 -1.695097
32.587162 -22.391506 -1.954021
29.520981 -22.374453 -3.2626431
34.178196 -22.304001 -3.738677
37.458015 -22.115047 1.515674
39.329559 -22.199604 1.525948
34.272282 -22.017818 -0.80733103
25.092064 -22.06741 -1.994766
32.277515 -22.052082 -1.948351
34.427155 -22.086327 -2.8885739
29.875523 -21.923546 1.412872
33.5186 -21.80978 -0.97601002
34.650345 -21.91848 -2.783885
31.338116 -21.830179 -3.653003
33.484116 -21.82896 -4.963037
31.484718 -21.717201 1.46071
32.69281 -21.748135 -0.568865
34.502525 -21.62348 -1.6929311
33.869576 -21.629402 -2.6221809
34.062927 -21.715488 -3.5278211
27.342682 -21.513096 1.424174
33.485294 -21.429688 -0.93927997
33.774227 -21.570787 -1.314351
34.68462 -21.500124 -2.3767619
33.461899 -21.416737 -2.5432971
30.999611 -21.270386 1.50138
32.532974 -21.225 1.48358
33.570854 -21.391827 1.470029
33.084091 -21.288292 -0.95763099
31.903429 -21.345295 -1.237011
34.831715 -21.355734 -1.537451
32.435349 -21.313515 -1.841794
33.418747 -21.324919 -2.207545
31.902906 -21.2927 -2.584573
33.178658 -21.355448 -2.7763779
33.677059 -21.289322 -3.063875
32.035767 -21.241867 -3.515758
32.108479 -21.265135 -3.639653
33.475018 -21.373922 -4.750967
30.21521 -21.011602 1.473567
33.244621 -21.126823 -0.75259697
32.527794 -21.144753 -0.83579499
33.084679 -21.032227 -1.154322
33.489285 -21.167992 -1.161669
32.824444 -21.100679 -1.964322
33.066956 -21.075409 -1.912611
34.012127 -21.060373 -1.845101
33.049282 -21.157255 -2.641484
31.884235 -21.044977 -3.11112
39.924797 -20.869337 1.628975
26.597448 -20.839935 1.5110151
27.850422 -20.992401 1.491145
36.299782 -20.958363 1.539922
32.717266 -20.914631 -1.080652
32.942421 -20.824697 -2.315644
33.164894 -20.83316 -2.5302639
31.795208 -20.84034 -2.804353
32.479546 -20.952461 -3.124846
33.265358 -20.987812 -3.526314
31.854736 -20.756531 -2.9213209
32.949837 -20.714935 -3.1248009
32.736801 -20.623562 -5.1301012
35.745697 -20.546375 1.5383379
37.327309 -20.560062 1.546109
33.153603 -20.534821 -3.7959771
33.292511 -20.50807 -4.0549302
33.629837 -20.555748 -4.0144138
33.499416 -20.51775 -4.430737
31.473652 -20.242292 -4.6711259
31.652176 -20.355175 -4.861382
34.477558 -20.084307 1.575343
35.420662 -20.135975 1.551917
31.826693 -36.441135 -0.33019799
33.289711 -36.301041 -2.621187
36.191475 -33.062431 -5.4034519
32.345818 -31.974079 -6.8099251
32.339294 -31.604446 -6.058578
35.732685 -30.495825 -5.7724872
35.737488 -30.043785 -5.7201071
37.345741 -28.22661 -0.15237799
37.047112 -28.234497 -0.74515003
38.151733 -28.229597 -0.85721302
37.728325 -28.053123 1.4267941
39.664848 -28.057106 0.72187299
37.231541 -28.192608 -0.020315999
39.836086 -28.014681 -0.348827
30.529568 -28.019241 -0.56194299
38.673847 -28.019238 -0.46931499
39.784813 -28.039743 -2.1488249
34.987686 -27.888046 1.010731
32.583824 -27.800629 0.61088997
35.457767 -27.896187 0.77884901
36.631588 -27.915543 -0.435718
38.173515 -27.977015 -0.60384703
36.562401 -27.92474 -0.94931602
35.944695 -27.886879 -1.0006551
39.403336 -27.992731 -1.35504
36.606655 -27.828699 -3.5151279
36.944653 -27.824274 -3.779371
31.485783 -27.827366 -4.5271249
39.494995 -27.848248 -7.1405592
39.627769 -27.886965 -8.4636288
26.895664 -27.608894 1.740678
27.365458 -27.604839 1.715668
28.978512 -27.624544 1.652033
26.994841 -27.616592 1.118999
32.101456 -27.765076 0.98105401
26.889105 -27.611143 0.402354
32.982246 -27.776424 0.35925999
32.207855 -27.772118 -0.234423
28.07696 -27.684322 -1.191847
28.713831 -27.62093 -1.267812
31.872572 -27.697319 -1.318076
25.127865 -27.608044 -1.551222
32.145775 -27.706127 -2.2382541
29.316198 -27.60121 -2.5547349
30.967335 -27.631851 -2.949811
30.215664 -27.607046 -3.070123
30.572763 -27.634623 -3.4655609
38.712837 -27.796608 -4.1489549
36.749264 -27.794037 -5.3124452
32.839382 -27.605103 -6.8149638
34.647335 -27.625929 -7.107182
35.987236 -27.683479 -7.0077548
34.214962 -27.642677 -7.4019208
25.142262 -27.532574 1.681496
29.070065 -27.527378 1.696161
28.581772 -27.599434 1.4589911
25.058718 -27.471195 0.67569202
25.394432 -27.512123 0.31336299
26.219934 -27.536079 0.28047499
27.454784 -27.589529 0.355005
28.558922 -27.576071 0.16791099
27.93663 -27.451374 -0.060513999
25.30434 -27.497732 -0.28337601
29.084763 -27.497456 -0.276104
28.21756 -27.569139 -1.74273
25.782993 -27.428295 -2.665581
27.762501 -27.494568 -2.6753221
26.15527 -27.418015 -4.6781502
29.61274 -27.526138 -5.2872052
33.648441 -27.59977 -7.1513271
27.597111 -27.50963 -9.1594219
32.478642 -27.557436 -9.3260813
36.066719 -27.502647 -11.548912
33.162834 -27.465727 -11.677451
32.965446 -27.421188 -12.348586
25.424761 -27.392218 -3.2573199
28.522346 -27.396654 -7.787858
26.665161 -27.350708 -8.5649376
25.126928 -27.24522 -9.0550251
25.399918 -27.259909 -9.0051889
28.265011 -27.369434 -9.0391941
28.60993 -27.387123 -9.5363398
26.204277 -27.231468 -9.8113184
26.177607 -27.267042 -10.195213
27.801504 -27.289259 -11.095924
35.892372 -27.268387 -11.567954
26.552502 -27.225142 -11.767428
26.890249 -27.242008 -11.833725
32.192085 -27.313419 -12.487436
25.295715 -27.186291 -9.9897013
25.765928 -27.18331 -9.9587641
26.038418 -27.164215 -11.233891
25.389355 -27.190407 -12.312405
25.351254 -27.149223 -12.501713
27.114292 -26.807135 -1.769617
36.114502 -26.91568 -1.9268349
29.893471 -26.942802 -2.444371
28.904991 -26.957895 -3.077388
36.393639 -26.992237 -6.5044079
26.528109 -26.692432 -2.7239461
27.804348 -26.680855 -3.088104
27.568016 -26.60321 -10.517276
27.445932 -26.571814 -4.9487009
35.928677 -26.243343 -2.5859981
36.445976 -25.95892 -0.671404
28.389648 -25.917707 -5.2478871
29.932034 -25.726341 -0.29160601
35.797157 -25.708212 -2.1476581
27.066011 -25.737133 -2.7893369
27.096281 -25.746408 -3.505651
32.526566 -25.585928 1.646438
34.688408 -25.590441 0.672553
29.63662 -25.468605 -0.55159903
30.180424 -25.559641 -1.110974
29.764225 -25.477434 -1.5047621
35.427834 -25.424938 -3.4328761
36.368755 -25.423449 -5.8490238
28.437981 -25.264608 0.16738901
29.820759 -25.359821 -1.621853
26.892624 -25.327347 -2.5120659
34.829369 -25.167011 1.580556
37.352142 -25.045589 1.5112441
37.415771 -25.051476 1.075297
36.699848 -25.049297 0.74755001
34.29612 -25.108753 -1.007515
34.505005 -25.026995 -1.716977
28.297356 -25.042833 -2.180598
35.199905 -25.085978 -3.7674611
28.22126 -25.084393 -4.9900808
27.611448 -25.076744 -6.1743879
35.221554 -25.161283 -7.8951831
34.91069 -25.1362 -8.4086189
36.830967 -24.956381 -0.44264001
33.93885 -24.836155 -1.4371181
35.070446 -24.987511 -1.8094749
28.695686 -24.904356 -2.1471529
28.946817 -24.913292 -2.182394
35.421432 -24.847336 -3.8569491
28.53191 -24.983946 -5.6997228
35.03043 -24.802372 -6.892097
37.435623 -24.600727 1.033803
28.891319 -24.775269 0.155936
32.509003 -24.708817 -0.06318
32.207161 -24.675446 -0.33397901
28.640579 -24.640306 -0.93917799
33.769447 -24.792225 -0.89408898
29.696751 -24.730671 -1.3258359
27.432154 -24.654747 -2.3007851
35.483856 -24.648825 -2.657763
25.42885 -24.665968 -3.8233769
26.928614 -24.629679 -5.0034199
35.750748 -24.716198 -6.3905249
26.465607 -24.500132 -0.72179502
32.795227 -24.513546 -1.232744
29.42588 -24.452864 -1.4981
35.817032 -24.499943 -2.85763
36.017956 -24.492483 -4.1056762
25.058525 -24.58716 -6.454854
27.902607 -24.464754 -7.3265562
35.487068 -24.569885 -8.6258087
34.468414 -24.425842 -9.3164606
34.077419 -24.437054 -10.533293
27.048023 -24.266399 0.051780999
36.721195 -24.225754 0.13813899
26.126818 -24.291943 -0.24524499
29.50598 -24.321209 -0.27267599
28.710964 -24.316643 -0.519113
32.029442 -24.33466 -0.470047
32.571495 -24.233864 -0.70130402
28.630234 -24.286465 -0.96167701
26.761339 -24.230686 -1.353597
36.280853 -24.236341 -1.792757
28.449821 -24.302734 -2.1628709
26.851654 -24.292538 -3.3126161
36.264023 -24.340197 -3.5524831
27.077858 -24.257809 -3.7798989
35.807735 -24.303841 -4.6277609
25.971796 -24.231041 -5.0677118
25.430332 -24.223921 -6.2926421
28.257788 -24.270742 -6.2866211
29.798717 -24.071663 -0.50300401
27.956383 -24.118984 -0.65551198
28.694935 -24.120781 -0.74415898
32.310242 -24.190998 -2.300348
31.940407 -24.080786 -3.200171
36.390644 -24.17901 -3.787837
34.745007 -24.103807 -6.896174
34.588127 -24.166359 -9.0457554
33.821514 -24.116831 -9.8115511
37.355148 -23.940302 0.54243797
27.269632 -23.887386 0.26340199
37.325649 -23.804379 0.012806
29.718758 -23.925282 -0.30077001
33.875828 -23.889984 -0.26442999
26.523865 -23.859003 -2.148217
26.294849 -23.921429 -2.5322161
26.794334 -23.914566 -3.5880849
26.358894 -23.916019 -3.8322151
29.35857 -23.933043 -4.6608462
33.408516 -23.883179 -6.152226
35.093491 -23.91066 -6.1899309
28.133892 -23.801012 -6.675827
34.509323 -23.889465 -8.0517206
35.193333 -23.907135 -8.1102114
27.639523 -23.771494 0.418865
27.599119 -23.791725 0.31534499
37.312828 -23.758129 -0.031387001
37.442741 -23.720427 -0.100861
35.462387 -23.722248 -0.73890799
34.60355 -23.624928 -0.93681198
30.053484 -23.742716 -1.538741
34.886337 -23.750977 -1.707232
29.736128 -23.682045 -2.516537
35.422714 -23.697601 -2.596972
29.924809 -23.76897 -3.3084559
25.951054 -23.61742 -3.413399
34.732864 -23.758083 -3.506197
35.475853 -23.644245 -3.4896381
34.739414 -23.701374 -3.8728731
28.473963 -23.717709 -4.4842391
35.180786 -23.74184 -4.7786589
27.0809 -23.704243 -5.7713552
34.515522 -23.760777 -5.8146949
37.896996 -23.485901 1.425763
27.953342 -23.516453 0.26203799
35.588741 -23.564415 -0.67274398
25.827942 -23.448305 -1.535282
27.701838 -23.439476 -1.544535
31.833847 -23.405701 -1.528401
31.890532 -23.483742 -1.725484
36.345924 -23.478878 -1.788344
29.739124 -23.526239 -1.983278
35.800594 -23.496492 -1.897684
35.639725 -23.457855 -2.1975219
25.098228 -23.474464 -2.307024
25.293827 -23.488609 -2.2539799
29.869463 -23.569996 -3.1635561
30.383734 -23.513882 -3.494313
25.009308 -23.529341 -4.0350909
29.747894 -23.42469 -4.184063
27.110664 -23.468258 -4.3282762
34.965797 -23.566135 -4.3061738
27.279303 -23.42185 -5.1645398
27.495188 -23.44676 -5.3290749
27.675827 -23.50078 -5.4292488
34.631134 -23.468838 -6.722363
32.244286 -23.238075 1.088921
28.156748 -23.303513 0.063280001
35.750771 -23.26384 -0.118699
35.101418 -23.329853 -0.48788801
31.736675 -23.383005 -1.523003
34.368439 -23.230865 -1.480406
27.494293 -23.246986 -1.744648
29.726917 -23.361666 -1.721148
35.383926 -23.261862 -1.883168
35.688881 -23.330158 -2.1311979
27.384083 -23.36124 -2.961462
34.595055 -23.344032 -3.3633881
29.007952 -23.332952 -3.958632
29.264381 -23.237112 -4.0616732
25.326033 -23.33106 -5.9894209
34.43079 -23.282551 -6.4965339
34.698227 -23.349094 -6.8809152
32.332855 -23.079651 0.75758803
32.418091 -23.016775 0.78428298
28.308681 -23.083496 -0.31343099
33.698185 -23.111084 -0.55325699
36.482403 -23.120771 -0.98799801
35.880959 -23.15741 -1.977294
35.433922 -23.017851 -2.2982581
27.378418 -23.076454 -2.835638
34.905769 -23.144886 -3.4941299
35.06168 -23.122175 -3.614234
35.265152 -23.195911 -4.7551761
35.251556 -23.129654 -4.859159
28.216311 -23.126911 -5.097641
25.409172 -23.014069 -5.444077
27.497639 -23.135994 -6.5775309
31.901197 -22.862553 1.081192
31.916695 -22.868748 0.69195002
36.059067 -22.963778 -0.162046
36.995018 -22.883923 -1.051528
26.882315 -22.923138 -1.7481869
35.49638 -22.936676 -2.481529
29.500555 -22.994432 -3.2686319
28.058662 -22.989679 -4.1806908
28.018784 -22.990017 -4.2042761
33.922752 -22.684809 -0.50341398
25.970102 -22.76963 -2.1261339
35.978374 -22.703032 -2.5698199
27.662655 -22.61414 -2.8483911
34.261002 -22.615826 -2.9961441
27.630438 -22.789019 -3.029074
29.279789 -22.749134 -3.8604331
34.187992 -22.63459 -4.3534741
27.916138 -22.719002 -4.496479
34.580158 -22.717297 -4.4354262
34.681934 -22.77236 -4.6479402
31.87998 -22.55345 0.71507102
34.714546 -22.520935 -0.68812102
25.352449 -22.565596 -0.95712698
29.638268 -22.542629 -3.0522571
34.592793 -22.452396 -3.909806
33.664238 -22.541876 -5.6687121
25.148815 -22.211777 -1.163381
25.063053 -22.317711 -1.459501
35.094948 -22.214445 -2.28565
34.586189 -22.356815 -3.7960751
30.039238 -22.068806 1.455615
30.634949 -22.003666 1.406532
34.488934 -22.043407 -2.1695149
31.775652 -22.139896 -2.3098071
27.524584 -22.162453 -3.2587631
30.908947 -21.832941 1.464579
34.278343 -21.904671 -1.024828
29.156319 -21.692686 1.423689
32.293934 -21.640118 -1.37037
34.002644 -21.623137 -1.576896
34.430801 -21.68256 -2.1323769
34.167484 -21.74086 -2.7334139
34.008938 -21.708622 -4.0673189
37.375565 -21.459248 1.521909
39.456207 -21.507275 1.5480289
32.170288 -21.421257 -1.293085
34.50042 -21.47757 -1.8669291
33.219337 -21.414423 -2.3513551
31.557199 -21.498375 -2.917217
33.884392 -21.475145 -3.177851
33.830994 -21.52142 -4.481895
33.904572 -21.317141 1.519134
39.672745 -21.228615 1.5468709
34.449745 -21.317997 -1.987615
31.910997 -21.235401 -3.476192
32.229019 -21.204664 -3.751601
33.10157 -21.106037 -1.608687
33.967094 -21.129379 -2.101912
34.287865 -21.107742 -2.3253989
32.233604 -21.146069 -3.122896
33.247074 -21.174168 -3.717555
31.735149 -21.062153 -4.1528358
33.384361 -21.08391 -4.7952628
33.779221 -20.934587 1.506588
34.251038 -20.941048 1.509643
33.28299 -20.954857 -1.6579109
33.68285 -20.981796 -2.343224
31.463507 -20.967987 -2.6457
32.646385 -20.983049 -2.8085229
32.252327 -20.872276 -3.256191
32.263641 -20.985224 -3.8195751
32.122398 -20.87537 -5.1471701
30.689449 -20.678257 1.480435
33.425831 -20.758335 -4.3365278
38.593178 -20.496845 1.570253
33.51569 -20.522179 -4.0793762
29.767761 -20.296663 1.504472
33.209011 -20.26992 -3.9005189
38.701157 -20.175156 1.586205
32.731659 -20.160957 -3.829246
32.9981 -20.108561 -4.357121
33.162834 -20.162958 -4.6810689
32.970741 -20.014746 -4.8367972
39.039173 -36.449463 -0.61974198
38.937229 -36.492294 -1.756814
35.651695 -36.399429 -2.8102
30.123653 -36.121574 -2.9598999
38.410099 -33.196739 -5.1811008
32.319092 -31.635147 -5.2077971
32.39526 -29.858858 -6.0417681
39.429779 -28.056488 0.92393398
37.019817 -28.005264 0.65565401
37.369286 -28.012506 0.65059
39.059471 -28.015354 0.18094
31.372248 -28.092476 -0.474419
36.673721 -28.165493 -0.52072501
39.466568 -28.010677 -0.54187202
31.606926 -28.026583 -1.257701
39.546402 -28.023819 -1.290784
39.389275 -28.021656 -2.1467409
39.893074 -28.020203 -2.8834331
36.885597 -28.173809 -5.8028712
33.778515 -27.831673 1.111006
38.116592 -27.991154 0.99628299
36.520035 -27.952644 0.59809202
30.976639 -27.912903 -0.097539
36.347023 -27.908234 -0.174729
37.057541 -27.86511 -0.021031
39.374767 -27.993523 -0.290391
