# .PCD v0.7 - Point Cloud Data file format
VERSION 0.7
FIELDS x y z
SIZE 4 4 4
TYPE F F F
COUNT 1 1 1
WIDTH 1514
HEIGHT 1
VIEWPOINT 0 0 0 1 0 0 0
POINTS 1514
DATA ascii
26.945902 -241.77847 -5.5666652
28.612612 -241.7986 -5.5741839
30.746588 -241.7467 -5.5565729
30.92111 -241.75409 -5.4998822
36.972824 -241.79822 -5.45789
25.166485 -241.79602 -6.5801191
26.980087 -241.76886 -7.1788559
24.242245 -241.73189 -7.2275629
31.864727 -241.67819 -16.387486
32.279251 -241.77878 -16.256542
32.412086 -241.7142 -19.119036
31.505966 -241.68549 -19.809912
25.14463 -241.40842 -5.5696239
28.140617 -241.44839 -5.5495949
29.020369 -241.49841 -5.5523009
29.740097 -241.4223 -5.4956799
35.40789 -241.50864 -5.4615269
37.428146 -241.44353 -5.4321709
21.513493 -241.43253 -5.6389718
25.096603 -241.48764 -5.6048861
25.620085 -241.52676 -5.60466
31.068811 -241.51042 -15.114573
31.501118 -241.46695 -19.724087
25.848143 -241.31023 -5.5604239
30.954584 -241.38176 -5.4593148
32.585075 -241.39149 -5.4410839
36.579636 -241.36484 -5.4367208
37.80426 -241.32443 -5.4150448
38.68848 -241.3168 -5.4152999
37.106949 -241.29271 -6.99722
33.647594 -241.2281 -7.0450082
36.440376 -241.26581 -7.0272002
33.579632 -241.32768 -17.575766
34.586872 -241.30193 -17.673433
32.832863 -241.25127 -18.13242
31.465778 -241.26596 -19.196545
26.706877 -241.39603 -19.428429
26.521061 -241.37041 -19.707779
31.339132 -241.3569 -20.165024
37.348621 -241.12726 -5.3774891
21.454441 -241.01498 -5.5921769
23.431564 -241.00813 -5.590929
28.569508 -241.05038 -5.529531
25.840828 -241.0152 -7.1406569
31.520161 -241.03311 -16.301432
33.327003 -240.91541 -5.395205
39.174664 -240.97234 -5.3819542
25.414482 -240.90543 -5.5020761
25.827648 -240.91632 -5.5376592
26.97015 -240.92075 -5.5159478
27.854509 -240.93614 -5.518775
33.96627 -240.95905 -5.4282632
34.548744 -240.99908 -5.4417148
22.212097 -240.97275 -5.6071172
21.65984 -240.90753 -7.1869292
37.24527 -240.88037 -18.936451
38.694565 -240.87164 -19.444258
28.98616 -240.92128 -19.952053
26.659389 -240.99602 -20.25853
36.519791 -240.6777 -5.3914871
38.182438 -240.60225 -5.3726559
38.944527 -240.60794 -5.3412762
39.85434 -240.62393 -5.3418422
25.050093 -240.60542 -5.5230398
25.961109 -240.61099 -5.5299802
26.211304 -240.62778 -5.5243902
27.456005 -240.71916 -5.514329
30.554073 -240.7511 -5.4837818
35.369133 -240.67937 -5.401423
25.679707 -240.72839 -14.229362
24.975006 -240.6145 -14.755177
31.028128 -240.6778 -16.111727
34.159534 -240.60446 -18.339556
33.91169 -240.42882 -5.3883629
37.808243 -240.48181 -5.3571901
23.751188 -240.59421 -5.5539799
29.380688 -240.53531 -5.4233899
33.901009 -240.57751 -5.4054432
25.953762 -240.43533 -13.306337
25.071007 -240.55933 -14.76088
31.280998 -240.44324 -16.122574
31.863615 -240.55615 -17.195992
34.78212 -240.42233 -17.756878
34.23896 -240.58324 -18.430859
32.614582 -240.22791 -5.3725581
36.641529 -240.23547 -5.3596649
37.4431 -240.22397 -5.3537059
25.155863 -240.24854 -5.5032539
30.548178 -240.32338 -5.4010382
33.189346 -240.31186 -5.42032
25.773804 -240.31711 -12.700185
25.782032 -240.25253 -12.937815
26.056765 -240.33859 -13.136018
26.081535 -240.33092 -13.297613
34.709969 -240.2299 -18.388186
32.684212 -240.13821 -5.3383589
32.931213 -240.07576 -5.3308539
33.111298 -240.09793 -5.3449669
29.354376 -240.18021 -5.4038692
25.831146 -240.06763 -12.512449
25.515915 -240.08183 -13.937438
25.172682 -240.06157 -14.108633
25.332438 -240.17622 -14.663731
25.264694 -240.12569 -14.844625
27.218809 -240.03545 -15.655571
31.122023 -240.13158 -16.61334
28.213982 -259.9223 -6.5865078
36.163765 -259.85794 -6.5251541
21.079773 -259.82269 -6.7494168
21.769613 -259.89209 -6.7115431
22.172283 -259.82971 -6.6620231
23.861822 -259.85489 -6.624969
26.120146 -259.81396 -6.6051149
27.425554 -259.99884 -6.6215291
30.684566 -259.97998 -6.6134982
20.0439 -259.98761 -7.0844312
32.445885 -259.98911 -7.179565
20.208832 -259.89954 -7.266377
27.492094 -259.8204 -7.378511
27.84758 -259.80939 -7.230516
28.138142 -259.82391 -7.2774701
31.322807 -259.88153 -7.324779
28.525688 -259.83765 -7.4942169
30.055473 -259.90421 -7.5286512
34.492828 -259.89417 -7.538898
34.730232 -259.89667 -7.512053
28.089451 -259.82529 -7.744905
28.573366 -259.84341 -7.770606
34.439381 -259.93457 -7.6557589
28.973064 -259.87897 -7.9387531
29.248646 -259.88666 -7.9216051
31.294445 -259.91846 -7.9374819
31.623344 -259.95166 -7.894568
32.903496 -259.9928 -7.8033028
28.837379 -259.83716 -8.0613403
29.038349 -259.85852 -8.1539211
29.722591 -259.86624 -8.0768833
30.482273 -259.91425 -8.1471539
30.948143 -259.91901 -8.1297445
32.558796 -259.98218 -8.168726
34.416142 -259.80554 -8.1917725
32.075298 -259.96939 -8.2819977
22.85066 -259.85382 -8.6967964
25.372047 -259.96518 -8.6714783
23.367886 -259.82751 -8.994873
34.525795 -259.80688 -9.0899382
25.663464 -259.92035 -9.7623272
31.478355 -259.80191 -9.7157869
34.748005 -259.91895 -9.7326403
35.315475 -259.95438 -9.9978981
35.749359 -259.95703 -9.8966007
35.877235 -259.96338 -9.9269543
32.946144 -259.82397 -10.028963
35.506924 -259.93262 -10.017125
25.44663 -259.83942 -10.484259
25.731163 -259.88336 -10.600338
28.492409 -259.8457 -10.742024
28.334837 -259.94153 -11.077751
37.96888 -259.98526 -11.097104
31.52103 -259.97501 -11.279379
23.190525 -259.98535 -11.547473
28.468906 -259.87628 -11.457367
25.489092 -259.8277 -11.767065
28.33889 -259.93628 -11.771603
28.497009 -259.83325 -11.728518
20.697021 -259.85544 -11.935587
28.614697 -259.89508 -11.988323
21.062468 -259.90048 -12.114163
26.518953 -259.87784 -12.097337
28.342567 -259.88052 -12.208347
31.610092 -259.97687 -12.36153
28.582132 -259.93341 -12.563152
28.359272 -259.88275 -12.711906
28.62781 -259.94229 -12.696237
21.498856 -259.94135 -12.901881
25.730993 -259.82956 -12.881199
36.544193 -259.9985 -12.932989
25.762939 -259.8576 -13.346147
33.704803 -259.86246 -13.331081
24.398312 -259.89917 -13.486866
25.039742 -259.93527 -13.531995
25.441673 -259.92062 -13.458187
30.265484 -259.85895 -13.535302
33.192234 -259.81668 -13.442426
34.732674 -259.91379 -13.487856
36.577324 -259.98346 -13.530322
20.934868 -259.83142 -13.634752
35.712532 -259.88489 -13.634534
35.960926 -259.8826 -13.602456
28.606386 -259.84393 -13.819517
36.886894 -259.995 -13.915199
37.949551 -259.98181 -13.95616
38.001087 -259.94113 -13.866266
28.292444 -259.95468 -14.119994
28.502836 -259.89072 -14.159607
36.574913 -259.99423 -14.300905
37.251274 -259.99902 -14.348499
24.173843 -259.95996 -14.660529
38.116165 -259.97113 -14.710842
25.704391 -259.90753 -14.977694
36.629807 -259.94 -14.947056
24.317039 -259.97562 -15.026527
25.35936 -259.84183 -15.126867
28.260021 -259.94623 -15.33503
24.311127 -259.9657 -15.489851
25.109161 -259.97665 -15.546608
33.175842 -259.66373 -6.5764041
34.278431 -259.78186 -6.520978
25.955563 -259.60922 -6.6505561
39.930164 -259.66489 -6.6880999
31.453651 -259.71072 -7.0861259
34.470173 -259.76776 -7.0815001
26.66326 -259.76624 -7.3403192
26.939121 -259.77185 -7.249331
28.666569 -259.60684 -7.300735
25.34267 -259.72061 -7.407681
25.701769 -259.73248 -7.5002341
31.484535 -259.66626 -7.5716529
34.451714 -259.75604 -7.5509019
27.479591 -259.78214 -7.782506
31.345314 -259.68961 -7.6043248
34.360382 -259.76508 -7.7181869
22.794346 -259.60294 -7.900589
25.570162 -259.71313 -7.8467722
26.219402 -259.73413 -8.0683174
26.62182 -259.74496 -8.0298948
26.979561 -259.74759 -8.0334244
27.788963 -259.78021 -8.049017
28.67441 -259.79962 -8.0765314
26.866011 -259.79834 -8.3177643
31.616177 -259.69891 -8.9759703
34.374256 -259.76709 -8.9729271
31.501471 -259.65677 -9.2871695
31.604633 -259.7106 -9.4998169
25.095982 -259.71832 -9.8089848
27.858667 -259.64362 -9.8571539
30.112204 -259.71136 -9.8628082
31.827805 -259.77347 -9.9164257
34.479122 -259.77728 -9.889637
25.45068 -259.77954 -10.168967
27.573551 -259.61606 -10.063951
25.507015 -259.75372 -10.77486
25.3922 -259.77319 -10.829063
25.630831 -259.767 -11.158413
25.544029 -259.7128 -11.675366
22.653618 -259.74991 -12.044674
22.462318 -259.68967 -12.995485
28.554419 -259.79984 -13.026834
26.363102 -259.66956 -13.559732
29.903927 -259.67468 -13.533205
30.17395 -259.7027 -13.404533
30.974609 -259.72003 -13.546444
32.509041 -259.74957 -13.505183
28.305403 -259.6665 -13.635135
33.001968 -259.76938 -13.646936
33.401489 -259.78519 -13.709777
25.497246 -259.68536 -14.381852
22.607523 -259.66223 -14.475313
25.509741 -259.78546 -14.946133
38.27951 -259.53094 -6.578846
26.114918 -259.43695 -6.6246371
28.546116 -259.57684 -7.0946279
20.538734 -259.48291 -7.7049832
21.019138 -259.50397 -7.662508
20.231228 -259.47675 -8.1276093
21.427683 -259.52615 -8.1169825
28.579113 -259.55426 -8.0950642
28.659573 -259.56842 -8.1233692
20.463253 -259.5314 -8.437809
28.57015 -259.54916 -8.8395243
28.38903 -259.53745 -9.1805887
25.64879 -259.40338 -9.5216408
28.389839 -259.54626 -9.4414244
26.407213 -259.58264 -9.8994999
27.400463 -259.59418 -9.8949299
25.46294 -259.4549 -10.164546
26.745533 -259.53854 -10.091384
28.372631 -259.53314 -10.103117
28.513126 -259.5416 -10.101765
20.525997 -259.41833 -10.90277
20.608532 -259.40555 -12.183885
22.575138 -259.57068 -12.609817
22.593454 -259.43799 -13.719625
26.722626 -259.48535 -13.703568
29.412579 -259.58929 -13.678187
22.562988 -259.52045 -14.318021
30.47723 -259.39539 -6.5489678
35.656731 -259.29401 -6.5600529
21.075809 -259.23007 -6.7070379
25.450325 -259.31329 -6.66892
22.500553 -259.2193 -7.101799
25.506001 -259.33334 -7.7968068
25.608936 -259.37149 -7.762362
25.489714 -259.33643 -7.8592591
25.488029 -259.32709 -8.0633163
25.488735 -259.34888 -8.2391052
25.471539 -259.35693 -8.6271553
20.26162 -259.29657 -9.9535484
21.091808 -259.35568 -9.9257717
20.10294 -259.25879 -13.680689
33.060165 -259.03165 -6.575254
24.325403 -259.17371 -6.6806388
25.50979 -259.07492 -6.6381111
25.8325 -259.1893 -6.6043062
29.118568 -258.89471 -6.541441
32.250767 -258.82861 -6.576498
34.16201 -258.98132 -6.5490851
36.572384 -258.92609 -6.5136981
22.180218 -258.83597 -6.644258
25.050743 -258.85263 -6.6112342
25.505833 -258.98148 -6.641995
29.820795 -258.94821 -6.6044488
33.518372 -258.87875 -6.6038699
25.382462 -258.61993 -6.5903602
26.679331 -258.62137 -6.5878301
27.501595 -258.6759 -6.5619798
32.919872 -258.61929 -6.5535531
20.031979 -258.6445 -6.6674228
23.44511 -258.68723 -6.6310482
28.533329 -258.44366 -6.5772352
31.117943 -258.48895 -6.5989389
36.675171 -258.58301 -6.4997549
37.318085 -258.53146 -6.5477228
39.104855 -258.43457 -6.557786
22.348431 -258.54431 -6.6779809
28.034306 -258.5593 -6.6341319
37.05323 -258.57553 -6.6091499
21.108444 -258.44275 -7.4331679
21.249619 -258.42648 -7.4901481
39.566254 -258.47327 -7.9915838
37.823132 -258.49219 -8.5106745
28.213835 -258.26117 -6.5856299
28.512682 -258.3085 -6.5639658
29.437437 -258.21155 -6.5737329
30.905764 -258.22818 -6.5196862
37.697205 -258.21323 -6.476716
39.421661 -258.31879 -6.558187
25.073229 -258.20984 -6.6030011
21.129223 -258.35797 -7.4457102
37.743759 -258.22321 -8.2820005
28.496365 -258.17194 -6.5585551
29.28904 -258.15149 -6.5303578
29.415895 -258.17212 -6.5595422
33.34642 -258.12399 -6.5927281
38.964157 -258.16757 -6.4927802
26.499943 -258.10547 -6.607831
30.134048 -258.18582 -6.6171718
21.505697 -258.01584 -6.8844719
35.980766 -258.15381 -7.0103512
36.134628 -258.06171 -7.0817609
36.369675 -258.17877 -7.0521851
39.968731 -258.12424 -8.1085682
27.337002 -258.0903 -8.6100426
39.258324 -258.19025 -9.3551683
39.043457 -258.07028 -9.4644222
39.391396 -258.02997 -9.6763
26.154404 -257.94495 -6.577054
34.222233 -257.85538 -6.4390211
33.736874 -257.89737 -6.674891
36.097843 -257.80829 -6.7076049
38.972309 -257.89423 -6.7063022
33.113892 -257.91797 -6.9505749
39.203255 -257.92078 -6.8159251
36.114994 -257.8696 -7.1404848
26.723013 -257.80597 -7.8632398
27.352531 -257.82657 -7.9350572
39.767075 -257.82727 -8.9874506
39.7085 -257.71765 -6.3459811
26.582554 -257.79846 -6.539288
28.692558 -257.72369 -6.5576401
29.570097 -257.63989 -6.5265388
29.67725 -257.70853 -6.5307202
32.315659 -257.7337 -6.5316958
33.33638 -257.771 -6.5924191
35.496613 -257.64975 -6.444489
35.692997 -257.68283 -6.5334568
20.783344 -257.64548 -6.6282339
32.747913 -257.75562 -6.687819
32.926964 -257.70282 -6.6505828
33.118916 -257.72641 -6.622829
35.752419 -257.64966 -6.6538768
35.838821 -257.66608 -6.6172218
32.719063 -257.68256 -6.969759
32.665642 -257.6991 -7.1167641
32.521095 -257.7652 -7.3608308
21.583977 -257.71948 -7.6769071
37.815964 -257.73178 -7.7545872
27.74789 -257.74429 -7.9345889
38.128868 -257.65289 -7.8369699
38.514633 -257.66498 -8.058322
39.850845 -257.72495 -8.2169495
38.889671 -257.6723 -8.542345
37.882195 -257.73254 -9.0881176
27.593267 -257.7012 -9.3586655
39.162434 -257.70734 -9.7400627
28.481634 -257.45224 -6.5763111
29.821487 -257.4863 -6.492774
33.68932 -257.54333 -6.521842
34.700111 -257.41296 -6.4349632
34.903038 -257.40958 -6.44385
35.291275 -257.45349 -6.438766
36.840096 -257.43906 -6.4655061
21.156778 -257.47943 -7.118289
21.32811 -257.5188 -7.857738
26.716949 -257.4505 -7.825552
21.173016 -257.45715 -8.3139343
37.640884 -257.46082 -8.291893
21.353119 -257.53479 -8.4404182
39.459217 -257.41077 -8.5933409
26.117464 -257.44666 -8.881217
38.017578 -257.40799 -9.0917873
38.232002 -257.42194 -9.4570312
36.554417 -257.32507 -6.3951402
37.434639 -257.35236 -6.3986492
37.804729 -257.33459 -6.3666639
38.284016 -257.32288 -6.37602
28.506344 -257.36545 -6.5170498
29.513237 -257.38702 -6.520082
32.657635 -257.31464 -6.5733938
32.899178 -257.28552 -6.545465
33.173164 -257.28061 -6.5864201
37.488968 -257.3634 -6.4293442
32.658428 -257.32632 -6.6420498
33.458733 -257.37061 -6.7291298
21.11566 -257.37054 -7.0265579
27.930096 -257.3736 -7.1393628
22.129002 -257.30811 -7.341568
28.180817 -257.32053 -7.3619628
38.258766 -257.28839 -7.8046842
28.310265 -257.3208 -8.0717573
38.624901 -257.26889 -8.2915592
27.391933 -257.33984 -8.5680208
37.820789 -257.33524 -8.5000496
28.725111 -257.34552 -8.6152201
39.751404 -257.2554 -9.2971745
38.521965 -257.28806 -9.473608
38.959251 -257.28705 -9.5702209
38.548512 -257.32373 -9.6691275
39.870026 -257.09503 -6.3868251
27.347164 -257.1564 -6.5289211
32.153194 -257.15405 -6.5060081
34.787449 -257.17505 -6.4568162
39.456902 -257.10168 -6.4111862
33.152542 -257.10739 -6.925879
33.237595 -257.16089 -6.9183049
22.32106 -257.13617 -7.1262512
27.36557 -257.05396 -7.755393
28.204393 -257.08844 -7.622982
28.144016 -257.12579 -7.87323
28.426027 -257.12619 -7.9228702
39.645653 -257.15042 -7.8019252
28.183037 -257.05481 -8.1604919
28.557552 -257.14203 -8.5354834
37.490723 -257.07962 -8.5286446
38.599327 -257.06598 -8.4806538
39.074257 -257.01544 -8.559782
39.927391 -257.01343 -8.5758114
27.495348 -257.00122 -8.6602411
39.98875 -257.02368 -8.8406982
37.798683 -257.06863 -9.0441904
26.758108 -257.07605 -9.2957163
38.679157 -257.02979 -9.4428463
39.931351 -257.04596 -9.4958172
35.641792 -256.86661 -6.3702121
37.339066 -256.83676 -6.3901582
29.788513 -256.98514 -6.5206218
31.900047 -256.86563 -6.4999981
33.800716 -256.90192 -6.4274158
34.014992 -256.87476 -6.4205179
35.343575 -256.9917 -6.4070702
38.292496 -256.85892 -6.4064488
33.038971 -256.9252 -6.7797589
38.212021 -256.96863 -7.6361389
38.561371 -256.888 -7.6677008
27.724026 -256.95483 -7.8208971
26.951672 -256.84326 -8.0116882
27.704945 -256.95453 -8.1523447
37.776131 -256.95999 -8.283493
21.884802 -256.96161 -8.4406958
26.999136 -256.95245 -8.5380325
37.901371 -256.91293 -8.4897003
26.399813 -256.89386 -8.8157825
39.085903 -256.84845 -9.0590124
27.300911 -256.89648 -9.2992249
37.913502 -256.93835 -9.2705355
38.205387 -256.93396 -9.229166
39.698391 -256.97327 -9.5476894
39.901291 -256.97275 -9.5201664
39.806129 -256.92395 -9.6296558
35.749252 -256.64691 -6.3824811
39.879646 -256.72995 -6.3486638
30.392166 -256.65387 -6.4757061
30.760912 -256.75955 -6.4927502
30.932495 -256.72522 -6.4448328
35.945274 -256.70685 -6.4221911
27.072987 -256.633 -7.5885482
38.50491 -256.76404 -7.500658
38.512138 -256.62717 -7.6776099
21.761644 -256.63391 -7.9782758
37.975857 -256.60245 -7.918972
38.299698 -256.74017 -7.8731651
26.440268 -256.60284 -8.3492641
27.319817 -256.61133 -8.243063
37.931992 -256.67175 -8.2204018
38.168068 -256.64801 -8.2791157
27.865936 -256.74164 -8.5067139
26.634733 -256.7569 -8.9222717
37.858353 -256.6763 -8.9657612
39.291393 -256.62292 -8.9638147
39.642624 -256.68591 -8.8186436
37.935917 -256.70651 -9.0820904
38.487255 -256.67236 -9.1646519
38.205605 -256.62842 -9.4012623
39.035233 -256.68137 -9.4307251
39.560585 -256.7283 -9.5697269
33.118027 -256.5192 -6.3783288
35.014198 -256.54492 -6.340631
36.131104 -256.54813 -6.3563542
37.185524 -256.53491 -6.3835478
39.761459 -256.42813 -6.3712358
26.56002 -256.51074 -6.5489402
28.710892 -256.45758 -6.5011659
29.485573 -256.59497 -6.470336
30.981171 -256.57367 -6.451231
31.499929 -256.50586 -6.507864
32.478859 -256.45718 -6.4401259
27.458817 -256.45868 -7.7343621
38.322315 -256.57031 -7.6921101
38.504993 -256.55798 -7.6701908
38.131142 -256.45349 -7.9062619
21.768375 -256.5882 -8.0255871
27.713308 -256.47012 -8.0574017
38.11615 -256.46436 -8.121418
39.508026 -256.58484 -8.138566
38.236496 -256.4693 -8.2743559
39.427502 -256.44666 -8.493515
39.73394 -256.46161 -8.7017307
39.248924 -256.50635 -8.8940411
39.696587 -256.53967 -8.9494305
27.076897 -256.49442 -9.1137218
31.373207 -256.22675 -6.371943
34.662563 -256.31274 -6.328054
35.714127 -256.35742 -6.336947
37.431309 -256.24414 -6.3555489
39.411957 -256.21149 -6.3209519
24.135311 -256.23468 -6.5167441
26.989441 -256.22119 -6.4684148
31.074009 -256.27609 -6.4255028
31.863361 -256.27271 -6.4281201
33.104027 -256.34119 -6.4383459
39.239765 -256.21713 -6.4166121
38.250534 -256.34848 -7.7352848
38.936405 -256.31744 -8.1439867
26.67853 -256.35114 -8.2763939
39.05072 -256.34286 -8.3178225
39.226627 -256.34216 -8.3135405
39.950523 -256.32864 -8.2226868
27.497978 -256.32574 -8.4353962
27.705286 -256.27856 -8.4411821
39.277397 -256.25739 -8.7346296
39.582726 -256.39499 -8.8563032
39.700066 -256.32336 -8.8134651
39.81855 -256.35049 -8.8613873
35.311707 -256.14651 -6.3664398
20.253952 -256.11343 -6.4938798
21.459486 -256.10645 -6.5151868
26.603203 -256.15326 -6.4844089
28.254217 -256.18063 -6.473372
28.674969 -256.12201 -6.4548812
32.605003 -256.18204 -6.414834
27.643093 -256.15421 -8.3666201
27.836929 -256.12021 -8.4285841
31.702003 -255.82759 -6.3501959
36.195465 -255.83856 -6.3474588
25.420715 -255.93541 -6.4463859
26.455879 -255.83768 -6.500102
31.509804 -255.86517 -6.4404511
32.454716 -255.94714 -6.404984
29.79229 -255.68311 -6.37186
39.005386 -255.72087 -6.3425002
22.400543 -255.69058 -6.47682
26.876976 -255.71855 -6.4755311
27.757732 -255.79381 -6.4351721
31.10675 -255.65265 -6.4333558
27.663061 -255.4834 -6.3960252
32.356125 -255.51393 -6.3452029
34.292217 -255.42018 -6.3718028
38.730614 -255.53983 -6.2896562
27.748234 -255.44391 -6.4584451
28.078663 -255.50497 -6.458231
30.592735 -255.57722 -6.450048
30.923412 -255.57004 -6.413116
31.191694 -255.36331 -6.385334
32.543781 -255.37488 -6.360878
34.352219 -255.26056 -6.370461
24.144148 -255.31128 -6.5175409
24.415531 -255.26262 -6.4825168
25.45673 -255.3336 -6.4694748
25.747124 -255.34521 -6.4429698
28.823597 -255.39957 -6.4336429
32.455399 -255.10266 -6.3521519
34.229271 -255.06439 -6.3583932
39.716259 -255.08958 -6.2858081
21.856396 -255.0603 -6.4825921
23.046581 -255.00996 -6.5067291
24.915619 -255.1026 -6.4919038
25.80315 -255.00629 -6.433599
30.521336 -255.07129 -6.4034519
26.958982 -254.95068 -6.38586
28.59366 -254.87259 -6.3840041
29.752071 -254.94872 -6.3860369
32.205715 -254.96538 -6.2983961
22.141823 -254.91745 -6.4884648
22.489136 -254.96478 -6.4944701
23.067291 -254.89363 -6.5429611
23.36562 -254.87874 -6.4965291
24.832306 -254.94232 -6.479907
25.907433 -254.85959 -6.4721842
26.718241 -254.92047 -6.4878492
29.007837 -254.9137 -6.4287038
30.515182 -254.86932 -6.40873
32.145218 -254.97267 -6.4018579
25.07263 -254.7132 -6.2980962
28.061874 -254.6882 -6.3803358
30.336262 -254.66362 -6.3992238
33.725609 -254.79451 -6.330637
34.864677 -254.70779 -6.3626418
35.013226 -254.60564 -6.3604369
20.503361 -254.68356 -6.5154009
26.519325 -254.64636 -6.4432201
26.689293 -254.7637 -6.4255261
29.711834 -254.44824 -6.3998189
30.903748 -254.48349 -6.3668981
32.614517 -254.59589 -6.2909918
33.284149 -254.5999 -6.3368211
35.264725 -254.48523 -6.3377929
24.07793 -254.55801 -6.4678679
25.581406 -254.55524 -6.469892
29.763855 -254.48698 -6.4137158
28.932945 -254.35933 -6.3819661
20.13623 -254.35007 -6.512022
21.830633 -254.21941 -6.4878869
28.594643 -254.23044 -6.440022
27.871487 -254.19778 -6.3777041
28.02326 -254.19583 -6.3819399
31.016685 -254.14774 -6.3780832
35.047211 -254.119 -6.3334098
27.64797 -254.15892 -6.410789
33.755306 -254.11087 -6.4497519
26.854595 -253.80057 -6.3846059
28.170158 -253.82346 -6.3764858
28.511044 -253.84601 -6.347363
34.438988 -253.92047 -6.2763901
39.789425 -253.81532 -6.2981391
26.6462 -253.90408 -6.4292479
27.995209 -253.64569 -6.3449512
28.950794 -253.62502 -6.3630071
30.888042 -253.75824 -6.3235478
31.464249 -253.7679 -6.318892
35.333706 -253.69708 -6.3087192
35.402588 -253.77148 -6.3030481
24.497211 -253.75671 -6.4166341
26.564358 -253.73691 -6.414669
26.579472 -253.4361 -6.3627882
27.100025 -253.47971 -6.3637838
27.497936 -253.47011 -6.364326
31.232218 -253.51543 -6.3480639
35.540272 -253.49638 -6.3247671
36.209549 -253.4823 -6.3090978
39.113918 -253.49905 -6.3324208
26.222822 -253.42761 -6.4298892
34.095802 -253.53891 -6.4598079
25.897356 -253.36238 -6.3664222
26.947283 -253.25217 -6.3731961
27.235832 -253.38544 -6.395041
28.317616 -253.24271 -6.3515468
28.586544 -253.32037 -6.329216
30.199238 -253.34883 -6.3063068
31.810307 -253.35065 -6.3088651
33.383877 -253.28218 -6.3067069
35.86132 -253.30531 -6.3141589
36.771072 -253.29085 -6.3424211
37.41354 -253.36574 -6.3599491
37.766396 -253.39012 -6.3459482
39.409634 -253.37805 -6.3420682
23.69249 -253.11832 -6.3936548
27.08497 -253.18796 -6.359993
27.608965 -253.03336 -6.3888698
28.154928 -253.00955 -6.350203
25.792587 -253.08411 -6.4183431
25.116261 -252.94324 -6.3805299
29.381752 -252.84796 -6.323472
32.262836 -252.8313 -6.3087912
35.118435 -252.89026 -6.2938981
36.643101 -252.99292 -6.3516359
25.360664 -252.62854 -6.3666601
25.761114 -252.64178 -6.3591881
27.032934 -252.79599 -6.372642
27.913589 -252.62785 -6.3519969
35.566536 -252.63947 -6.2395611
25.157848 -252.60553 -15.217333
27.937248 -252.56807 -6.385602
36.101727 -252.50575 -6.2862849
37.362991 -252.48596 -6.3696022
23.968615 -252.50749 -6.4379678
37.272369 -252.50153 -6.4008021
38.945251 -252.57597 -6.5101652
39.366539 -252.52644 -6.4249811
30.599289 -252.58569 -13.711186
30.525949 -252.54865 -14.031509
33.059738 -252.46292 -15.071434
26.634909 -252.34033 -6.3810201
34.161663 -252.20107 -6.2942739
37.523434 -252.26649 -6.443192
33.121849 -252.30936 -15.242119
25.117695 -252.0379 -6.3545661
25.509617 -252.07806 -6.373415
26.149952 -252.13182 -6.3302131
26.221514 -252.14235 -6.3373008
29.484028 -252.11777 -6.331944
30.618139 -252.13344 -6.2922149
31.48885 -252.17084 -6.2964768
34.525093 -252.15628 -6.2464361
35.414276 -252.11653 -6.2242789
36.815575 -252.127 -6.3035841
37.310043 -252.17529 -6.3337979
37.825615 -252.12833 -6.437592
38.533119 -252.12154 -6.4555378
38.767681 -252.01663 -6.4337411
36.121796 -251.80069 -6.1783638
27.074661 -251.83911 -6.3360949
27.349478 -251.81514 -6.3245192
29.560677 -251.90762 -6.3685331
34.70266 -251.87851 -6.2646909
36.9548 -251.84392 -6.3296232
39.37957 -251.85533 -6.390039
23.372555 -251.95148 -6.404109
27.752266 -251.8165 -6.4224982
37.857708 -251.96022 -6.4641738
30.794899 -251.82231 -12.451427
30.983141 -251.8658 -12.554878
25.682716 -251.71419 -6.3355012
34.142982 -251.7291 -6.245101
36.106682 -251.71098 -6.210022
28.18128 -251.68071 -6.4396968
37.798096 -251.70776 -6.449841
38.173092 -251.68063 -6.4593439
38.896786 -251.7522 -6.4375191
32.430378 -251.61572 -11.183033
31.483456 -251.60867 -11.590589
31.155493 -251.69377 -12.341679
30.842388 -251.64368 -13.298054
32.185265 -251.61366 -13.501064
32.235435 -251.61986 -13.521862
24.583847 -251.57341 -6.3389902
25.395061 -251.46036 -6.31003
27.442654 -251.56358 -6.3585858
32.770828 -251.47595 -6.2817678
36.110451 -251.58496 -6.2132711
37.477409 -251.45837 -6.2945442
37.718517 -251.47038 -6.366302
39.778027 -251.50203 -6.3163962
29.050831 -251.51332 -6.551466
31.348244 -251.41721 -11.801704
30.774223 -251.45825 -12.513355
30.957037 -251.51604 -12.438612
32.457298 -251.53481 -13.914989
29.940441 -251.46394 -16.536179
25.100883 -251.26611 -6.3096228
26.178843 -251.35234 -6.2981892
27.490677 -251.29076 -6.3295031
36.496208 -251.30582 -6.2377291
37.664154 -251.26241 -6.3399439
38.575191 -251.25055 -6.32828
39.048176 -251.27792 -6.3497038
27.571377 -251.24615 -6.4463019
29.48127 -251.33896 -6.5268192
28.206753 -251.26315 -6.7684002
31.973133 -251.24664 -10.501877
32.339317 -251.3844 -11.109264
32.882797 -251.2471 -11.709904
32.298332 -251.31619 -12.623909
32.079449 -251.3728 -12.943793
36.033276 -251.04639 -6.1585689
24.694994 -251.0629 -6.3059902
25.280418 -251.05566 -6.307673
26.551815 -251.04077 -6.2889929
30.595871 -251.00557 -6.2845979
33.452171 -251.073 -6.278934
36.96566 -251.17439 -6.275445
38.950089 -251.12479 -6.3321762
39.549824 -251.06911 -6.2541022
27.549328 -251.12982 -6.417511
27.957479 -251.1223 -6.5605979
33.868088 -251.08772 -6.4358521
28.696665 -251.07507 -6.7804022
31.086243 -251.00612 -12.186155
32.333389 -251.01004 -12.127634
32.448769 -251.10478 -12.178652
29.845144 -251.00153 -12.71113
31.910158 -251.12492 -12.935318
22.304014 -250.90903 -6.3628149
24.892998 -250.90247 -6.310925
30.134447 -250.96835 -6.3422408
32.144623 -250.91083 -6.2640581
37.698124 -250.91902 -6.2319741
39.290291 -250.83521 -6.2563429
39.702805 -250.94322 -6.2543969
27.978493 -250.9482 -6.679873
28.056137 -250.98015 -6.7040839
28.928503 -250.98935 -6.8488269
20.246761 -250.90831 -7.2824349
20.293131 -250.9175 -9.445652
33.702049 -250.9823 -9.9302778
31.362465 -250.96906 -10.682497
31.317764 -250.95204 -11.076964
31.410122 -250.86349 -11.244686
29.74366 -250.84967 -12.273296
29.85099 -250.86324 -12.959072
29.763069 -250.97002 -13.222119
32.057625 -250.90848 -13.446502
29.348917 -250.91141 -13.738644
35.453098 -250.62033 -6.194346
32.133335 -250.60895 -6.2605958
34.472809 -250.70367 -6.21456
39.055958 -250.63542 -6.2564659
39.357468 -250.68047 -6.293633
27.751476 -250.78235 -6.5420179
27.871023 -250.68993 -6.5103269
28.237522 -250.77013 -6.6945968
28.69902 -250.69739 -6.8162389
20.379738 -250.68521 -7.9600792
30.923241 -250.70349 -8.2440643
31.937618 -250.71451 -9.7527761
33.689964 -250.64076 -10.705333
31.150536 -250.74234 -10.863798
33.434372 -250.60425 -11.341918
30.884411 -250.79236 -11.745834
29.60733 -250.65736 -12.739145
32.672729 -250.61588 -12.892258
32.262466 -250.75504 -13.77375
27.665577 -250.44228 -6.1209912
33.709007 -250.56111 -6.1873279
35.714195 -250.51868 -6.143889
37.222618 -250.46609 -6.1970811
21.538288 -250.49991 -6.361197
23.984755 -250.50975 -6.3203521
24.079571 -250.40248 -6.2654638
25.107162 -250.54007 -6.2280278
27.583736 -250.58353 -6.3321228
27.677485 -250.52345 -6.2628989
31.379446 -250.59515 -6.2676101
31.685003 -250.51935 -6.2664661
31.86647 -250.46669 -6.2585788
38.893188 -250.5036 -6.3017678
29.292389 -250.52605 -6.7569962
20.517557 -250.54639 -7.8422971
30.337717 -250.51692 -8.5775213
32.677124 -250.43634 -8.7315359
26.165958 -250.51288 -9.2907391
28.628353 -250.47156 -9.2434139
30.310585 -250.51959 -9.4769268
29.574406 -250.54437 -12.230033
29.669289 -250.56909 -12.507143
32.210411 -250.56235 -12.892132
30.805557 -250.56491 -13.245174
34.548462 -250.51996 -14.06394
26.601318 -250.34508 -6.1766109
26.895264 -250.30116 -6.1906691
27.797279 -250.21007 -6.1734538
33.399517 -250.22833 -6.1810431
34.581905 -250.22516 -6.1744561
35.091244 -250.26811 -6.1471019
35.906128 -250.3396 -6.1637139
25.061445 -250.23265 -6.2917099
38.18515 -250.37692 -6.253942
21.278114 -250.37674 -6.4162712
28.151775 -250.258 -6.422039
20.558384 -250.36783 -6.7080488
20.482565 -250.36624 -7.014997
20.067787 -250.22473 -7.7001472
20.253132 -250.23561 -7.6914172
29.288315 -250.30406 -8.1647682
20.418715 -250.32141 -8.3101978
33.043438 -250.27092 -8.3691444
29.767914 -250.36629 -8.4008818
32.515015 -250.30972 -8.7184935
32.391319 -250.27257 -8.9279985
31.89609 -250.34467 -9.1029119
31.919739 -250.30051 -9.6328392
32.52655 -250.37827 -9.642561
30.510979 -250.35738 -10.943832
30.872501 -250.37361 -11.118526
29.654633 -250.29677 -11.973352
29.507015 -250.33849 -12.629143
33.110023 -250.28795 -13.409828
35.348602 -250.18407 -6.1478872
36.292664 -250.13934 -6.145402
39.329567 -250.17004 -6.158761
21.245745 -250.10349 -6.344573
26.558542 -250.14731 -6.2175498
26.985302 -250.16122 -6.2015181
28.418018 -250.03351 -6.3191838
30.292122 -250.10283 -6.328774
32.184513 -250.15105 -6.2957482
37.675316 -250.17378 -6.270606
20.241667 -250.13275 -6.5744572
29.697525 -250.07095 -6.5367851
29.579227 -250.1526 -6.6255312
31.099964 -250.12527 -8.1549606
20.268061 -250.16432 -8.476449
31.154556 -250.08829 -8.5353889
32.562508 -250.12277 -8.4959555
30.202354 -250.07349 -8.8896408
30.711105 -250.04616 -9.2968578
20.06282 -250.03577 -9.7125645
20.240086 -250.18201 -9.6769247
32.366474 -250.08875 -9.6218071
29.77866 -250.04047 -10.183565
33.732975 -250.14807 -10.169203
31.443611 -250.13869 -10.293102
31.531715 -250.02271 -10.528454
30.37553 -250.09491 -10.739174
29.567665 -250.19542 -11.08665
30.184589 -250.0309 -11.052049
33.069443 -250.18568 -11.499461
30.593264 -250.08771 -12.122101
33.713707 -250.04892 -12.210842
28.416996 -250.02107 -13.815674
29.172976 -250.0386 -14.196056
34.910755 -249.87701 -6.1363029
35.514221 -249.94118 -6.1626568
36.291664 -249.92226 -6.119926
36.68071 -249.89662 -6.140017
39.034668 -249.93909 -6.1460919
26.121218 -249.90735 -6.2288642
26.775909 -249.82774 -6.2368369
33.170837 -249.85933 -6.2222571
29.908773 -249.97064 -6.4978561
30.704731 -249.92081 -7.8172908
34.179668 -249.87163 -7.9698648
34.390533 -249.88181 -7.9975629
30.980637 -249.80478 -8.1848011
33.831936 -249.88614 -8.1052828
29.514013 -249.84709 -8.2708817
29.719521 -249.90247 -8.2647686
34.525772 -249.84875 -8.6821861
30.443172 -249.96681 -9.1125689
31.231148 -249.97324 -9.0201063
32.643471 -249.96838 -9.0949841
33.06459 -249.82745 -9.1073122
33.317513 -249.93497 -9.1599512
31.536764 -249.97485 -9.3507137
33.65575 -249.85156 -9.3589897
24.044161 -249.95168 -9.649642
31.235962 -249.94914 -9.6314888
31.667713 -249.91937 -9.6660671
30.58984 -249.91487 -10.162018
33.084087 -249.8002 -10.209389
34.208359 -249.81015 -10.296405
30.0849 -249.94846 -10.904589
33.052773 -249.8665 -12.968378
28.386517 -249.95393 -13.607171
26.508987 -249.742 -6.146718
28.520901 -249.71445 -6.161685
30.157545 -249.65331 -6.1593509
34.641312 -249.67068 -6.121737
36.060162 -249.61336 -6.1528649
36.499737 -249.7177 -6.1288648
39.750153 -249.65701 -6.0952349
20.928118 -249.63437 -6.3352952
23.560509 -249.73715 -6.2446499
24.304623 -249.75957 -6.2835431
29.462261 -249.75256 -6.3464198
29.712566 -249.78857 -6.3080111
30.565042 -249.79309 -6.2317681
31.24791 -249.66724 -6.3231602
37.705521 -249.761 -6.250185
37.924126 -249.74692 -6.4189482
29.115116 -249.65321 -8.3369532
34.395836 -249.73479 -8.3546925
24.46167 -249.6221 -8.9890976
34.53138 -249.68021 -8.8140821
25.167873 -249.69307 -9.0317993
29.422394 -249.65662 -9.1040306
24.423126 -249.76057 -9.4647646
30.524662 -249.79422 -9.7863846
33.710812 -249.71878 -9.6546202
29.871769 -249.70816 -10.572502
34.928753 -249.71623 -10.755593
35.029942 -249.70184 -10.883255
33.362835 -249.73138 -11.056732
35.860062 -249.61868 -11.612467
32.542862 -249.69238 -12.705547
29.074337 -249.64835 -13.048321
29.297432 -249.78693 -13.827776
28.650185 -249.6487 -14.364943
29.394718 -249.75717 -14.540158
26.512444 -249.4726 -6.188447
29.416218 -249.53265 -6.1477771
29.744827 -249.45483 -6.1127071
37.117729 -249.59146 -6.1489348
37.673302 -249.52448 -6.1129599
37.932346 -249.46579 -6.1521578
24.947767 -249.48845 -6.2143898
30.711163 -249.59343 -6.2466412
33.113388 -249.47252 -6.2440252
33.21978 -249.52547 -6.2131739
37.700134 -249.48317 -6.2756481
37.93977 -249.5004 -6.297565
38.427639 -249.53664 -6.2902408
32.094643 -249.46021 -6.4434838
29.398888 -249.48618 -8.1347895
26.27718 -249.40823 -8.5019493
29.436371 -249.44368 -8.5155354
34.531223 -249.55338 -8.4085541
25.129456 -249.4097 -8.7008972
29.644131 -249.49731 -9.1735106
25.466515 -249.49463 -9.2901783
25.956326 -249.49759 -9.3094873
30.267349 -249.48096 -10.432042
34.495537 -249.56235 -10.75549
29.889389 -249.53427 -10.927844
34.903442 -249.52509 -11.556225
34.107292 -249.45636 -12.142922
32.346954 -249.41301 -13.017032
31.53289 -249.46092 -14.423609
33.312618 -249.41052 -15.196793
25.732719 -249.2581 -6.1756568
26.548071 -249.28003 -6.1460619
29.149271 -249.30157 -6.1296611
30.671606 -249.33383 -6.1891952
33.853821 -249.27254 -6.1751342
34.528572 -249.31325 -6.1126552
37.518852 -249.38925 -6.1400218
23.251595 -249.2814 -6.2168369
24.893946 -249.3148 -6.2415028
27.742851 -249.25726 -6.223145
33.122822 -249.338 -6.2377038
38.978668 -249.36037 -6.228775
32.099403 -249.29883 -6.4992099
27.042742 -249.32396 -6.880218
26.771523 -249.36722 -7.3136792
26.973652 -249.28177 -7.4399648
27.065115 -249.29358 -7.7125812
29.956669 -249.36658 -7.9427252
34.265854 -249.33954 -8.1647701
28.046925 -249.37958 -8.5145788
34.512161 -249.31683 -8.5290852
23.78693 -249.29724 -8.9477329
24.198429 -249.38506 -8.982687
25.352766 -249.24706 -8.9552174
34.975494 -249.37651 -8.9416561
35.828339 -249.20247 -9.2319603
35.082302 -249.35312 -9.5155125
29.677 -249.3605 -9.7810841
23.811611 -249.30927 -9.8941402
25.409233 -249.30307 -9.908638
29.337658 -249.28317 -10.192728
34.128231 -249.31422 -11.10733
29.498871 -249.38725 -11.361879
31.452877 -249.24658 -13.070854
29.462116 -249.30276 -13.837677
29.425343 -249.29376 -14.07646
29.804794 -249.35532 -14.568089
23.484505 -249.12132 -6.187809
25.743824 -249.06006 -6.1643181
26.870296 -249.1767 -6.1397481
33.315109 -249.01154 -6.199461
34.279678 -249.08023 -6.1298089
34.522659 -249.06955 -6.1233282
38.06918 -249.06898 -6.0150852
23.182014 -249.10115 -6.2204008
27.343964 -249.16864 -6.285913
32.738056 -249.16823 -6.2522888
33.21608 -249.09671 -6.2278581
31.106188 -249.05414 -6.4670181
32.163223 -249.08415 -6.5034399
27.248684 -249.01276 -6.6584282
31.95055 -249.07745 -6.8693652
26.776394 -249.0014 -7.1022449
27.298143 -249.17606 -7.193944
34.162064 -249.08344 -8.5804844
34.258354 -249.17143 -8.534853
27.129026 -249.16319 -8.7053699
29.56233 -249.07155 -9.1515751
26.246067 -249.12349 -9.3755836
22.743206 -249.1053 -9.5671864
22.943008 -249.04179 -9.4327412
25.40181 -249.0379 -9.7502108
29.612907 -249.13327 -9.6460867
24.495577 -249.09946 -10.436901
29.117861 -249.08044 -11.191673
29.03965 -249.05612 -12.093692
30.078621 -249.19676 -14.802045
38.471497 -248.91425 -5.985323
39.863972 -248.81601 -5.9807162
23.483774 -248.98119 -6.1962662
24.397726 -248.90262 -6.1543798
25.082127 -248.93965 -6.1672578
25.71557 -248.88086 -6.1687679
26.087175 -248.93289 -6.1295171
27.123991 -248.93652 -6.1501498
28.084087 -248.93652 -6.139791
28.582479 -248.86317 -6.1108551
30.63315 -248.95361 -6.1270938
34.855026 -248.83759 -6.1171322
21.381432 -248.94014 -6.2171092
21.577675 -248.81451 -6.2315898
22.1064 -248.93579 -6.2194328
24.882282 -248.89792 -6.223557
27.094997 -248.83734 -6.3147359
30.895542 -248.96234 -6.2167192
31.482777 -248.85884 -6.355814
33.221966 -248.95918 -6.2437568
31.318111 -248.90524 -6.5963368
27.628124 -248.92113 -6.620707
32.026085 -248.99544 -7.0270629
31.394592 -248.91824 -7.3260288
27.475952 -248.89317 -7.5255451
29.977158 -248.95187 -7.8810148
30.936363 -248.93298 -7.8544688
30.364664 -248.99185 -8.0677042
30.726501 -248.9295 -8.1455288
28.072161 -248.91922 -8.2950182
28.615026 -248.84357 -8.2256298
30.838842 -248.81721 -8.2986107
31.333172 -248.84265 -8.3549004
36.509865 -248.91263 -8.2541771
28.245541 -248.93689 -8.4655628
34.718231 -248.90466 -8.4441032
25.923384 -248.93094 -8.7571793
26.719925 -248.98999 -8.9117508
34.185562 -248.91255 -8.8238573
29.663548 -248.94519 -9.0550175
35.65733 -248.93071 -9.3241444
35.549061 -248.92018 -9.4520054
25.612741 -248.92305 -9.6466303
36.417473 -248.81148 -9.677002
29.625507 -248.85126 -9.8197002
32.09943 -248.83076 -10.004641
36.438194 -248.92667 -10.528365
29.359608 -248.88408 -11.065998
29.318624 -248.98438 -11.361899
33.781517 -248.96425 -11.400349
29.207821 -248.89642 -12.625093
35.864986 -248.99969 -12.655783
36.112446 -248.83266 -12.901615
29.044466 -248.83289 -13.092153
29.517292 -248.80881 -14.370483
33.390793 -248.85287 -14.483498
29.737921 -248.91223 -14.852546
22.294861 -248.73343 -6.1886039
22.755516 -248.79916 -6.1714382
24.895063 -248.64711 -6.1824231
27.771004 -248.74503 -6.1201119
28.922802 -248.64571 -6.0953169
30.630756 -248.64938 -6.1857591
35.135704 -248.69339 -6.0824852
36.539673 -248.65433 -6.030437
31.456211 -248.68866 -6.2989278
26.931965 -248.78946 -6.582531
27.23188 -248.66583 -6.5159941
31.398029 -248.66341 -6.5381289
31.954784 -248.75537 -6.6357288
26.894939 -248.65009 -6.9337029
27.074739 -248.73222 -6.8745818
31.663048 -248.67944 -6.8915129
31.977699 -248.7459 -7.0525751
27.608078 -248.78067 -7.343698
31.519659 -248.74365 -7.3756499
27.338814 -248.69702 -7.68466
36.387718 -248.73071 -7.9783378
31.466946 -248.69421 -8.099226
30.428349 -248.73825 -8.243535
30.953827 -248.65269 -8.4554234
25.825237 -248.6178 -8.7085609
31.38242 -248.69115 -8.6577091
27.460785 -248.63034 -8.9159298
29.494635 -248.64828 -8.9902515
36.225548 -248.70396 -8.8362541
33.257668 -248.64313 -9.101759
29.688236 -248.64957 -9.3153725
31.365185 -248.63113 -9.2028589
36.469589 -248.60898 -9.5643654
36.81443 -248.782 -9.5079184
29.218601 -248.78586 -9.7214308
33.908867 -248.61531 -9.8215466
24.250982 -248.72351 -10.154396
29.679199 -248.66724 -10.154265
34.19046 -248.74847 -10.262335
34.058857 -248.74625 -10.522176
32.934395 -248.75009 -11.032677
33.848621 -248.63405 -11.059838
32.867668 -248.784 -11.465195
34.322838 -248.64467 -12.179959
33.83469 -248.60931 -12.264381
29.144077 -248.66505 -12.682297
29.269768 -248.67862 -12.870735
33.908539 -248.62703 -12.954648
33.271019 -248.60886 -13.021642
31.5469 -248.60268 -13.311903
29.312244 -248.68965 -13.677062
29.41227 -248.73412 -13.731281
32.803337 -248.69891 -13.853643
31.553267 -248.62946 -14.468256
38.626183 -248.46802 -5.997273
39.471092 -248.42703 -5.9871101
22.113037 -248.46921 -6.167974
23.748974 -248.4183 -6.1749349
26.136312 -248.51431 -6.1154342
27.326 -248.52261 -6.11796
28.496944 -248.41696 -6.124434
28.987854 -248.55887 -6.0907631
34.533962 -248.45511 -6.0877829
38.067596 -248.50288 -6.0261121
39.09919 -248.46368 -6.0991378
39.697945 -248.43991 -6.1092281
31.905281 -248.49666 -6.3257799
27.312132 -248.55751 -6.930604
26.695312 -248.52673 -7.2444
26.205339 -248.53094 -7.8325949
36.232105 -248.41296 -7.9927392
37.034264 -248.41025 -7.9209609
27.447041 -248.52904 -8.3591251
28.109838 -248.53275 -8.5689659
31.728975 -248.50717 -8.4795485
31.864231 -248.5287 -8.647047
35.982513 -248.52161 -8.6042347
25.154884 -248.59451 -8.9194126
26.462698 -248.57651 -8.925642
27.843733 -248.47426 -8.8083038
31.398922 -248.51579 -8.832016
33.461918 -248.44823 -8.8945227
24.898445 -248.47295 -9.1769257
31.371014 -248.54666 -9.0278435
31.697334 -248.54706 -9.0244141
33.345718 -248.55759 -9.083416
24.873913 -248.5387 -9.3643885
26.091412 -248.46658 -9.301527
26.954399 -248.43336 -9.3764191
29.358263 -248.59991 -9.3191853
31.462826 -248.56483 -9.328826
33.377781 -248.52812 -9.4024897
35.042126 -248.53551 -9.4089861
36.484352 -248.55997 -9.5273247
31.507347 -248.57571 -9.7047453
35.436878 -248.57631 -9.9348221
33.769962 -248.57706 -10.239458
23.747391 -248.58372 -10.992743
32.799892 -248.53258 -11.030961
29.863262 -248.59167 -11.395895
32.75946 -248.49261 -13.866289
28.961781 -248.50874 -14.899692
31.73921 -248.52379 -15.240004
36.902016 -248.24438 -5.997498
37.740795 -248.217 -5.9736018
38.128265 -248.24573 -5.9845638
38.69883 -248.28076 -5.9445848
24.066784 -248.2775 -6.1475039
27.495068 -248.284 -6.1031308
28.063108 -248.28708 -6.1153612
28.301662 -248.26718 -6.1000819
30.975571 -248.28101 -6.1638188
34.416012 -248.27368 -6.1058712
34.678043 -248.2253 -6.0992851
34.974678 -248.29337 -6.066956
37.708801 -248.32718 -6.0263429
39.325005 -248.37912 -6.059413
39.617966 -248.21477 -6.0299382
31.78397 -248.35153 -6.2421012
27.17485 -248.34135 -6.4393182
27.026432 -248.33931 -6.622191
30.564026 -248.31682 -7.7698212
23.801723 -248.26976 -7.905097
23.697792 -248.29886 -8.0762444
36.870037 -248.30612 -8.0962734
25.277302 -248.24196 -8.587019
30.834297 -248.34273 -8.609436
33.57616 -248.26122 -8.6895132
36.098839 -248.27252 -8.7166471
36.261215 -248.30496 -8.7030411
27.720261 -248.22458 -8.9977512
35.141808 -248.29065 -8.8480368
36.638493 -248.2662 -9.0289421
34.844639 -248.24153 -9.476964
25.235203 -248.24487 -9.6938562
33.429741 -248.24303 -9.7753353
34.306114 -248.30716 -11.660323
35.716042 -248.25258 -11.760838
29.841198 -248.23393 -11.880941
33.285721 -248.2106 -11.893822
28.910202 -248.20122 -12.577549
32.555527 -248.3437 -12.548037
33.990528 -248.29341 -13.321138
29.286676 -248.29996 -13.913561
32.336891 -248.32652 -13.880043
29.4258 -248.30528 -15.99173
29.275909 -248.21924 -16.098042
35.768227 -248.06526 -5.9956169
36.670952 -248.13881 -5.9604139
37.474846 -248.14186 -5.9502301
38.089649 -248.1524 -5.9612842
38.54232 -248.14043 -5.9243059
20.544563 -248.13785 -6.1188898
20.681715 -248.09427 -6.1037269
28.319424 -248.17741 -6.083179
28.964066 -248.07187 -6.0805178
29.121933 -248.16559 -6.0718198
36.689838 -248.07915 -6.0479498
37.092697 -248.02142 -6.0181251
38.209061 -248.06903 -6.0829921
39.81369 -248.04419 -6.0766139
32.894585 -248.05771 -6.2983112
25.014599 -248.11737 -7.0651932
27.234362 -248.03133 -7.672945
34.378208 -248.02235 -7.79879
24.36108 -248.09845 -8.1298256
34.457428 -248.02176 -8.1374836
36.897976 -248.15715 -8.115303
22.446602 -248.05815 -8.3179569
26.294651 -248.05528 -8.2906361
30.065329 -248.15826 -8.2139282
36.595161 -248.11584 -8.2963209
37.048424 -248.15192 -8.2783546
36.314137 -248.03998 -8.5138245
34.333862 -248.18004 -8.6381931
35.74353 -248.00691 -8.7917356
35.931675 -248.18141 -8.6786165
29.064018 -248.08376 -8.9433355
35.654732 -248.08789 -8.9240513
23.833439 -248.19545 -9.2776852
29.72216 -248.09436 -9.7852058
33.850891 -248.16606 -10.058782
35.933571 -248.1606 -10.243828
35.882175 -248.0502 -11.31452
29.837448 -248.16937 -11.428302
28.810207 -248.01602 -12.233082
29.895954 -248.04434 -12.683418
28.910889 -248.13464 -12.937926
28.268579 -248.11824 -13.107128
29.060678 -248.16859 -13.703435
30.087744 -248.03268 -14.901609
29.049553 -248.19479 -15.328403
35.655067 -247.84309 -5.9923182
36.102997 -247.96617 -5.9743629
36.684208 -247.87973 -5.9401612
38.340591 -247.89279 -5.9564891
39.329613 -247.95897 -5.9145298
39.753002 -247.97902 -5.9402561
23.809444 -247.84473 -6.129293
25.150917 -247.89719 -6.0784249
26.156139 -247.90891 -6.0519309
26.274021 -247.84285 -6.0394039
26.689367 -247.96609 -6.037374
27.51247 -247.89349 -6.0785789
28.288603 -247.8448 -6.1016579
34.272007 -247.98878 -6.0877662
35.822887 -247.88452 -6.0229721
38.889969 -247.98911 -6.064868
39.752899 -247.96106 -6.0843129
32.861202 -247.95593 -6.4720569
34.650238 -247.81387 -6.7497292
34.822174 -247.86725 -6.7804799
29.251722 -247.84105 -6.9417272
33.177525 -247.8555 -6.8333259
34.677063 -247.80928 -6.9500709
24.845516 -247.81145 -7.021553
34.675636 -247.84169 -7.3207669
25.779144 -247.86453 -7.9135542
26.148846 -247.80145 -7.996171
28.890347 -247.903 -7.82337
35.450764 -247.88817 -7.9753828
36.180008 -247.85793 -7.928607
24.598635 -247.85002 -8.0349846
35.490582 -247.90656 -8.0522766
35.785442 -247.9771 -8.0983105
33.645836 -247.9079 -8.263793
30.065672 -247.89589 -8.5761967
33.952507 -247.87033 -8.542017
35.263088 -247.97256 -8.5971889
35.60281 -247.83861 -8.5956688
36.325775 -247.93448 -8.5426645
27.330135 -247.81577 -8.6260204
28.883198 -247.92845 -8.9635696
33.844402 -247.82593 -8.846777
36.250591 -247.90347 -8.8184681
35.916706 -247.80681 -9.076004
27.116203 -247.8291 -9.2963543
35.802422 -247.85603 -9.3509417
30.093948 -247.8024 -9.419239
31.399088 -247.8335 -10.19598
29.510303 -247.89894 -10.746939
29.519505 -247.89642 -10.981473
35.784214 -247.90166 -11.213431
29.800472 -247.84721 -11.735966
28.718349 -247.89487 -12.54331
31.046085 -247.81973 -12.573013
35.241695 -247.82712 -12.61307
32.981468 -247.8765 -12.917207
29.825848 -247.82312 -13.000855
31.370268 -247.91743 -14.338367
29.122158 -247.886 -14.407888
29.100574 -247.85939 -14.846243
26.68177 -247.70673 -5.9950662
34.948334 -247.6787 -5.9812531
35.045334 -247.73627 -5.9743471
35.731308 -247.72095 -5.960568
35.924702 -247.72615 -5.9631829
36.299767 -247.72751 -5.9224839
37.368099 -247.67987 -5.8583012
37.681068 -247.66673 -5.8683128
39.54649 -247.63681 -5.8561339
22.6409 -247.75946 -6.1171708
23.32338 -247.67369 -6.0777941
25.056984 -247.71725 -6.065887
25.225052 -247.76817 -6.0451732
25.470619 -247.74689 -6.0593319
28.704153 -247.67006 -6.0699129
28.939253 -247.73027 -6.0746398
29.295238 -247.77779 -6.05408
34.278927 -247.66454 -6.0815139
34.515709 -247.72626 -6.1347198
34.831142 -247.69507 -6.0021572
37.065575 -247.73239 -6.1527338
36.996078 -247.71812 -6.341238
32.550678 -247.71371 -6.501935
31.138054 -247.71007 -6.7890239
33.099792 -247.72473 -6.7224588
33.288002 -247.71155 -6.6294179
23.745819 -247.66296 -7.5369558
28.23144 -247.75046 -7.4364028
30.098724 -247.68933 -7.4751158
29.6926 -247.7757 -7.9199018
24.334549 -247.79251 -8.0680475
26.633522 -247.76337 -8.1443443
28.928432 -247.76175 -8.1716938
29.868412 -247.66867 -8.1877403
27.916128 -247.73773 -8.3051186
34.9562 -247.75124 -8.2783527
25.697178 -247.67862 -8.6692829
35.102371 -247.77737 -8.6773548
27.449669 -247.74344 -8.868556
36.520584 -247.72577 -8.8264656
26.182972 -247.66931 -9.0546417
26.532076 -247.79449 -9.0534067
34.260586 -247.7567 -9.0538721
35.122932 -247.74698 -9.0151806
27.462912 -247.7769 -9.3987303
34.966232 -247.76347 -9.3364658
25.352694 -247.77011 -10.153118
30.993412 -247.7926 -10.153494
36.524605 -247.65305 -10.765259
30.048912 -247.67407 -10.934709
36.881966 -247.69493 -10.969725
33.193695 -247.69662 -11.678703
30.078808 -247.76501 -12.683695
31.322948 -247.72211 -12.602038
29.044266 -247.74863 -13.334139
29.872711 -247.79977 -13.363071
26.220455 -247.44411 -5.9927931
28.678196 -247.40599 -5.883172
36.283569 -247.50229 -5.9180012
38.676079 -247.47789 -5.8395219
39.290112 -247.40306 -5.8350101
20.839745 -247.55978 -6.0671592
21.631422 -247.40356 -6.0258789
22.549322 -247.47556 -6.0896091
23.303829 -247.53622 -6.0882888
24.88871 -247.59335 -6.0703678
25.287819 -247.52354 -6.0880861
25.841198 -247.46799 -6.0568929
26.125982 -247.52577 -6.0202289
26.938885 -247.47852 -6.0140352
27.217539 -247.58743 -6.0235801
28.657742 -247.48087 -6.1243639
32.10487 -247.47838 -6.1644368
32.612617 -247.4586 -6.1906848
29.487743 -247.46638 -6.2497268
30.643858 -247.40117 -6.24262
28.564642 -247.41504 -6.5399332
29.078272 -247.51627 -6.4067321
29.521484 -247.40338 -6.4180732
33.097092 -247.42732 -6.5726461
29.005482 -247.49188 -6.709847
32.073753 -247.43904 -6.7057471
28.269819 -247.48248 -6.9025912
24.963709 -247.40955 -7.029222
28.993057 -247.42139 -7.1184001
29.629601 -247.43759 -7.1475072
28.3328 -247.40622 -7.329843
31.18001 -247.46849 -7.3097291
23.783562 -247.49889 -7.4878702
31.798409 -247.515 -7.595911
31.860432 -247.45541 -7.5651541
35.148838 -247.53987 -7.7917171
25.928619 -247.40195 -7.958837
27.370956 -247.54115 -7.8217859
28.325142 -247.43593 -7.9608092
30.138718 -247.5464 -7.957119
30.782291 -247.51794 -7.813879
26.241287 -247.53259 -8.2214966
29.018808 -247.45581 -8.2102776
36.942856 -247.47296 -8.2477808
33.722385 -247.44281 -8.5218763
35.24062 -247.46405 -8.5626879
27.07416 -247.53062 -8.9444714
27.223209 -247.56674 -8.9153461
28.495941 -247.42215 -8.8303118
34.623978 -247.49257 -9.0076895
30.106195 -247.4348 -9.6760883
33.445946 -247.55658 -10.165737
34.490204 -247.40863 -10.030411
35.828175 -247.47702 -10.126889
