# .PCD v0.7 - Point Cloud Data file format
VERSION 0.7
FIELDS x y z
SIZE 4 4 4
TYPE F F F
COUNT 1 1 1
WIDTH 1601
HEIGHT 1
VIEWPOINT 0 0 0 1 0 0 0
POINTS 1601
DATA ascii
42.511864 23.674538 -5.0177021
44.811272 23.877125 3.4382391
50.919086 23.925457 -5.148325
46.645218 24.198124 3.64539
52.085358 24.190407 3.5140271
53.454407 24.075378 -1.347177
46.550907 24.153627 -1.7651629
44.818382 24.285847 3.4827089
51.968353 24.223295 3.2117159
50.68108 24.28793 -5.667068
48.767529 24.358717 -5.9378991
58.085896 24.524529 3.6278369
58.5303 24.591557 3.648788
40.561039 24.581297 3.5807149
54.315037 24.453793 3.450191
57.873825 24.561516 3.528723
53.841793 24.540066 -3.5828259
53.789291 24.443186 -3.7090421
55.460869 24.615328 3.5311029
54.140045 24.641668 -1.814968
54.237396 24.646263 -2.0772409
53.151066 24.624529 -6.4004769
56.327347 24.904457 3.566258
56.97736 24.929193 3.5029421
57.250179 24.883732 3.4108081
58.048859 24.835327 3.420495
57.892281 24.815926 3.3141961
57.741089 24.927799 2.477824
57.552292 24.968445 2.131074
57.764446 24.955578 2.1062939
57.816956 24.956211 1.8192329
58.165813 24.980812 1.47153
57.8592 24.933191 0.98208898
47.815956 24.93845 -5.1429892
43.625645 24.861357 -7.7572579
46.176342 25.18988 3.6336939
47.859985 25.083382 3.667454
56.305519 25.183773 3.6018801
58.615921 25.142288 3.6177599
53.402405 25.186008 3.4480259
54.696766 25.136414 3.4557979
54.882599 25.123135 3.5416169
55.494385 25.130232 3.5465641
58.505547 25.013266 3.578665
55.397549 25.066364 2.9660709
57.980072 25.173504 2.9521179
57.870071 25.056221 2.473824
57.416397 25.028446 2.294548
57.898239 25.090126 2.296982
58.068481 25.14854 2.260258
57.962944 25.112942 1.909927
58.124821 25.10483 1.876352
55.337135 25.081692 1.401566
58.056557 25.057131 1.0802619
57.589886 25.105429 0.94558799
57.884209 25.060184 0.60837102
58.021248 25.124044 -0.916242
55.435566 25.094227 -1.407719
54.453209 25.064613 -2.0715251
57.783493 25.094465 -2.1170559
48.132523 25.018833 -4.689115
56.020302 25.184189 -4.7487822
55.911781 25.110277 -4.9917979
59.293076 25.34193 3.6812561
58.122238 25.270329 2.8838611
57.943367 25.203754 2.483
58.050949 25.235415 2.4838879
58.128036 25.212004 2.3034251
57.457085 25.311647 2.1018929
57.914055 25.342464 1.325588
57.777397 25.284859 -0.49591801
55.41106 25.303391 -3.376282
56.189903 25.310658 -5.095067
49.428909 25.414576 3.6530449
56.942978 25.405947 3.6156721
47.43647 25.549141 3.59425
50.402214 25.527445 3.556397
54.906342 25.42417 3.5474551
57.255821 25.457167 3.3420291
57.786831 25.489965 1.712141
57.937096 25.488916 0.29738399
57.843994 25.415415 -3.532948
55.836285 25.478653 -4.0964599
58.095211 25.514774 -5.6417131
56.978664 25.500437 -6.2195492
49.939789 25.614729 3.6086769
51.330727 25.794556 3.682965
55.768921 25.737633 3.6261261
40.806808 25.782627 3.5889311
48.17857 25.664444 3.5853641
49.440887 25.656958 3.46223
54.198578 25.733673 -4.249145
40.656364 25.845695 3.614012
56.73064 25.937408 3.6512179
55.758045 26.140913 3.638128
59.840767 26.343113 -9.7832317
45.883137 26.723621 3.781148
47.576054 26.770649 3.66943
55.042194 26.734858 3.680887
50.187702 26.645493 3.4842429
41.243568 26.649393 -5.4201999
52.326199 26.97035 3.620127
59.810223 26.933352 3.754313
56.233349 27.386219 3.7041941
59.396988 27.236584 3.793817
54.316143 27.391846 -6.2835302
52.607643 27.23563 -6.619678
47.775963 27.597939 3.7447431
55.693947 27.452229 3.721318
46.686466 27.68259 3.787601
47.437782 27.866549 3.7517841
53.521099 27.974552 3.7335751
46.199429 28.131348 3.7089989
52.890198 28.011595 3.75266
55.062546 28.230097 3.7787049
55.45377 28.582771 3.777622
46.444111 28.798214 3.8127561
57.948723 28.786331 3.3144431
57.911461 28.912321 3.7160871
57.957413 28.923683 3.4758761
57.962376 28.860062 3.2805641
58.053413 28.996412 3.377563
57.960205 28.866783 2.8509891
58.020668 28.870705 1.992551
57.944969 28.851057 1.793795
57.924644 28.948395 -0.47631899
57.980026 28.966312 -0.72944403
57.917988 28.95327 -0.80308002
54.110107 29.154522 3.320857
54.419594 29.151001 3.298919
54.149475 29.146845 2.6604259
58.185699 29.080551 2.6304951
54.326355 29.117199 2.4650581
59.85305 29.08308 2.5821409
54.435215 29.118168 2.3617809
58.709595 29.147129 2.352325
58.117764 29.059578 2.183985
58.462173 29.18738 1.840749
57.506252 29.186712 1.479439
58.567154 29.172962 1.546427
59.708763 29.158646 1.140534
57.759476 29.129107 0.19746999
57.915245 29.129078 -0.128286
56.958199 29.19639 -0.368848
54.410614 29.083763 -0.41738001
54.310181 29.17247 -0.93870097
58.71236 29.147705 -1.100974
54.355225 29.138189 -2.070611
58.072319 29.120092 -2.6960959
58.068943 29.073069 -4.9496102
54.075737 29.396372 3.536397
46.865353 29.322227 3.3612471
54.239098 29.288395 3.3048999
54.45948 29.300394 3.3415909
57.729263 29.385822 3.3800981
58.1465 29.292099 3.3456111
57.719978 29.370426 2.9110551
50.381878 29.346336 2.6469309
53.060112 29.345295 2.6608591
53.417 29.329044 2.6707809
54.287117 29.21703 2.648294
54.605873 29.276802 2.666584
54.991913 29.259119 2.668191
55.390488 29.239109 2.6569901
55.8013 29.236351 2.668231
56.152107 29.222183 2.6506219
50.513119 29.321693 2.5446141
50.675598 29.32597 2.5388529
52.602463 29.392445 2.5745189
54.511429 29.352808 2.525564
56.729492 29.222895 2.5918059
57.128452 29.215467 2.5923741
57.070274 29.230515 2.310442
58.135403 29.210287 2.3307791
53.495777 29.379616 2.1628089
55.712379 29.278774 2.1674349
56.229252 29.256117 2.1344709
56.662289 29.247723 2.180356
54.207718 29.247227 1.800503
56.164215 29.290825 1.90272
57.011909 29.258974 1.9194731
57.556217 29.2363 1.832077
56.283798 29.281942 1.385586
57.675461 29.2351 1.399045
58.62764 29.222702 1.248863
50.690491 29.398788 1.030846
56.232166 29.31049 1.089761
58.577789 29.219662 1.1245199
57.690323 29.23526 0.96894598
50.684708 29.377756 0.77049601
58.54269 29.25605 0.300181
58.994129 29.222347 0.31124499
55.689434 29.355545 0.156826
47.01078 29.372383 -0.106151
59.789501 29.220535 -0.145091
56.560951 29.384789 -1.4052
58.741589 29.260519 -1.7102031
58.220875 29.354595 -3.0824139
59.448822 29.295841 -3.041708
58.264374 29.384878 -3.2847691
58.68325 29.24201 -4.13201
55.337612 29.398857 -4.5738029
59.529938 29.236183 -4.6323032
52.677254 29.201984 -6.322648
54.419205 29.52953 3.8346839
47.186672 29.455143 3.719774
46.777534 29.409855 3.3732519
43.422386 29.596487 2.6996441
46.178604 29.594578 2.6870711
49.123222 29.532789 2.692956
50.987301 29.437418 2.6188459
51.435722 29.425781 2.648344
46.912125 29.449575 2.574533
49.370575 29.526375 2.5962861
49.788761 29.516241 2.5825059
50.344193 29.494299 2.5385389
51.867573 29.485126 2.4779329
52.012203 29.440086 2.4416201
52.311245 29.42754 2.503828
46.98233 29.456793 2.2692981
49.394501 29.567352 2.2829089
50.96032 29.481325 2.2485199
50.277855 29.440697 2.119946
53.030411 29.403009 2.0794721
52.623253 29.438522 1.859624
51.840302 29.464899 1.6940629
48.294685 29.590452 1.330054
48.713379 29.573053 1.375632
52.991882 29.410639 1.319245
51.765526 29.492891 1.108034
50.688862 29.404106 0.81853902
51.738701 29.505249 0.60301101
52.953918 29.451281 0.62253702
53.415024 29.436996 0.61470997
50.882027 29.430201 0.30823001
53.327305 29.458191 0.087598003
46.865425 29.538002 -0.14075901
49.283943 29.573709 -0.173507
52.681858 29.455828 -0.231125
53.711971 29.42001 -0.25909701
50.201897 29.525263 -0.452308
48.380783 29.599026 -0.80463701
52.591228 29.457516 -0.91421998
48.878273 29.578114 -1.019626
50.906151 29.531124 -1.075433
48.946301 29.59441 -1.2207429
50.846836 29.503977 -1.2994159
52.935593 29.543701 -1.4675601
51.943527 29.581457 -1.747687
52.506264 29.565426 -1.725873
50.904339 29.506516 -1.956134
55.113342 29.433817 -1.92951
46.932259 29.528492 -2.1067059
54.766621 29.42536 -2.097599
50.390263 29.450537 -2.433306
50.901936 29.531685 -2.645462
51.378212 29.592073 -2.7678199
54.907291 29.480879 -2.6961491
54.718987 29.474483 -3.7189929
50.958786 29.546877 -3.8352201
55.32634 29.402443 -4.176333
54.198917 29.440308 -4.532186
55.012714 29.437021 -4.618567
53.814899 29.663513 3.9053521
47.075478 29.739758 3.697278
54.460167 29.625765 3.640691
59.78212 29.620369 3.7243979
43.110191 29.638077 3.47367
54.522774 29.67724 3.3957629
43.516075 29.647654 2.6746399
43.765774 29.759125 2.6060309
44.254135 29.735991 2.604311
44.647316 29.699139 2.6277609
44.926247 29.694532 2.634419
43.39949 29.684473 2.5960889
45.392948 29.697332 2.5861161
45.902184 29.671265 2.5987711
47.162457 29.604973 2.559026
47.472191 29.656433 2.5843379
47.909744 29.613686 2.5635619
43.684601 29.790909 2.2803481
44.172401 29.797194 2.268018
44.580421 29.768391 2.2826259
44.919514 29.749447 2.253273
45.280037 29.725368 2.2756641
45.759403 29.709949 2.276696
43.309464 29.67226 2.196965
45.572186 29.744484 2.0553739
47.341736 29.656914 2.066437
47.898247 29.646118 2.15676
48.197891 29.632902 2.1531661
48.670067 29.613651 2.1637111
45.446404 29.719162 1.332746
48.924324 29.615526 1.319289
47.147724 29.633659 0.95435202
49.450272 29.608761 0.99828202
46.668896 29.727686 0.570104
47.268684 29.711819 0.57977498
49.357922 29.700665 0.35442299
43.236465 29.733009 0.107611
49.310608 29.703829 0.09821
44.213612 29.797377 -0.108171
43.482712 29.744677 -0.429986
45.031719 29.745804 -0.51383102
43.374115 29.766895 -0.93232501
46.087189 29.796314 -1.354916
47.295395 29.743649 -1.279402
47.509277 29.724833 -1.228249
51.030357 29.62014 -1.297026
48.624912 29.718073 -1.411134
43.553268 29.773354 -1.612133
47.10865 29.639225 -1.805293
51.161858 29.611336 -1.918015
46.831337 29.673141 -2.14538
47.210243 29.627157 -2.1868639
51.318344 29.615685 -2.2111361
48.551098 29.754498 -2.4879889
48.886383 29.763023 -3.7881739
49.801296 29.711046 -3.7544379
53.496342 29.606058 -3.8392029
49.004295 29.68951 -4.544014
49.37986 29.686016 -4.6067371
47.283161 29.909779 3.7096291
54.274151 29.891842 3.73175
46.77404 29.864468 3.322186
42.25008 29.821953 2.6268761
42.595005 29.80328 2.6103759
40.171284 29.893738 2.5818651
41.427425 29.857124 2.5950351
41.795479 29.867315 2.5984221
41.48048 29.923641 2.2352729
42.089699 29.883152 2.2289131
44.108643 29.814173 2.325839
40.092422 29.982235 2.045326
40.551277 29.969189 2.080981
43.709381 29.846947 0.97254699
44.91711 29.808365 0.97958499
43.761578 29.867981 0.66714698
42.137962 29.951649 0.57560402
42.976799 29.894875 0.49362701
43.940926 29.879097 0.524845
41.133957 29.984539 0.28937301
42.763496 29.934647 0.36227199
43.934723 29.887768 0.36239299
44.151222 29.890268 0.316535
45.847359 29.819857 0.285294
45.841042 29.803696 -0.156104
45.739544 29.814709 -1.0680079
40.549175 29.93922 -1.238744
41.486347 29.93483 -1.283935
45.907162 29.971058 -1.595358
42.978344 29.993563 -1.970433
43.172127 29.885624 -2.7331519
43.775059 29.971169 -2.7492189
43.364422 29.806477 -3.0633199
43.731735 29.911789 -3.005239
44.606876 29.952396 -3.7351339
40.760101 29.991421 -4.2273769
41.847675 29.976532 -4.5594969
42.548241 29.954565 -4.4790468
50.176697 30.020222 3.6262619
54.727749 30.161606 3.707418
55.067635 30.160946 3.683336
55.41618 30.150475 3.681123
50.442787 30.052198 3.4629381
56.674942 30.1134 3.4522979
48.112808 30.188824 3.292398
56.245071 30.144684 3.1359079
58.94696 30.014816 2.9324751
41.743736 30.106627 2.2258301
40.129025 30.038939 0.66893101
40.951542 30.028267 0.223646
40.263374 30.046146 0.094884999
42.114662 30.008472 -0.14709499
40.27124 30.047617 -0.632191
42.156944 30.015226 -1.401345
48.786293 30.014963 -1.440104
48.880188 30.125225 -1.455804
40.58794 30.073586 -1.6893359
46.151546 30.028492 -1.6575511
52.742619 30.196642 -1.777055
42.208496 30.003012 -1.803739
41.038307 30.078938 -2.959151
40.184521 30.124033 -3.3687019
52.705681 30.138004 -3.58496
40.26326 30.111921 -3.7803299
41.831055 30.096466 -3.7938161
40.954308 30.036369 -4.5441761
52.326187 30.271235 3.829273
53.64534 30.222286 3.808424
47.51899 30.361155 3.4029801
52.157574 30.331604 2.9341309
48.900967 30.246279 -1.747844
45.215973 30.24217 -2.69361
54.155434 30.270498 -3.7404261
58.109108 30.221008 -5.1593361
58.952621 30.255226 -5.1636491
55.788185 30.390242 -5.6826062
59.945652 30.272007 -6.5267549
46.537872 30.520214 3.7920849
48.871506 30.458546 3.3267059
49.483406 30.420998 3.248744
48.431473 30.560017 2.8647289
48.929333 30.465212 2.9800611
47.314938 30.516376 2.7932191
48.841206 30.447634 2.790689
54.882217 30.457472 -5.057394
55.880257 30.443645 -5.973577
42.211445 30.714401 3.5579751
42.593979 30.671085 3.4922841
41.965836 30.646963 3.261009
44.977524 30.625734 3.377326
41.891163 30.809851 2.9877591
40.161015 31.334255 -2.5910261
54.430435 31.783234 -6.2396531
55.541683 33.507278 0.49324301
41.510612 35.322933 -2.876991
54.634537 36.577873 -6.929183
58.334579 38.170837 -5.4571671
48.541283 39.457348 -2.2080741
59.113785 20.088211 3.401792
59.390717 20.1758 3.412158
59.130165 20.087517 3.3159339
54.047333 20.041767 -0.51568902
45.167152 20.160166 -1.7689199
55.807919 20.136869 -2.357944
40.969528 20.043329 -2.5214939
42.633835 20.078737 -3.7009261
40.13829 20.100239 -7.8126259
44.958305 20.275417 3.4917979
50.196335 20.220753 3.5097539
55.108177 20.226658 3.4604709
50.03949 20.3974 -1.245515
45.076698 20.325737 -1.430494
54.058983 20.354195 -1.593098
48.813599 20.26038 -1.820549
46.073112 20.203543 -2.406528
44.496315 20.365696 -3.9409699
55.309216 20.308197 -11.868377
44.007969 20.502386 3.481138
44.346451 20.476503 -1.2604409
48.488182 20.569715 -1.833232
40.555363 20.5527 -2.181499
40.622871 20.670538 3.461762
50.354401 20.716602 3.465832
53.679642 20.788143 0.022539999
50.610474 20.624125 -0.41892901
40.208618 20.716221 -1.954941
50.897091 20.602816 -1.967075
45.286526 20.688749 -3.1045361
56.80373 20.741688 -3.4065051
41.664749 20.643848 -4.4629698
41.563061 20.633108 -5.0789089
54.690102 20.938023 -0.50301498
44.94062 20.898602 -0.84399801
52.172581 20.891102 -1.349154
52.210831 20.969986 -1.270327
50.450016 20.895941 -1.757936
56.923454 20.993376 -2.124259
51.782837 20.900051 -4.7413568
56.959129 20.885632 -4.9444289
42.945202 20.889706 -5.89714
56.680294 20.976143 -6.2362909
50.456116 21.015156 -0.42350101
45.174564 21.169796 -2.2701859
57.028759 21.040886 -2.4246991
59.473434 21.071892 -3.071625
55.879108 21.016569 -7.268044
49.093826 21.386633 3.500423
41.242676 21.373463 3.0287011
53.846649 21.221617 0.37417901
53.522148 21.216022 -0.52201903
45.134079 21.302193 -1.909376
41.737309 21.337095 -2.945555
52.926537 21.290497 -3.137486
40.229782 21.341816 -3.886852
51.306236 21.538862 3.4627149
40.937397 21.446037 2.786932
50.322952 21.510273 0.466804
50.835674 21.593153 0.304593
42.843533 21.534658 -1.477929
59.799118 21.510521 -3.0815761
42.559086 21.768572 3.4385009
51.586536 21.608852 3.5844491
52.235241 21.71653 3.4102931
51.018311 21.752863 3.3379979
52.863495 21.733063 2.1630111
53.30946 21.67551 1.013343
51.567909 21.6266 0.60886198
51.551968 21.64332 0.57605302
49.393951 21.638575 -1.359445
53.073105 21.766895 -1.406701
52.104919 21.646534 -1.878002
48.874687 21.676037 -2.175277
47.884468 21.658033 -3.1236451
41.716904 21.794804 -3.7267079
49.376362 21.712132 -4.183908
52.614033 21.68574 -4.5195079
45.682339 21.860798 3.547153
51.834232 21.868454 3.4067719
41.94257 21.867119 3.285327
52.464382 21.860006 2.366544
52.982025 21.854563 1.802341
52.517208 21.994652 1.104443
44.307186 21.978985 -0.153042
42.317501 21.947809 -0.38953599
41.016632 21.834015 -2.439594
49.193268 22.132915 3.616262
43.625656 22.158195 3.470504
52.174858 22.107185 3.254513
51.454742 22.169518 2.69486
44.420811 22.014877 -0.14463
49.802422 22.151421 -2.467066
40.656895 22.254692 3.489783
46.833317 22.227995 3.5538621
59.383011 22.271343 3.4996171
44.609123 22.221659 3.3438809
49.425148 22.293427 3.0641191
49.669647 22.28899 2.140938
52.220673 22.343956 1.7101361
42.905239 22.291811 0.41245699
43.359829 22.312401 0.182515
50.049438 22.303648 -1.057507
54.671501 22.344976 -1.9316829
40.236153 22.26087 -3.133707
40.976791 22.257153 -3.786474
52.593288 22.222931 -5.3681092
41.257889 22.498577 3.3095801
49.925629 22.560059 3.070574
51.261925 22.451534 2.103668
43.847973 22.419851 0.61722797
52.402039 22.468262 0.34973001
51.037277 22.547354 -0.95244801
50.024483 22.547222 -1.237525
51.032875 22.535761 -1.562366
52.960068 22.504023 -1.5412641
50.50349 22.594389 -1.692755
40.24625 22.510359 -3.031091
40.449623 22.530571 -3.0767169
56.35424 22.592972 -5.402514
58.591827 22.410511 -5.6071849
52.955051 22.578947 -13.531065
44.668179 22.644239 3.4351549
59.056458 22.691336 3.5357859
44.038578 22.766945 3.3648081
42.701218 22.705029 3.179059
43.717098 22.736607 3.074343
51.891968 22.712898 0.12630001
51.345238 22.782398 -1.091064
47.203659 22.634489 -1.846314
50.60434 22.688522 -4.1055088
45.864708 22.967598 3.621279
41.41275 22.992229 3.49649
57.805744 22.987534 3.5127161
51.699654 22.961624 2.955658
43.508808 22.850712 2.507637
49.178516 22.894873 2.492759
52.458557 22.989937 0.69045401
49.667404 22.998766 -1.10621
50.709793 22.865627 -1.122
48.389942 22.914507 -2.1893511
43.622219 22.813396 -7.5182991
44.967186 23.065426 3.631551
42.66375 23.0273 2.8423331
52.396614 23.198509 2.5993741
43.566021 23.005205 2.2484181
42.965076 23.008236 2.0049739
43.641876 23.059059 0.176321
51.674881 23.038578 -0.51868403
43.563919 23.125324 -1.6958899
47.86729 23.048016 -3.23754
40.101006 23.078056 -5.2223072
43.804543 23.323278 3.063534
43.697773 23.327438 2.6127689
52.346802 23.38718 2.3030009
43.665611 23.244694 2.1694009
52.357296 23.360573 1.119729
43.709465 23.260113 -1.517813
49.061146 23.312155 -2.1469989
47.941147 23.428482 3.563863
57.049362 23.486462 3.5263841
52.30146 23.412052 2.6216841
43.188503 23.487808 -1.443351
43.256527 23.474886 -1.482935
46.702816 23.514633 -2.91958
54.341003 23.481998 -3.054981
49.84259 23.427591 -4.1261978
43.811138 23.544474 -4.4267941
43.867561 23.545469 -5.8011098
44.594162 23.57637 -6.1907678
40.690216 23.64772 3.527931
41.222088 23.693775 3.500777
52.967472 23.712282 -0.489364
43.205189 23.61668 -2.966624
43.145882 23.613085 -3.0411961
43.131378 23.606834 -3.668252
43.068336 23.615562 -4.9312859
40.016598 23.688505 -5.2776871
44.443913 23.751181 -6.5581608
45.355919 23.632591 -7.688354
42.894955 23.805696 2.6186249
42.96336 23.868774 -0.757101
53.276752 23.955578 -0.92326301
46.438309 23.841888 -1.225834
52.945312 23.894722 -1.3967969
41.730362 24.119261 3.5426641
52.549641 24.013828 -1.658747
44.649063 24.049221 -7.545496
46.146389 24.230804 3.6570339
40.634945 24.252542 3.563623
52.696087 24.320881 3.408262
52.940147 24.248051 -1.672711
53.767044 24.587193 3.4660721
56.550819 24.577219 3.548218
51.725632 24.444698 -6.190784
57.790451 24.644764 3.6959071
42.379482 24.603998 3.4985211
57.858871 24.621098 3.5034101
58.061546 24.744526 3.459002
42.901154 24.662788 3.3650479
57.426796 24.78594 3.0980561
52.887321 24.641392 -1.365665
54.421818 24.743563 -2.300324
54.348537 24.718288 -2.6053979
46.697304 24.888611 3.566797
52.634251 24.901434 3.5082059
53.741165 24.853708 3.4747341
54.112358 24.8337 3.4697869
57.080986 24.923847 3.4693329
57.147091 24.964746 3.3796561
57.794147 24.930571 3.0420549
57.853699 24.934904 2.0977621
57.494675 24.943153 1.584291
57.882912 24.951153 1.013707
40.295692 25.145996 3.615802
45.519585 25.123417 3.643157
48.287613 25.132452 3.647259
58.049633 25.080536 3.6757979
50.190552 25.011507 3.5931661
57.015511 25.072914 3.4962161
57.918018 25.080143 3.075573
58.085323 25.132984 2.53266
57.921234 25.102901 2.306355
58.086342 25.137533 2.3045771
55.427002 25.104725 2.1175339
58.158722 25.064493 2.124382
58.068844 25.038919 1.253402
57.894444 25.041176 1.0035321
55.340408 25.140743 0.115505
57.929543 25.057901 -0.12628099
57.903179 25.099701 -0.91535199
57.998131 25.141232 -1.314007
57.906944 25.142673 -1.48886
55.511578 25.167656 -1.85281
58.035053 25.162767 -2.255769
58.051502 25.119101 -2.728981
57.897839 25.080475 -2.884572
57.886421 25.090477 -3.390079
55.562111 25.189999 -3.7624531
58.14016 25.298124 3.546798
58.071987 25.258673 3.0472529
58.098541 25.212456 2.706969
57.921597 25.239262 2.5716469
57.488243 25.289528 1.775447
55.386242 25.207193 -0.71082401
58.087822 25.380062 -3.687546
57.862915 25.381844 -4.5189371
57.131649 25.274956 -6.8826718
41.44326 25.424517 3.629961
56.160503 25.40027 3.5826631
57.821106 25.502396 2.36111
58.028725 25.571583 -1.016201
57.961876 25.405876 -1.728503
58.076172 25.452681 -6.181828
50.529881 25.755798 3.636219
53.946926 25.638336 3.4745221
49.464409 25.732105 3.3892059
40.64959 25.745489 -5.4869719
42.22821 26.116194 3.6290171
52.17992 26.14431 3.654583
49.090553 26.379889 3.6282499
56.52816 26.224894 3.6159871
40.151081 26.525772 3.652631
40.360146 26.577869 -5.368206
41.356171 26.733692 3.69875
45.092712 26.623022 3.7179561
52.59594 26.681324 3.609911
46.542702 26.949736 3.797137
54.951324 26.949488 3.676156
50.44276 26.91555 3.4824989
52.085903 26.856916 3.552628
45.755268 27.195278 3.8029809
58.492958 27.2883 3.7416639
54.216942 27.209356 -5.3542018
40.53994 27.444107 3.707936
54.623112 27.565659 3.7491851
58.766396 27.52515 3.733753
48.109203 27.772995 3.724498
42.180836 28.304632 3.7737451
52.305847 28.389017 -5.6050181
40.478638 28.465431 3.801558
46.269806 28.530642 3.757709
58.669548 28.42915 3.792413
57.746147 28.936817 3.0686669
57.973137 28.969934 0.222147
54.322411 29.139647 3.2232471
59.537811 29.090305 2.6023149
57.49696 29.163214 2.5465591
58.604244 29.138727 2.5763221
57.970558 29.01939 2.295254
58.186146 29.170643 2.3457439
58.723454 29.177944 1.600274
58.1782 29.129494 1.427958
59.546333 29.140984 1.446064
59.874928 29.147949 1.399387
58.727764 29.197147 1.0045069
54.555618 29.18083 0.63341999
54.335442 29.083679 0.28325099
59.063251 29.190643 0.196098
58.534389 29.147375 -0.65454799
58.92672 29.147087 -0.68886298
59.303223 29.14122 -0.67952001
59.458488 29.148676 -0.96193999
54.419228 29.132603 -1.069976
57.934692 29.098852 -1.136023
54.366776 29.165623 -1.3277611
57.152473 29.19635 -1.2077889
54.356873 29.142815 -2.7711401
54.342613 29.179747 -3.385926
59.795509 29.184708 -4.13235
46.851528 29.287565 3.4992321
58.147919 29.332382 3.023097
53.591228 29.367929 2.4090221
55.429115 29.277349 2.587152
57.505085 29.215313 2.5649171
50.825798 29.329563 2.306345
57.070496 29.217281 2.217838
57.353165 29.215525 2.2925129
50.695129 29.370544 2.1639831
58.539974 29.202972 1.3834209
58.890236 29.204033 1.282865
46.933636 29.358603 1.06074
55.197536 29.370749 1.1581891
58.877357 29.209442 1.1172121
59.296371 29.224026 0.61011302
54.218842 29.251886 0.56449097
55.037922 29.384892 0.51163101
56.584621 29.307436 0.44685099
57.64537 29.257181 0.53126597
56.711243 29.309515 0.239233
58.966091 29.229668 -0.155873
54.951851 29.302364 -0.260259
53.090912 29.388557 -0.66119498
57.326691 29.210938 -0.66307902
57.038952 29.350098 -1.252014
57.271347 29.328951 -1.83216
56.56485 29.383625 -2.2530849
57.030212 29.365025 -2.2010989
58.61414 29.329218 -2.311909
58.682831 29.307337 -2.7192769
58.206032 29.305704 -2.884136
54.351898 29.278027 -3.011709
59.03595 29.317497 -3.0723419
59.786057 29.277769 -3.022624
57.829327 29.280838 -3.3021791
59.803841 29.238457 -3.835907
55.798649 29.382906 -4.1342192
56.216919 29.368303 -4.190599
59.319801 29.280998 -4.8573632
54.485546 29.419975 4.0373049
47.045532 29.472717 3.817878
55.07872 29.48233 3.8682439
46.934742 29.44236 3.4303
47.226238 29.468071 2.9380729
47.379059 29.550472 2.704438
51.747601 29.477581 2.4863629
52.075195 29.448643 2.516896
50.958916 29.49493 2.2819619
51.347614 29.488859 2.3027639
53.090553 29.417536 1.848539
49.249836 29.582102 1.1268409
51.434452 29.514048 0.65756899
51.17321 29.543869 0.49968499
53.77116 29.436855 0.48282501
58.258476 29.487247 0.345999
47.08226 29.557388 -0.081059001
49.668072 29.571835 -0.144097
47.025154 29.421608 -0.428956
47.927444 29.597927 -0.74049598
50.639748 29.439608 -0.623671
53.371033 29.420212 -0.69676697
49.799126 29.577826 -0.83577102
46.98217 29.530684 -1.809185
55.360573 29.436302 -2.2966161
54.793453 29.469326 -2.4198439
52.191254 29.578979 -2.6037469
55.399254 29.474354 -2.694891
56.212807 29.416664 -2.678628
53.009216 29.56839 -2.970933
53.690002 29.526024 -3.046268
56.227398 29.445318 -3.431442
52.186733 29.59605 -3.677824
53.68174 29.562704 -3.623585
55.050751 29.414078 -4.1561952
52.283653 29.542431 -4.2539411
43.456577 29.600988 3.641654
54.497162 29.614872 3.7363551
59.436615 29.708332 3.6191781
54.505974 29.666529 3.4104519
43.256424 29.652143 3.0334179
58.10347 29.616068 3.0462279
47.956661 29.602028 2.6582489
51.320599 29.642475 2.512362
43.453686 29.664104 2.2883451
47.903816 29.656038 2.209897
43.483284 29.679317 1.953688
47.135986 29.616898 1.316053
47.697445 29.636297 1.271175
48.13736 29.703455 0.47076899
46.099941 29.780933 0.29192799
47.522881 29.701496 0.29242501
50.441769 29.613621 0.25276199
49.497421 29.650808 0.120182
50.88726 29.602238 0.16441999
43.462776 29.755514 -0.36225301
47.429153 29.618317 -0.59467798
45.887287 29.689596 -0.650002
48.145893 29.604111 -0.70907003
49.271919 29.622501 -0.69917399
48.608421 29.700853 -1.046412
49.64674 29.614941 -1.134529
46.850739 29.62294 -1.358393
50.102749 29.752037 -1.267278
51.353424 29.611156 -1.290699
49.031181 29.716015 -1.898811
47.125233 29.724258 -2.122654
51.197037 29.628201 -2.060358
43.389038 29.794779 -2.282002
51.013065 29.636595 -2.2357161
47.100891 29.707094 -2.534878
47.31369 29.745577 -2.7326059
49.357594 29.707556 -2.6464989
50.184452 29.665417 -2.6616261
51.759586 29.621769 -2.9199841
52.34161 29.619129 -3.1990099
49.798576 29.697594 -3.3347521
50.911137 29.63208 -3.3404231
48.329159 29.781124 -3.7380559
50.440647 29.678646 -3.818387
49.468315 29.679913 -4.8318672
47.132595 29.80188 3.8296721
50.797764 29.910503 3.1927481
59.69352 29.981077 3.00404
47.224968 29.874748 2.964402
42.448235 29.844494 2.6116011
40.280304 29.904779 2.514647
41.048569 29.882465 2.5355101
41.677856 29.857243 2.550215
40.061634 29.995422 2.0090981
40.010521 29.987049 0.80013299
42.179226 29.925823 0.92095399
42.535118 29.939323 0.604743
42.627525 29.910038 0.63838702
41.339279 29.982424 0.473943
43.050732 29.877987 0.526169
41.276154 29.958605 0.39133501
42.288254 29.964806 0.293556
43.023457 29.929321 0.104523
42.501381 29.832994 -0.53009301
42.917995 29.814941 -0.50129199
40.888744 29.917955 -1.08506
44.138039 29.862877 -1.1295559
41.807945 29.94821 -1.299306
45.05307 29.889238 -1.315223
43.839199 29.923094 -1.942438
43.794292 29.960894 -2.1950481
45.741627 29.863434 -2.1796019
46.656212 29.819584 -2.584713
45.013969 29.913454 -3.1118319
43.360611 29.840611 -3.8530569
46.253304 29.849617 -3.922657
44.568031 29.858864 -4.1682281
42.581776 29.938507 -4.325676
42.208977 29.961304 -4.5121589
43.294456 29.833975 -5.472681
46.767593 30.006611 3.84677
54.29221 30.087231 3.7677901
48.42226 30.140921 3.1823051
58.31823 30.049187 3.058938
40.835251 30.171692 2.6363339
40.469116 30.029835 2.360568
40.384018 30.032568 0.80942303
41.691406 30.024405 0.46158701
40.050888 30.045649 0.31752199
40.129333 30.056694 0.081593998
41.379784 30.073071 -1.360202
40.680443 30.063599 -1.741596
40.999023 30.050636 -1.8971
43.098598 30.046989 -2.2318521
45.192287 30.040787 -2.3807721
40.509109 30.090725 -2.51178
46.692631 30.060453 -2.5917411
52.822365 30.18589 -2.4426479
41.743118 30.124107 -2.647007
43.885548 30.138306 -2.992018
40.57053 30.114895 -3.0050361
47.823776 30.142864 -3.0424509
44.464149 30.112186 -3.6729901
46.214031 30.180946 -3.689883
41.465126 30.092068 -3.8291271
48.411644 30.318558 3.9411659
44.609562 30.379053 3.435967
45.521461 30.328499 3.4453621
52.117676 30.313164 3.34481
50.559284 30.256887 3.080761
51.419682 30.35943 3.097949
47.788925 30.263588 2.8034971
44.705997 30.345497 2.786396
48.923523 30.398262 -2.9342229
52.031372 30.238836 -2.886462
46.082047 30.307507 -3.0734041
46.756622 30.234703 -3.430809
47.322971 30.304146 -3.4877911
48.012085 30.320219 -3.690469
54.316982 30.341583 -5.3839812
59.392815 30.244383 -5.3906488
46.152908 30.546352 3.754786
47.414478 30.460041 3.525176
47.271988 30.473572 2.932158
46.69873 30.407753 -3.759459
55.053131 30.483944 -6.0879722
56.110291 30.468107 -6.5765228
41.831322 30.733814 3.681983
40.717033 30.77684 3.488549
42.415691 30.683071 -3.94275
40.036915 30.802538 3.1593781
41.281448 30.804382 2.7436049
41.140549 30.853384 -1.540571
40.03669 31.241512 -2.231483
55.211838 31.599756 0.47030601
54.359577 33.727058 -5.7761798
42.647938 34.988712 -2.8362801
54.617737 35.53257 -6.2235961
54.62162 35.838352 -6.8830709
54.648331 36.543343 -6.4411492
58.281502 37.418552 -5.4874029
52.332542 20.147451 3.616663
50.583138 20.128376 3.5267949
44.30291 20.16148 -1.054183
45.847183 20.097076 -4.3008471
53.452274 20.182152 -4.2407641
45.930397 20.012939 -4.513061
41.746262 20.13818 -5.8805752
49.261391 20.28508 -1.528547
51.781178 20.302441 -1.728384
45.698006 20.284218 -2.401953
56.97377 20.315937 -3.344559
41.581032 20.369589 -5.489892
53.137642 20.220634 -10.422994
45.498779 20.542608 3.5218589
47.801464 20.561682 3.552913
49.368793 20.531425 3.519799
50.463753 20.555576 -0.45819199
40.676018 20.566093 -2.6967621
45.034836 20.498068 -3.0767231
53.282303 20.56436 -5.2292862
51.783688 20.603514 3.505445
59.389057 20.664095 3.3947411
53.838814 20.721882 -0.122698
52.399551 20.763865 -1.5962369
49.239796 20.791878 -2.1774571
53.402237 20.621628 -2.788604
40.518135 20.643389 -3.497432
44.955185 20.711897 -4.13132
40.773975 20.719772 -5.9194112
45.012299 20.806171 3.461544
49.445656 20.950464 3.478621
53.802074 20.904297 3.4771039
53.764694 20.957844 0.323001
54.931976 20.939947 -0.90084797
57.148296 20.969889 -2.171277
40.090424 20.936481 -2.4581759
56.924965 20.928425 -5.3502359
50.99556 21.033699 -0.36841199
44.692955 21.080921 -0.57562
54.700432 21.059952 -1.2563519
48.342033 21.020002 -1.548205
55.786552 21.037193 -1.495268
57.380302 21.072956 -1.912374
41.100594 21.043438 -3.871449
40.850277 21.060843 -4.1736302
56.905197 21.120815 -4.3351288
51.351002 21.334375 3.4864049
56.435555 21.37352 3.454397
44.147881 21.379118 -0.30222699
49.99094 21.238752 -0.33050001
55.380745 21.252071 -0.894557
42.892143 21.316425 -1.960372
42.133709 21.33506 -3.0511191
51.731945 21.267019 -4.8842821
43.84383 21.485258 3.47154
51.075428 21.487907 3.4286411
42.357201 21.56572 2.7696021
42.907467 21.49062 0.053978998
49.364601 21.563938 -1.3145649
42.80072 21.489565 -1.622838
42.889545 21.497828 -1.8170069
48.582745 21.430342 -1.933019
45.16082 21.51223 -3.1509149
58.274811 21.447701 -5.335845
42.00161 21.454956 -7.323555
40.280518 21.721642 3.4633241
43.037224 21.776932 3.474272
43.41774 21.783882 3.4977679
54.691708 21.72533 3.473145
56.528252 21.734241 3.4830911
52.455727 21.729248 3.17524
44.285301 21.619188 -0.104123
52.147411 21.775085 -0.797584
42.684814 21.643127 -1.329365
44.72261 21.704338 -1.364549
52.871586 21.753067 -1.317369
40.897736 21.618765 -1.611716
41.501431 21.902796 3.484822
52.805382 21.857166 3.4126501
56.873169 21.814137 3.519717
51.149513 21.966209 3.1907711
52.820168 21.903759 3.1354549
52.755585 21.905588 2.9110889
52.743847 21.866512 2.7242019
53.054482 21.824287 1.158325
52.866665 21.899561 -0.785537
41.755432 21.91761 -1.086746
45.730412 21.824575 -6.5259471
44.753071 22.054733 3.470479
50.64386 22.130104 3.4462309
51.590157 22.124681 3.209276
52.245724 22.108759 3.1936131
51.363304 22.089001 1.7429661
53.052361 22.105396 1.0308909
52.669403 22.087809 0.69752198
44.087677 22.164341 0.25531301
43.871681 22.160873 0.15599699
42.348633 22.073151 -0.389456
42.832321 22.05368 -0.32860801
43.702782 22.133823 -0.42649701
47.625393 22.192942 -3.1194689
49.872532 22.051626 -3.8503699
42.575962 22.086733 -10.759725
43.469147 22.310066 3.371583
51.106976 22.267599 3.133903
52.645256 22.253054 2.9861491
52.463711 22.353992 -0.088538997
51.589706 22.391865 -1.513938
41.165077 22.256269 -7.1728768
42.256935 22.56871 3.4812701
46.568756 22.570623 3.57142
50.591015 22.526121 3.429235
49.166386 22.512369 2.4657941
51.798683 22.442225 2.568785
43.888687 22.477287 0.554465
42.741161 22.453636 0.31555599
52.252869 22.471676 -0.055388998
40.402771 22.428331 -3.642015
47.738106 22.540693 -4.3123388
43.522594 22.606123 2.8202629
49.935562 22.704821 2.452487
49.183228 22.627607 2.36307
49.211143 22.687099 2.0886509
43.40329 22.790161 1.5812809
52.597012 22.650604 1.168403
51.918381 22.648582 0.717664
42.785728 22.645229 0.48182899
47.43148 22.680597 -2.3047881
42.320526 22.717545 -4.3487182
48.151897 22.674004 -4.2810259
46.713951 22.651104 -5.021584
49.351334 22.905396 3.6268561
40.589668 22.866047 3.4932129
50.768368 22.928827 3.42327
42.697403 22.928192 2.880043
43.054707 22.88612 2.6064999
42.983715 22.947477 2.3008001
43.033817 22.901466 2.141674
51.592552 22.952505 0.40872699
52.303852 22.973295 0.52323997
50.865959 22.876152 -0.86733103
49.572784 22.940575 -3.8484919
42.386879 22.879887 -4.285707
50.988132 22.827547 -5.0019999
53.675823 23.135033 3.485862
51.653221 23.045238 2.6858089
52.377087 23.168049 2.3410759
43.629593 23.105019 2.0497229
43.014587 23.058998 1.842932
43.438183 23.025009 0.57258201
42.978767 23.015703 -0.54765099
43.673004 23.112495 -0.56758702
43.693066 23.147993 -1.8061171
49.114368 23.17506 -4.252728
41.972191 23.063931 -5.7021108
43.881908 23.037155 -5.7204642
49.324905 23.215952 3.6237669
49.765274 23.236092 3.3388121
49.253868 23.296247 3.02389
42.736622 23.354172 2.602473
43.548332 23.238514 -2.2288041
54.149849 23.395121 -3.3086641
45.369564 23.496025 3.5670149
49.275536 23.403351 2.23734
46.294258 23.438379 -2.487972
43.758659 23.478004 -3.709445
41.67347 23.466183 -4.0747628
45.893589 23.711737 3.614012
41.023201 23.669098 3.5393929
49.219398 23.690205 3.5123751
43.663845 23.741171 3.34726
42.573349 23.678032 -0.53501397
49.17783 23.674894 -4.859962
55.721062 23.879957 3.63557
47.451977 23.817799 -3.22786
53.41478 23.911276 -3.287648
42.213394 23.957853 -4.7721052
50.84267 23.922779 -5.67908
55.899502 24.055534 3.64553
47.879166 24.047441 3.5835271
52.780102 24.024784 3.0870299
42.530403 24.028282 -0.295809
53.443466 24.080616 -0.91191298
55.24366 24.20505 3.606976
43.841858 24.232019 3.4827089
53.644279 24.298779 -0.94071901
53.788559 24.476112 -1.271167
53.398399 24.483202 -3.5571849
49.061623 24.438053 -5.897738
41.580402 24.736099 3.570055
52.588615 24.650932 3.4682851
58.094902 24.788189 3.3209369
54.758354 24.905972 3.619992
58.172752 24.935097 3.6738839
58.122547 24.953835 2.692028
57.523056 24.873335 1.724946
57.560799 24.838186 1.395739
57.746056 24.91515 1.270277
57.892185 24.982891 0.300872
47.517921 24.883469 -5.162261
56.532131 25.084713 3.54865
57.910946 25.105904 3.0847549
55.356739 25.087391 1.113699
55.382378 25.165808 -0.237857
57.863377 25.0536 -0.32959199
58.040932 25.166756 -1.7920229
55.425911 25.163366 -3.5283289
58.037498 25.12611 -3.8099899
57.986526 25.186455 -5.8968301
54.273464 25.385149 3.4747241
55.016331 25.285267 3.5570309
58.094013 25.270081 2.925139
58.025261 25.347313 -0.246107
58.046879 25.354588 -1.362563
55.360313 25.256546 -1.561697
58.08017 25.357124 -2.5648429
57.985256 25.2171 -2.707283
54.585884 25.234732 -3.004951
57.973763 25.238886 -3.0579751
57.944141 25.266508 -3.7839639
55.503483 25.304663 -3.8863969
56.04932 25.347301 -4.5979581
58.022167 25.347439 -5.1323938
47.319229 25.534981 3.675277
40.888824 25.462406 3.571959
49.750511 25.593498 3.4968259
53.464958 25.484915 3.4860849
47.527382 25.440147 -4.7890801
57.401855 25.423946 -7.0972681
47.44912 25.83967 3.7067571
50.976223 25.941418 3.574173
47.095848 25.98394 3.359338
55.813774 25.908066 -6.084116
59.817383 26.093056 3.7093761
52.16132 26.042419 3.5562611
40.11615 26.294971 3.65241
47.241837 26.268646 3.552772
53.515053 26.228092 -5.5634608
41.455208 26.545305 3.6818321
49.142933 26.432224 3.3855979
49.441696 26.471786 3.3961861
49.869347 26.776623 3.387151
55.358826 26.948095 3.6599541
46.115349 27.004078 3.8070431
58.780567 27.1203 3.7345049
42.055717 27.298971 3.7086711
46.778908 27.332338 3.768429
52.892601 27.600691 -5.6944351
55.858826 28.085186 3.751761
42.059486 28.701862 3.8573999
40.242577 28.693035 3.771183
57.943993 28.916283 3.124881
57.799294 28.986588 2.644732
58.003914 28.911474 0.068017997
57.991524 28.932264 -1.725505
54.426445 29.144657 3.4686961
53.987312 29.171188 3.2583549
54.343979 29.13084 2.508697
58.958965 29.143923 2.1948199
58.094933 29.116722 1.107428
59.057076 29.183868 1.11181
59.448544 29.174431 0.53513002
54.425327 29.049908 0.38158101
57.794926 29.085297 0.31551799
56.796619 29.196638 -0.250873
57.479546 29.185135 -1.057755
57.925446 29.077703 -1.415436
57.979706 29.02309 -1.714895
58.045013 29.082947 -1.743188
54.417503 29.123505 -1.956738
54.287735 29.172237 -2.2721691
58.084267 29.109518 -2.3547511
54.487885 29.394648 3.4851589
50.372993 29.336231 3.290709
54.438606 29.205845 3.304435
58.151005 29.221754 3.332427
46.899078 29.319599 3.0948961
50.723209 29.307949 3.1447971
56.717796 29.205992 2.811887
54.945618 29.329998 2.5987189
50.511719 29.328411 2.3144031
59.303913 29.226954 2.249661
54.232079 29.223499 2.1846399
54.987217 29.312019 2.1227541
53.743317 29.381382 1.725017
55.09383 29.302408 1.509611
50.785023 29.335188 1.326592
58.299355 29.226009 1.331349
57.263279 29.278849 0.85750198
59.390602 29.206739 0.92800999
53.752926 29.398598 0.64894903
55.337566 29.367867 0.63281
50.538429 29.374146 0.459631
54.690979 29.37941 0.59765798
56.290108 29.329433 0.558559
57.312763 29.277485 0.28141201
47.005894 29.385414 0.18859801
55.287945 29.37785 0.165797
57.330303 29.216339 -0.148476
57.456238 29.255478 -0.14364199
59.423443 29.226034 -0.152071
55.339211 29.294121 -0.73574001
56.618454 29.226379 -0.67874199
57.605808 29.209564 -0.759175
53.410038 29.36994 -0.95746499
57.654991 29.324509 -1.130554
56.556839 29.370102 -1.825853
59.80162 29.243454 -2.6134369
59.322464 29.242939 -4.1923208
57.396385 29.334997 -4.593636
43.484875 29.588642 3.8624029
46.955109 29.438162 3.144166
46.860241 29.422134 2.649039
47.698273 29.553246 2.694313
49.462704 29.501787 2.748178
48.65522 29.562534 2.5938671
53.385883 29.409161 2.587821
48.546898 29.5823 2.273632
51.317963 29.463984 2.331799
46.874138 29.443489 1.930059
49.42625 29.570734 1.283753
52.269371 29.456295 1.355978
50.922581 29.522789 1.0443031
51.394119 29.50104 1.1137249
52.269173 29.470078 1.0694031
50.232643 29.560587 0.98000199
50.178913 29.587891 0.34527299
50.198601 29.580967 0.093731001
52.154682 29.522951 -0.089114003
46.942444 29.489902 -0.26554501
52.634247 29.420189 -0.71092498
50.674885 29.440493 -1.110072
52.914875 29.483429 -1.080534
49.806984 29.581541 -1.2516119
50.308029 29.529734 -1.217622
51.732063 29.585976 -1.315726
47.219242 29.581772 -1.419664
55.053444 29.450865 -1.466364
51.413055 29.598864 -1.989584
55.212528 29.428484 -1.941381
55.725967 29.427206 -1.929247
46.975067 29.501104 -2.6738851
47.00843 29.470964 -2.8901341
55.446117 29.455509 -2.9414539
50.602066 29.537766 -3.0243771
51.446579 29.594574 -3.1680031
54.771061 29.492052 -3.1616161
50.670425 29.519821 -3.3606131
46.981339 29.505909 -3.6577101
53.382164 29.56403 -3.779398
50.647125 29.508282 -4.09272
52.618172 29.525873 -4.2351642
51.349751 29.599611 -4.5607562
53.791584 29.48324 -4.8564248
54.875481 29.427198 -4.8793659
50.870331 29.698271 3.293653
54.493671 29.719702 3.151058
43.138443 29.670052 2.7284861
43.357101 29.653551 2.6195879
45.294434 29.657621 2.678261
47.367741 29.614237 2.5137651
47.651714 29.600245 2.513808
48.509747 29.608833 2.4419739
43.328709 29.667507 2.3207691
43.915974 29.798157 2.389972
44.882545 29.785206 2.260982
45.823029 29.728569 2.271271
47.496437 29.637215 2.2661281
51.356625 29.640299 2.3233609
51.417427 29.660965 2.3492341
45.501232 29.753424 2.0978041
51.234604 29.625193 2.1500571
44.998665 29.74683 1.325372
46.646965 29.731333 0.80653399
43.670284 29.753963 0.59961998
47.303448 29.705042 0.23036
46.631027 29.739635 0.107505
47.131405 29.714363 0.092970997
50.14407 29.602827 -0.33889699
43.267677 29.738045 -0.51590002
46.318584 29.667248 -0.61058301
50.227001 29.604019 -0.766783
46.079567 29.775799 -1.045364
48.91671 29.674858 -1.105451
49.313534 29.635962 -1.074379
48.065418 29.749567 -1.390321
48.12149 29.755962 -1.518845
50.102001 29.656767 -1.432463
47.219555 29.787994 -1.694598
49.066113 29.724693 -2.3274009
52.971786 29.630444 -2.4012811
46.983665 29.655945 -3.472729
52.240986 29.664314 -3.405818
47.003361 29.684397 -3.9031761
51.04208 29.615833 -3.8120229
53.038185 29.62517 -3.8199971
46.773441 29.78344 -4.3965678
47.787464 29.718647 -4.2307391
49.949547 29.65477 -4.7515402
47.050354 29.749813 -4.8688822
49.751045 29.665411 -4.858109
54.179008 29.66424 -4.9854321
56.040825 29.782478 -5.03162
58.172615 29.76461 -5.062645
54.985245 29.997612 3.905741
54.34589 29.938614 3.762887
43.573254 29.966719 3.554451
56.701359 29.803461 3.5970981
58.086834 29.903427 3.385262
59.27607 29.978477 3.3918109
57.819313 29.89076 2.9648521
40.552681 29.965202 2.205317
41.066414 29.93177 2.185904
41.769527 29.923204 2.174521
40.987545 29.940529 1.9452569
42.574699 29.847023 1.3115081
42.577209 29.917242 0.92430401
43.487953 29.805902 0.30855799
45.010448 29.857868 0.27880701
45.444771 29.834341 0.283553
41.403419 29.89617 -0.577586
41.746281 29.875702 -0.58086401
42.296551 29.868416 -0.89416802
43.689327 29.815947 -0.81902599
42.884609 29.983143 -1.53257
43.710983 29.917454 -1.564034
43.079941 29.916655 -1.852798
44.93277 29.864788 -1.8548369
43.369148 29.806631 -2.1434
42.665985 29.989677 -2.4773591
44.141571 29.971413 -2.7252951
44.543953 29.931511 -2.699568
45.411636 29.880974 -2.624316
46.10593 29.870277 -3.0512841
45.812023 29.910728 -3.375634
44.189659 29.951267 -3.7659249
47.864105 29.805998 -3.8463731
45.712513 29.806973 -4.1424389
43.419834 29.880217 -4.6633358
43.785118 29.930147 -4.6065469
45.394272 29.853279 -4.6407361
41.973076 29.971245 -4.9675131
41.22591 29.997778 -5.0503001
54.996376 30.196323 4.067193
49.469608 30.142878 3.5840001
47.876381 30.199692 3.2953529
54.439281 30.127489 3.343215
58.831841 30.017088 3.3702519
59.356392 30.000431 3.3008001
54.612396 30.157782 3.09729
57.729027 30.05925 2.9819529
43.103329 30.164049 2.7174511
42.323547 30.00798 0.274333
40.529194 30.046457 0.14613201
40.175095 30.05574 -0.043280002
47.165962 30.001141 -1.19839
51.930321 30.054115 -1.322271
54.74305 30.016777 -1.2523201
48.153694 30.17017 -1.553301
40.703846 30.073839 -1.879584
40.895203 30.071648 -2.521673
41.920357 30.057899 -2.872417
45.60281 30.048956 -3.0956199
41.481316 30.067402 -3.4216931
44.877831 30.19091 -3.827826
43.652256 30.044601 -5.0034618
46.407429 30.336563 3.410305
51.350544 30.364918 3.3527379
47.75835 30.228655 3.1153269
52.476894 30.295822 3.0740261
45.908409 30.329828 2.776031
45.426453 30.246418 -3.0893021
46.269699 30.509136 3.505713
40.679901 30.568378 2.8632591
45.698517 30.489985 2.8687799
45.702755 30.449516 2.782562
48.705101 30.557661 -1.913244
42.777641 30.404583 -3.0162809
43.897659 30.527016 -3.1090801
50.14666 30.430832 -3.343539
49.181122 30.514305 -3.753124
44.167168 30.538172 -3.8928981
45.40609 30.506054 -3.824614
47.788803 30.558647 -3.8210919
49.702942 30.4417 -3.8018999
54.282562 30.507519 -5.258955
55.723442 30.412901 -5.3644271
54.567245 30.479242 -5.774529
55.694763 30.464054 -6.5457039
40.581223 30.600227 4.0030851
43.711868 30.650085 3.5127871
41.116302 30.793179 3.2341909
41.798878 30.741695 2.891094
41.997498 30.832489 2.798161
48.590149 30.915022 -2.2742939
42.482029 30.807415 -3.901736
54.48497 32.574669 -5.5281572
54.324409 32.828007 -5.612659
58.37027 36.665577 -6.0883961
58.279819 36.987827 -5.810317
58.305168 37.414017 -5.6527181
43.879162 39.929733 -2.1942241
46.882622 39.999496 -2.4247501
43.580338 20.084095 3.4813721
45.773087 20.114412 3.4819419
47.869061 20.074013 -1.414094
40.579716 20.146235 -2.3255789
57.706459 20.004181 -3.7039599
41.760029 20.324062 3.4447689
42.541592 20.283745 3.43683
48.616943 20.216944 3.553051
49.466499 20.252485 3.530823
52.667892 20.301758 3.4938049
51.077599 20.233601 -1.6946369
41.710827 20.32119 -2.468596
40.938072 20.367203 -2.9925759
52.633919 20.266846 -3.9089291
49.779099 20.400158 3.608664
55.729465 20.568371 3.457267
50.248554 20.465141 -0.87580502
44.578712 20.570156 -1.302453
53.104553 20.4217 -2.763128
40.230824 20.50843 -3.8227861
44.562542 20.573208 -3.9283521
45.213814 20.531548 -5.4352608
45.01466 20.676416 3.5107529
48.205826 20.653605 3.541177
44.92762 20.67322 -0.87164801
47.847992 20.703127 -1.7195441
41.430923 20.684258 -2.665417
52.697304 20.693832 -3.1414349
51.317917 20.615276 -4.6345139
51.701462 20.603909 -4.639935
53.406433 20.706333 -5.0224881
50.994411 20.991194 3.5138731
53.441788 20.906799 3.48211
44.499359 20.8895 -0.95480198
54.652996 20.92621 -0.93813199
55.324997 20.93235 -1.793191
54.194008 20.861874 -2.2245369
42.828117 20.903736 -2.697485
42.912884 20.997778 -3.2019329
56.759308 20.998329 -3.704931
41.08223 21.087637 3.4700329
51.43848 21.154831 3.4937041
55.763123 21.135269 3.4600329
58.054436 21.097721 3.530915
50.366699 21.060499 -0.098352998
50.503883 21.16255 -0.16203099
49.904007 21.048504 -1.322535
41.850742 21.185345 -2.383548
59.069191 21.05534 -2.8909559
59.721569 21.015434 -10.975428
59.207008 21.004488 -11.293583
44.464928 21.356249 -0.327277
54.786491 21.301388 -1.940022
57.101868 21.211815 -4.2946191
48.697193 21.443079 3.493407
53.016281 21.520855 3.463661
44.857262 21.50367 -1.609059
57.637585 21.512768 -4.3901591
41.103146 21.781523 3.471046
54.267387 21.79143 3.4689269
52.615486 21.745335 2.8443291
53.04755 21.758064 1.671754
52.674568 21.718775 1.225461
50.776146 21.638222 0.134633
44.6436 21.796364 -1.0274301
53.046829 21.79903 -1.746982
42.177635 21.748302 -3.526356
42.83366 21.774828 -3.4545951
42.015419 21.673845 -7.3305821
44.029202 21.96365 3.471442
44.844997 21.927711 3.411746
50.158264 21.837721 3.4550459
53.879272 21.821335 3.4652331
52.721092 21.870193 0.70424199
43.180656 21.989681 0.083521001
42.5089 21.980648 -0.35887599
42.338394 21.917831 -0.43373299
42.813671 21.93376 -0.463853
42.091629 21.916443 -0.65569901
48.304077 21.828905 -1.95261
50.115505 21.966343 -2.1119809
47.763634 21.968822 -3.934164
58.488544 21.920511 -4.9420819
44.929653 22.188612 3.5343311
59.823929 22.160023 3.523452
49.73341 22.121435 3.3143899
52.81123 22.148056 3.1315229
52.937851 22.081089 2.663142
52.655594 22.116711 -0.56081897
49.788555 22.199743 -1.946048
40.449142 22.047256 -2.348881
40.296349 22.121754 -2.5007401
49.268501 22.323162 2.5005081
49.886627 22.313522 2.4835041
51.067863 22.214977 1.784339
52.0648 22.233356 0.60932398
42.719345 22.256716 0.219182
44.187328 22.317366 0.287242
50.774826 22.312149 0.149211
50.29567 22.35124 -3.2749641
47.105537 22.37661 -4.1362391
47.039223 22.283295 -4.679091
46.983444 22.301455 -4.8603311
48.106194 22.492903 3.505826
42.934082 22.468863 3.3454039
49.223717 22.408493 3.2736001
52.603497 22.538042 3.255522
43.513805 22.559464 3.0905831
44.818207 22.568962 2.9297571
52.351501 22.509583 2.597023
52.0877 22.481659 1.943884
51.044643 22.562407 1.012272
42.725052 22.558165 0.407574
44.041561 22.488737 0.54544199
43.263363 22.492851 -1.0469
41.241947 22.518009 -1.636295
44.127323 22.650932 3.4521811
43.287216 22.741058 0.67392302
51.118011 22.677557 -0.71845102
49.915768 22.76782 -3.5087011
54.006592 22.714025 -4.294199
42.342281 22.610909 -6.1386561
45.519058 22.957148 3.6099961
42.46365 22.811052 3.4032681
44.89814 22.921331 3.570559
58.133884 22.988447 3.52161
49.970837 22.966249 3.0145869
43.549675 22.849014 2.6579361
43.25835 22.944788 2.5149109
43.680531 22.924358 2.5005369
43.301628 22.848087 2.232198
43.410744 22.927601 0.28021899
52.218399 22.970459 0.33326501
51.049 22.84936 -0.56732702
46.860687 22.936737 -2.120707
42.630455 22.999855 -4.104497
47.712078 23.04882 3.5459421
42.353558 23.194302 3.171628
42.693375 23.140049 2.4651971
43.623085 23.076889 2.310451
52.525635 23.03931 0.52612603
42.600975 23.176079 -0.375992
49.547478 23.052975 -1.036118
45.067211 23.258358 3.610749
44.880535 23.380402 3.4821739
51.482647 23.374329 2.9744999
42.865505 23.288277 2.518945
44.163177 23.369728 -0.63813102
43.558044 23.278469 -2.4411521
43.538784 23.386723 -2.8735011
46.858177 23.368885 -3.0217121
47.415409 23.430279 3.581944
