# .PCD v0.7 - Point Cloud Data file format
VERSION 0.7
FIELDS x y z
SIZE 4 4 4
TYPE F F F
COUNT 1 1 1
WIDTH 1539
HEIGHT 1
VIEWPOINT 0 0 0 1 0 0 0
POINTS 1539
DATA ascii
65.760002 -27.368166 -2.1646471
65.749313 -27.24896 -2.742002
65.816704 -27.046473 -2.1724589
65.76503 -27.127609 -3.3642039
65.766006 -27.164368 -4.0417199
68.725655 -26.897591 -0.111068
68.749313 -26.883371 -0.57292402
68.685226 -26.991783 -1.380458
65.807533 -26.948977 -1.812073
65.760178 -26.885681 -2.692127
65.798569 -26.891212 -3.9356599
65.843628 -26.979462 -4.5437222
68.671967 -26.693562 -0.32580799
65.754372 -26.617575 -2.668294
65.785477 -26.740997 -3.3147831
65.781563 -26.785177 -4.0008531
68.705032 -26.495926 -0.44597301
68.728806 -26.595997 -1.3424619
65.779663 -26.546185 -2.6690061
65.824379 -26.500605 -3.1365969
65.784172 -26.483875 -3.289916
65.787468 -26.490973 -3.9176841
65.833084 -26.569489 -3.8521149
65.395859 -26.230633 -1.92505
65.694138 -26.222904 -1.883787
65.836319 -26.283104 -6.108727
62.777466 -26.14097 1.4986171
63.04644 -26.038452 1.280404
68.560532 -26.068707 0.19360401
68.59967 -26.083609 -0.348079
65.828018 -26.123817 -0.55956602
68.533134 -26.090942 -0.63004202
65.867172 -26.155922 -1.139244
68.606293 -26.090611 -1.063429
68.468048 -26.062536 -1.342371
65.817078 -26.127586 -2.170284
65.847054 -26.088839 -2.5034771
65.83609 -26.113094 -3.078831
65.798325 -26.199602 -3.270143
65.817406 -26.178154 -3.8539579
65.829689 -25.878904 -1.315899
65.786942 -25.902044 -2.569309
65.836533 -25.840611 -2.5427239
65.806313 -25.957617 -3.790668
67.811874 -25.907267 -4.1480112
68.294876 -25.804956 -4.1893492
65.844757 -25.825478 -4.5097022
67.42186 -25.898333 -4.8165879
65.861816 -25.868137 -6.0532141
68.235825 -25.771317 1.39212
68.601852 -25.727455 1.3926539
67.494934 -25.670095 1.113333
67.797333 -25.749622 1.127404
68.230713 -25.755428 1.075683
68.631271 -25.703667 1.134397
67.461914 -25.732513 0.53968102
67.8293 -25.72072 0.553693
68.226433 -25.73518 0.56279701
68.703911 -25.733334 0.594441
68.689331 -25.786509 0.092436001
68.613037 -25.755484 -0.074932002
65.966797 -25.746542 -0.364856
66.284134 -25.688324 -0.355468
66.576508 -25.683781 -0.22825199
65.915924 -25.736996 -0.50184602
66.224243 -25.668219 -0.46667001
66.572929 -25.668325 -0.69481599
68.671082 -25.711819 -0.62212902
65.927887 -25.73354 -1.063984
66.126694 -25.655445 -1.11578
66.518509 -25.65794 -1.118642
68.69323 -25.755371 -1.049464
66.174797 -25.647772 -1.32374
66.628448 -25.645653 -1.2898951
68.654495 -25.739094 -1.262955
65.83812 -25.660992 -1.954481
66.243492 -25.620258 -1.927447
66.629501 -25.63731 -1.943771
67.066071 -25.652758 -1.921266
67.526901 -25.668011 -1.926697
67.910507 -25.680887 -1.92182
68.277695 -25.689148 -1.897453
68.681358 -25.670191 -1.8513
65.915665 -25.720421 -2.1641669
66.153313 -25.62513 -2.3597879
66.54747 -25.631603 -2.3740511
66.978195 -25.649069 -2.3672371
67.363937 -25.663822 -2.371182
67.763298 -25.676378 -2.3679681
68.149216 -25.688221 -2.364898
68.579697 -25.688795 -2.3693521
65.804649 -25.619926 -2.5762141
66.17852 -25.612022 -2.5301969
66.677612 -25.632069 -2.5227461
66.956894 -25.630594 -2.5829451
67.375565 -25.65719 -2.503974
67.840431 -25.678478 -2.5317421
68.276176 -25.693993 -2.5179379
68.695099 -25.679089 -2.5181041
65.917618 -25.607061 -2.970999
65.878403 -25.685652 -3.127322
66.159859 -25.60885 -3.0872259
66.602493 -25.624842 -3.1168649
67.067184 -25.638145 -3.057055
67.389198 -25.650064 -3.1057661
67.865936 -25.670719 -3.1068289
68.260925 -25.684643 -3.1072099
68.527328 -25.673084 -3.115061
68.872818 -25.66806 -3.07058
67.268745 -25.640182 -3.3559489
67.682663 -25.615931 -3.2081821
68.042511 -25.625814 -3.2265439
68.50943 -25.659557 -3.253123
65.905457 -25.773014 -3.5838771
66.174736 -25.64604 -3.5687251
66.468765 -25.659853 -3.5640271
66.87738 -25.678883 -3.5842559
65.87075 -25.669937 -3.7174671
66.224602 -25.604715 -3.6291389
66.640648 -25.605591 -3.7498059
67.122604 -25.627716 -3.6771181
67.441895 -25.644485 -3.696656
67.849823 -25.648239 -3.711473
68.129463 -25.655235 -3.7152181
68.599037 -25.65653 -3.7325821
68.124702 -25.602444 -3.9647191
68.562157 -25.730959 -4.8225608
61.980698 -25.581881 1.879776
68.778946 -25.425739 -0.294945
68.713242 -25.475334 -0.505319
66.066536 -25.595207 -1.3890589
65.875458 -25.593601 -2.5007019
66.124107 -25.571383 -2.968647
65.911789 -25.589359 -3.11409
68.812195 -25.471912 -3.2514851
65.889908 -25.576668 -3.7017691
66.180939 -25.588915 -3.7270999
66.643913 -25.562622 -3.7594719
67.026756 -25.499428 -3.7830679
67.693176 -25.521887 -3.790673
68.583778 -25.486485 -3.7446041
67.35228 -25.538952 -3.881788
68.157608 -25.537437 -3.805691
66.663307 -25.547035 -4.2252731
66.877899 -25.50119 -4.6621909
66.028831 -25.583885 -4.9983659
66.795349 -25.466541 -4.9584079
65.873161 -25.599167 -6.1043668
66.581512 -25.549797 -6.0965748
68.157318 -25.505743 -6.0820799
68.688614 -25.253246 0.95801902
68.282356 -25.032028 1.758206
68.488495 -25.067814 1.771027
67.311157 -25.173201 1.217132
68.734261 -25.176449 1.329357
68.731583 -25.055099 1.1689399
68.709381 -25.113297 0.55162299
68.738358 -25.111553 0.26124999
68.762024 -25.044323 0.0044359998
68.683868 -25.104824 -0.066298999
68.683403 -25.113945 -0.58732802
68.72728 -25.082279 -1.0956089
68.741394 -25.076096 -1.2330149
68.694458 -25.101831 -1.793402
68.676102 -25.050987 -2.323379
68.698029 -25.096748 -2.486573
68.702927 -25.039665 -3.0665231
68.850449 -25.058912 -3.0011809
68.597076 -25.121956 -3.5069709
68.76973 -25.02459 -3.595844
68.817917 -25.006668 -3.5949759
68.686676 -25.098118 -3.6636741
68.682556 -25.060131 -4.8830671
68.336021 -24.888847 1.759414
67.405922 -24.815205 1.418031
67.640114 -24.817196 1.4610341
68.78466 -24.833363 1.3178819
66.155449 -24.907696 1.139168
68.750656 -24.826195 1.024002
68.749634 -24.906101 0.60642898
68.757156 -24.875893 -0.115399
68.841591 -24.909206 -1.117238
68.774429 -24.873644 -2.206954
68.769302 -24.881046 -3.016582
68.762695 -24.916395 -3.5435159
68.701599 -24.94183 -5.539536
64.502663 -24.717903 1.367649
66.703865 -24.772739 1.397557
66.964668 -24.797844 1.359918
68.751213 -24.627991 1.1443909
68.761749 -24.72147 0.659904
68.751892 -24.627794 0.099996999
68.757355 -24.673681 -0.0049879998
68.692734 -24.635612 -0.57014501
68.689865 -24.602747 -1.074924
68.76487 -24.686697 -1.273062
68.55764 -24.494667 1.767236
68.808746 -24.511457 1.669201
68.768417 -24.473829 1.3174649
68.82222 -24.524712 0.32401001
68.748413 -24.466089 0.0041
68.615318 -24.411882 -0.55532801
68.67395 -24.470226 -1.74591
68.630249 -24.506607 -2.600024
68.707504 -24.52084 -2.944303
68.678192 -24.472176 -3.4757781
68.729797 -24.519024 -3.7401619
68.720261 -24.267426 1.121081
68.726028 -24.304703 0.61416203
68.73288 -24.253572 0.070807002
68.703026 -24.364838 -1.112059
68.784859 -24.399364 -1.557079
68.975739 -24.34317 -1.588412
68.708557 -24.370914 -1.714727
68.999596 -24.342684 -1.7751679
68.746979 -24.35503 -2.3074241
68.955566 -24.340345 -2.2609169
68.681854 -24.323021 -2.679738
68.89035 -24.352562 -2.631264
68.739227 -24.367161 -2.938061
68.905182 -24.348551 -2.9211681
68.727036 -24.348509 -3.4975319
68.909966 -24.270521 -3.5064189
68.730309 -24.339371 -3.916775
68.735603 -24.263496 -5.9347801
68.742592 -24.108418 1.717249
68.73761 -24.13872 1.402673
68.685257 -24.120928 -0.532502
68.82283 -24.159798 -4.961854
68.697052 -23.812302 1.73806
66.011627 -23.837502 1.291939
65.808662 -23.857624 1.11761
68.703461 -23.854233 1.126382
68.712418 -23.91474 0.61298901
68.707748 -23.837193 0.072798997
68.910629 -23.910645 -1.547966
68.875084 -23.908218 -1.687204
68.875061 -23.860779 -2.243829
68.718849 -23.687771 1.406002
66.101707 -23.657049 1.13788
62.26915 -23.63726 0.97035402
62.23513 -23.652977 0.641128
62.258087 -23.638748 0.225026
66.063713 -23.720406 -0.15574101
62.254513 -23.668295 -0.23487
62.2663 -23.640697 -0.56779402
68.669067 -23.64637 -0.50983
64.143913 -23.714645 -0.70766699
66.042847 -23.760889 -0.62014103
62.351582 -23.609161 -1.125338
62.539047 -23.628494 -1.081202
63.910706 -23.670158 -1.1495219
64.290596 -23.695787 -1.130666
64.651108 -23.708824 -1.1276619
65.001907 -23.71069 -1.121897
65.40509 -23.719173 -1.135536
65.833725 -23.735001 -1.1345659
66.087494 -23.693903 -1.038229
68.735947 -23.655174 -1.009145
65.078247 -23.693222 -1.266862
68.917854 -23.783043 -2.7614739
68.894188 -23.799994 -3.412586
68.701981 -23.460989 1.705839
62.222469 -23.430857 1.308903
68.679871 -23.433819 1.1482641
62.222073 -23.475906 0.246804
62.265015 -23.550283 -0.236917
62.262718 -23.514872 -0.71704102
62.277557 -23.418373 -0.95732701
61.829697 -23.58194 -1.124368
68.717163 -23.367321 1.374109
62.262413 -23.251835 1.060873
62.22834 -23.384541 0.627855
68.676506 -23.392992 0.65019798
68.688309 -23.388172 0.106044
66.061516 -23.284094 -0.061643001
66.104622 -23.375208 -0.58731198
68.63855 -23.268732 -0.47554401
66.108414 -23.205647 -0.956873
68.551079 -23.379246 -1.039741
68.645737 -23.022976 1.728802
68.731606 -23.007755 1.527024
66.126709 -23.009672 1.140797
68.806519 -23.152868 0.63898098
66.101952 -23.031118 0.042778
62.246342 -23.02372 -0.172225
62.225994 -23.127333 -0.27070999
68.645737 -23.084578 -0.47113499
62.259983 -23.075001 -0.732243
66.161713 -23.071718 -1.0533119
62.230614 -22.978912 1.301527
68.67263 -22.911575 1.387207
68.653412 -22.950186 1.149236
62.242859 -22.935143 0.95309198
62.235001 -22.923431 0.74758703
68.662888 -22.963387 0.63198799
62.241966 -22.916626 0.24275699
68.661629 -22.951485 0.112226
66.085938 -22.944925 -0.20767599
68.686996 -22.877403 -0.261262
66.11013 -22.842567 -0.54533201
62.362335 -22.802727 -1.023771
68.545654 -22.944044 -1.003255
68.622635 -22.893902 -1.427495
68.581108 -22.86455 -2.126435
68.552238 -22.86285 -2.699399
68.649727 -22.923538 -3.325819
68.671021 -22.607761 0.97511703
68.677368 -22.737438 -0.317132
68.616806 -22.698685 -0.573174
68.67202 -22.635334 -0.78816098
68.681702 -22.673939 -0.88280201
62.276058 -22.652374 -1.032456
68.583466 -22.768337 -1.54444
68.573181 -22.758015 -2.1057889
68.491028 -22.755863 -2.310092
68.60112 -22.739391 -2.6569121
61.289833 -22.696533 -2.8055999
68.543808 -22.771202 -3.0830569
68.675873 -22.496576 1.639395
62.23011 -22.558949 1.304366
66.075508 -22.426565 1.293691
66.089348 -22.419172 1.139374
63.300301 -22.452206 0.849572
62.231781 -22.541737 0.70792699
62.255989 -22.431929 0.32105699
66.131546 -22.595545 0.063723996
62.250168 -22.5028 -0.147773
66.09005 -22.506058 -0.050430998
61.372093 -22.570337 -0.26194999
66.137924 -22.447065 -0.463797
61.524109 -22.564079 -0.62676799
62.257896 -22.499058 -0.69357198
66.14048 -22.549047 -0.969441
68.550461 -22.542505 -1.72865
61.350178 -22.460041 -2.7891641
68.615906 -22.510672 -3.07967
68.814774 -22.504095 -3.589721
67.859184 -22.349558 1.674871
68.49501 -22.211203 1.703472
68.562187 -22.237543 0.65180498
68.553825 -22.321926 0.41958201
62.244404 -22.219591 0.209084
63.404736 -22.252052 0.29956001
68.527084 -22.30875 0.33215201
68.533981 -22.262001 0.166023
66.115967 -22.280106 -0.325813
68.447639 -22.218525 -0.36407101
68.517334 -22.265007 -0.44589201
68.522301 -22.231861 -0.93911201
68.572586 -22.304115 -1.460245
68.536819 -22.330084 -3.8553381
67.286568 -22.073126 1.623657
62.241295 -22.128677 1.338843
64.798172 -22.032003 1.3686039
66.116791 -22.186474 1.321499
66.06868 -22.162163 1.020798
68.55735 -22.162848 1.1588809
62.221306 -22.183744 0.519315
62.246525 -22.096844 -0.177669
64.20002 -22.173895 -0.082405999
68.51255 -22.092163 -0.294994
66.159286 -22.082235 -0.438936
62.260712 -22.099611 -0.67211503
68.575882 -22.18552 -0.94011497
62.277203 -22.134632 -1.0519381
68.558205 -22.177279 -1.939015
68.526268 -22.192001 -2.03687
68.597847 -22.167547 -2.5778339
68.567429 -22.17248 -3.141098
68.698524 -22.145311 -3.348949
68.135834 -21.832129 1.753071
68.515305 -21.8218 1.694448
64.911591 -21.953039 1.375584
65.411331 -21.803064 1.327659
62.278584 -21.802711 0.91688401
66.070877 -21.80846 0.546354
68.614548 -21.866486 0.166348
66.094803 -21.82774 -0.14452399
68.682991 -21.938326 -0.148918
66.110039 -21.808538 -0.53555202
68.611198 -21.805462 -0.589239
62.303879 -21.826815 -1.11031
64.234856 -21.800684 -1.061394
64.672653 -21.835445 -1.0550309
65.194077 -21.883055 -1.064011
65.448296 -21.850084 -1.0630929
65.859077 -21.829617 -1.030615
68.615875 -21.818804 -3.0506041
61.191208 -21.697073 1.6518019
61.945293 -21.664265 1.686455
67.34845 -21.665447 1.688516
62.252327 -21.682297 1.341521
64.737915 -21.705242 1.390995
68.535271 -21.797926 1.3656451
65.463425 -21.643099 1.098346
66.070435 -21.761929 1.051839
68.499512 -21.681791 1.153423
62.243732 -21.755802 0.73475897
68.461548 -21.690926 0.65662903
62.252697 -21.710007 0.276838
66.096634 -21.793116 0.068704002
62.26445 -21.750322 -0.19729599
64.566696 -21.764704 -0.138561
68.611809 -21.700985 -0.26798299
68.60424 -21.748934 -0.411973
62.280075 -21.757021 -0.64049202
66.123611 -21.736671 -0.97668898
68.61277 -21.791857 -0.92467099
62.571762 -21.770611 -1.111004
63.868408 -21.790283 -1.076398
64.569695 -21.642832 -1.395119
68.496544 -21.6609 -1.340296
68.477829 -21.721863 -1.4467731
68.535156 -21.717686 -1.9340791
68.526413 -21.692274 -2.073072
68.432167 -21.711327 -2.231384
68.496124 -21.670719 -2.507097
68.681824 -21.617195 -2.501168
68.51049 -21.62846 -3.0473249
60.584248 -21.480808 1.686047
60.920219 -21.532543 1.628595
61.141426 -21.544619 1.6396641
61.252918 -21.507275 1.644141
61.685825 -21.489014 1.6793211
67.673653 -21.510181 1.77965
68.541206 -21.500458 1.661211
60.110733 -21.517902 1.490597
60.557087 -21.539934 1.555582
60.851624 -21.550583 1.445439
60.93335 -21.545279 1.316733
61.081646 -21.54607 1.279231
64.21936 -21.449638 1.383335
65.353409 -21.580858 1.267065
60.193417 -21.509882 1.07204
60.604607 -21.526035 1.087531
60.905792 -21.535336 1.105617
61.019218 -21.541981 1.155964
65.169044 -21.595978 1.078455
61.1077 -21.515343 0.80330402
60.243244 -21.497122 0.62953299
60.580902 -21.509396 0.64969999
60.913475 -21.522081 0.68791401
61.049095 -21.531347 0.68758202
61.069862 -21.524206 0.48734
60.866158 -21.50716 0.20110001
61.03532 -21.512348 0.243893
68.634979 -21.434444 0.34768799
60.221806 -21.475796 0.16751499
60.582508 -21.496492 0.19510999
61.11512 -21.532845 0.023542
65.033264 -21.432425 0.197312
61.071419 -21.518135 -0.091769002
60.214378 -21.486794 -0.278945
60.643463 -21.502167 -0.25539699
60.939377 -21.517151 -0.25747001
61.057816 -21.522257 -0.25559801
68.606354 -21.441872 -0.291789
61.070358 -21.522022 -0.48999199
66.152328 -21.407478 -0.49462301
60.203007 -21.485317 -0.74671698
60.651905 -21.501373 -0.72102499
60.919746 -21.513145 -0.69474602
61.039124 -21.512564 -0.702999
61.068668 -21.506393 -0.97703099
62.373737 -21.559671 -0.84129101
68.609703 -21.448833 -0.91855597
60.125031 -21.462366 -1.102479
60.494694 -21.480328 -1.068086
60.932251 -21.499428 -1.118976
61.081177 -21.503061 -1.150583
62.263653 -21.418898 -1.091388
60.295685 -21.469395 -1.27839
60.680344 -21.486229 -1.279274
60.89315 -21.498608 -1.256788
61.068577 -21.50466 -1.204017
60.994328 -21.482445 -1.487902
61.076042 -21.488476 -1.522354
68.501579 -21.40428 -1.409471
60.254189 -21.44508 -1.723945
60.689995 -21.477144 -1.6972049
60.938721 -21.487701 -1.700074
61.024921 -21.482727 -1.674457
61.066589 -21.492489 -1.9601901
68.65654 -21.432018 -1.907227
60.293396 -21.448517 -2.15238
60.6856 -21.448311 -2.1287429
60.956703 -21.476009 -2.1683421
61.033669 -21.482666 -2.1188509
68.754562 -21.448792 -2.1782601
60.335972 -21.478161 -2.3419349
61.002808 -21.506491 -2.2171299
60.958969 -21.482391 -2.583168
61.07843 -21.482338 -2.506897
60.147003 -21.447851 -2.6681659
60.734657 -21.47891 -2.609911
61.036316 -21.487194 -2.6295669
68.70813 -21.543312 -3.0313821
62.273567 -21.311926 1.6996011
68.314743 -21.282745 1.714813
62.255516 -21.262775 1.2763391
64.545715 -21.287392 1.343737
66.107491 -21.387211 1.318125
68.984344 -21.24662 1.338321
62.23732 -21.341244 1.025326
64.683601 -21.284626 1.194911
66.09359 -21.306881 1.022886
62.259003 -21.272652 0.66702598
68.462029 -21.360701 0.66182101
63.256462 -21.260307 0.582084
64.051743 -21.25256 0.410319
64.789467 -21.255306 0.30194899
62.259159 -21.202545 0.052742999
63.407303 -21.392424 0.16842601
64.118263 -21.20672 0.025037
66.109741 -21.2883 0.024591999
64.550468 -21.363239 -0.13255499
64.963776 -21.38266 -0.094153002
62.305382 -21.26289 -0.27371699
62.297279 -21.331436 -0.56813002
68.624603 -21.277122 -0.72580397
66.182602 -21.291351 -0.92651099
63.355324 -21.368832 -1.328986
61.47118 -21.116188 1.713714
61.794834 -21.000591 1.722441
61.90992 -21.057711 1.672573
62.297218 -21.022739 1.381127
64.29377 -21.139227 1.381143
68.279778 -21.044954 1.2907979
68.688309 -21.126934 1.2707911
62.302795 -21.036921 0.94246399
63.18441 -21.11347 0.83110398
64.176331 -21.063065 0.92555702
64.682961 -21.034304 0.93488997
66.150101 -21.122406 0.81676298
63.171196 -21.058319 0.60039401
62.273083 -21.016348 0.29113999
64.270355 -21.074257 0.198101
64.613464 -21.07275 0.137245
64.994255 -21.065094 0.140306
68.57196 -21.036694 0.18303899
64.150558 -21.025984 -0.117176
64.543503 -21.036022 -0.177779
68.577698 -21.132158 -0.322855
66.190842 -21.05415 -0.90037298
68.571594 -21.010366 -0.86750001
68.418411 -21.111115 -1.373017
64.127007 -21.041599 -1.434345
68.527565 -21.011793 -1.904783
60.33157 -21.105637 -2.370446
68.733345 -21.122849 -2.3373489
60.266689 -21.046875 -2.502156
68.749092 -21.126616 -2.431457
60.437275 -21.015347 -2.761153
61.018326 -21.063747 -2.781878
61.405815 -21.078018 -2.7906289
61.544518 -21.020243 -2.9059169
68.755196 -21.104767 -2.9416699
61.598541 -21.073706 -3.031039
62.227131 -20.986959 1.697628
67.200233 -20.88727 1.730655
67.729904 -20.933544 1.77345
68.530518 -20.966646 1.70934
64.529556 -20.891283 1.393333
66.178146 -20.834785 1.3448941
68.300751 -20.933849 1.053079
63.419319 -20.922607 0.85135603
63.862553 -20.918411 0.850205
64.95845 -20.962458 0.93461502
65.331161 -20.94577 0.95924997
62.275429 -20.834145 0.75325298
66.124496 -20.851427 0.64455903
68.37645 -20.914345 0.68020201
63.359341 -20.899372 0.56721902
63.72522 -20.894016 0.49098599
64.130257 -20.866077 0.46259001
64.965591 -20.882757 0.53123498
65.382797 -20.855883 0.53529602
68.527153 -20.89912 0.57135999
63.367439 -20.943083 0.33717999
63.77137 -20.949398 0.28094399
65.341385 -20.89707 0.25596201
66.124863 -20.988985 0.118051
62.288937 -20.949194 -0.160339
66.25148 -20.884819 -0.197704
63.934391 -20.91902 -0.499605
64.102753 -20.833874 -0.50903201
64.560158 -20.82798 -0.46406701
62.287468 -20.996696 -0.62127399
66.256958 -20.821238 -0.70788002
68.611031 -20.847126 -0.74839598
62.342396 -20.848835 -0.99347699
63.819305 -20.993572 -1.362224
64.657227 -20.823896 -1.396342
68.463959 -20.909634 -1.274412
68.436928 -20.923038 -1.81554
60.377468 -20.935219 -2.539628
60.187279 -20.820095 -2.6731019
60.235504 -20.964048 -2.727901
60.498878 -20.974562 -2.74211
60.293625 -20.904394 -2.9978931
60.960255 -20.980438 -2.9646709
61.368969 -20.996237 -2.9859381
61.516541 -20.994686 -2.988729
60.178574 -20.946785 -3.0216861
60.56881 -20.95636 -3.018183
60.61639 -20.985039 -3.1788421
61.041584 -20.964413 -3.058825
61.473717 -20.986229 -3.033247
60.096909 -20.957895 -3.2198541
60.287815 -20.971458 -3.2937551
60.537857 -20.983818 -3.3332341
61.080463 -20.991402 -3.208482
61.332794 -20.996481 -3.2247851
61.475513 -20.960777 -3.2209139
60.58849 -20.938768 -3.5092809
67.503624 -20.790813 1.9191819
68.546227 -20.648998 1.663606
62.276558 -20.714737 1.329595
66.098213 -20.686529 1.056077
64.255074 -20.78797 0.82965398
64.604263 -20.778551 0.830302
62.295868 -20.613609 0.63389498
64.270142 -20.77623 0.62540001
64.414345 -20.77557 0.63505799
68.639038 -20.666067 0.620655
68.549583 -20.632458 0.214119
66.122833 -20.628456 0.103274
64.518639 -20.731276 -0.177184
64.06543 -20.681992 -0.250402
68.552422 -20.730011 -0.29852599
66.156189 -20.632635 -0.56926799
66.175926 -20.682972 -0.90218401
68.554878 -20.603077 -0.84762901
64.797447 -20.621735 -1.370617
68.422119 -20.637096 -1.328289
68.502792 -20.620052 -1.8357379
66.918037 -20.511408 1.865328
60.127846 -20.464115 1.64051
60.41526 -20.460329 1.662273
62.352722 -20.487026 1.679518
66.714424 -20.58857 1.7683131
68.37088 -20.500612 1.739171
68.53183 -20.572283 1.61924
62.55603 -20.498514 1.243485
62.308086 -20.508831 0.97072601
68.320824 -20.566225 0.66700602
66.111427 -20.424458 0.54790998
62.294502 -20.568914 0.29352799
62.31485 -20.464701 -0.102088
62.452778 -20.405333 -0.167033
66.150986 -20.444607 -0.30036199
62.30423 -20.471664 -0.58304602
68.589088 -20.479033 -0.72308201
62.290863 -20.568604 -0.86268902
62.294159 -20.546152 -1.03492
63.784531 -20.450016 -1.377767
68.409561 -20.578592 -1.362309
68.489075 -20.535046 -1.784011
67.430634 -20.364738 1.903977
62.349968 -20.28787 1.696435
66.367699 -20.248281 1.65311
68.50708 -20.318937 1.695243
65.393608 -20.213675 1.4593821
68.375946 -20.379663 1.449564
62.318451 -20.230877 1.364611
62.603012 -20.258673 1.288836
62.94812 -20.283867 1.267507
63.029449 -20.219629 1.278783
66.175598 -20.276155 1.348033
62.722187 -20.2868 1.082862
63.316765 -20.24338 1.0926239
63.63105 -20.252598 1.0481451
62.991299 -20.228271 0.95980698
68.387039 -20.369247 0.68301201
66.111763 -20.204897 0.162724
68.296104 -20.259541 -0.246737
62.327366 -20.236847 -0.95859599
66.143517 -20.37359 -0.86024201
64.079117 -20.255407 -1.386732
68.390007 -20.340626 -1.310322
64.500336 -20.03178 1.823144
65.047821 -20.011732 1.885661
67.731026 -20.190872 1.8422559
60.898949 -20.088779 1.683342
61.59819 -20.005892 1.7348059
61.769493 -20.112148 1.753074
61.979637 -20.029018 1.766355
63.37801 -20.003662 1.747843
63.785011 -20.012978 1.7946399
64.094879 -20.017532 1.7866631
65.036804 -20.036133 1.713846
65.216904 -20.027161 1.717103
68.363342 -20.180096 1.77599
68.472153 -20.037888 1.682644
64.699326 -20.038933 1.491117
65.048569 -20.052444 1.46083
65.920959 -20.057823 1.486127
63.470348 -20.186174 1.304225
63.771671 -20.130436 1.380234
68.446411 -20.084007 1.39512
62.920425 -20.033375 1.12138
63.089867 -20.037514 1.081956
68.328468 -20.094301 1.150355
68.50676 -20.069817 1.078015
62.332699 -20.047104 0.98163497
66.173134 -20.117252 0.92418301
68.455002 -20.055698 0.97956401
62.315845 -20.176659 0.71012503
66.116539 -20.099531 0.64214802
68.46051 -20.09528 0.64973599
62.332638 -20.047213 0.282792
62.303234 -20.143385 -0.126083
66.151138 -20.172535 -0.32912001
68.329819 -20.102732 -0.26114801
68.535217 -20.145733 -0.28032601
62.328094 -20.060989 -0.530177
66.150604 -20.157005 -0.570593
68.541504 -20.171661 -0.75029403
64.549591 -20.148375 -1.358593
64.709358 -20.002577 -1.337009
64.994911 -20.016571 -1.299854
65.03508 -20.111185 -1.309297
68.498474 -20.023466 -1.257984
68.384956 -20.192537 -1.764601
68.467949 -20.141617 -1.753688
68.373474 -20.095947 -2.0392771
68.453728 -20.019266 -2.264745
68.452057 -20.154522 -2.478317
68.365204 -20.109413 -2.667089
68.463821 -20.065041 -2.6336861
68.458748 -20.093655 -2.8329279
68.427818 -20.102406 -3.8821001
68.587883 -30.244171 0.16709299
68.276535 -30.359983 -0.626625
64.104736 -29.276333 -4.6213198
60.087948 -29.226736 -5.1428442
63.938831 -29.211336 -5.990169
61.733219 -29.069975 -1.833457
64.185905 -29.0149 -4.2806468
63.40596 -29.189831 -4.4490781
61.486458 -28.869377 1.290799
64.656204 -28.958063 0.256403
65.64743 -28.954895 -0.228027
61.733288 -28.842617 -0.47388101
65.707375 -28.954374 -0.636397
61.490753 -28.812778 -1.098423
65.504166 -28.950302 -1.302839
63.261459 -28.871675 -1.419524
62.247353 -28.809361 -2.313441
64.95047 -28.885141 -2.9439869
62.817356 -28.801699 -3.341393
64.547806 -28.855259 -3.7383649
64.413017 -28.82535 -4.5820541
65.66111 -28.812027 -4.9293909
65.604675 -28.823318 -6.8940339
61.602242 -28.672083 1.959257
60.927746 -28.764542 0.198295
62.141808 -28.723253 -0.54717797
66.458122 -28.686089 -0.868581
61.030174 -28.727291 -1.924159
63.91618 -28.733913 -2.052341
62.978661 -28.726181 -2.4664149
63.33147 -28.799679 -3.7259369
60.929577 -28.726891 -4.3837409
62.682388 -28.777893 -4.267345
63.059242 -28.706863 -4.3145828
60.613991 -28.617794 -4.6858339
64.879295 -28.780033 -4.8843598
60.437767 -28.662365 -5.5041881
60.78756 -28.627857 -5.6601629
64.517471 -28.774223 -6.1459761
65.7537 -28.518082 -4.6100159
68.663254 -28.19879 -1.010522
68.656448 -27.615294 0.220827
65.77964 -27.446615 -4.0634832
68.689926 -27.017757 0.14233901
60.943233 -26.601088 1.743912
60.86731 -26.622795 -1.376476
65.973946 -26.618929 -1.781616
65.769203 -26.636465 -2.639607
60.85944 -26.595322 0.21588001
61.395344 -26.437923 -2.9498341
61.378937 -26.232697 -3.052496
65.813377 -26.308784 -3.1860521
62.864201 -26.061794 1.7469569
62.752914 -26.123116 1.371039
61.402599 -26.085987 -2.865731
65.717575 -26.134159 -5.4221649
67.78228 -25.906427 -4.1029868
68.173393 -25.816195 -6.0948539
68.53363 -25.73295 1.408531
68.668533 -25.701042 1.200538
66.167725 -25.666698 0.28368801
66.084595 -25.651798 -1.0296021
66.745758 -25.654629 -1.701519
67.055191 -25.644875 -2.601913
65.910599 -25.60187 -3.2913041
66.451218 -25.569759 -3.1456821
65.85585 -25.587986 -3.5609441
66.105118 -25.59692 -3.4909239
65.896805 -25.580284 -3.8554261
66.262146 -25.553612 -5.8418851
66.594429 -25.564133 -5.8578482
60.908543 -25.357977 1.329434
60.906384 -25.346741 -2.2024131
61.403282 -25.326763 -3.252147
66.021378 -25.063705 1.256834
60.909363 -25.03228 -0.91711599
68.819931 -24.943916 -2.341469
67.418289 -24.79689 1.598192
68.683105 -24.62645 -1.115131
68.745438 -24.546785 0.596699
68.762405 -24.597752 -0.012817
68.640839 -24.54077 -1.311131
68.72049 -24.437183 -5.9317141
61.444511 -24.303766 -2.8270869
68.917847 -24.285311 -4.1361489
68.766045 -24.227173 -4.9229751
68.806435 -24.104534 0.285595
60.885849 -23.847984 0.54503399
68.879898 -23.906929 -1.648615
68.696289 -23.897938 -5.9218392
62.234062 -23.604456 1.568156
62.267899 -23.679321 -0.153762
65.798706 -23.741285 -1.0877481
68.920319 -23.752283 -4.1561089
61.077919 -23.33255 1.731787
60.856167 -23.346149 0.66039997
68.910995 -23.35454 -2.9325781
68.78363 -23.399174 -3.7062621
66.091187 -23.005093 0.129815
68.732895 -23.03961 -4.8796029
62.314266 -22.868244 1.621302
62.204758 -22.997009 1.23541
68.547256 -22.96981 -0.19398101
68.52182 -22.995869 -1.068849
62.26038 -22.723835 -0.92316598
68.710083 -22.644545 -4.5686722
68.837875 -22.617031 -4.4677019
67.030472 -22.535246 1.765069
64.635941 -22.474195 0.934964
68.526619 -22.282394 0.324613
61.03022 -22.292055 -0.35696501
61.032513 -22.267796 -1.373551
64.964233 -22.088573 1.111166
61.038494 -22.171213 0.149786
66.086418 -22.107677 -0.51793599
61.042473 -21.861076 -0.113251
68.68309 -21.843925 -4.9055562
61.077038 -21.750238 1.62489
61.853283 -21.643759 1.668638
63.028557 -21.790504 -1.220964
68.492813 -21.697525 -1.347324
68.935173 -21.611103 -3.549139
68.491623 -21.672056 -4.0955129
68.606651 -21.780584 -4.1349912
60.10239 -21.50955 1.642504
60.905098 -21.559956 1.53054
63.989227 -21.544359 0.82817
60.192318 -21.418449 -1.705551
60.189861 -21.428705 -2.2345791
61.032249 -21.501247 -2.3370249
61.48069 -21.508295 -2.76285
68.721909 -21.458765 -3.6973131
68.472389 -21.581959 -4.288456
64.624039 -21.321102 1.0997159
68.365784 -21.20092 -6.0033979
66.229378 -21.12166 1.614123
68.52597 -21.067736 1.437222
68.434311 -21.055565 -1.332358
61.526047 -21.038052 -2.8557031
68.625999 -21.100721 -5.743763
65.302132 -20.948898 0.86143398
63.391258 -20.902689 0.62641799
64.104599 -20.878504 0.43641001
66.235725 -20.906521 -0.091362998
61.024387 -20.959045 -3.0562849
60.1189 -20.948074 -3.265461
60.760342 -20.960064 -3.339009
68.556946 -20.639572 -0.31767899
66.278801 -20.691109 -0.52074099
68.829536 -20.601688 -3.7545199
62.31369 -20.477257 -1.03067
64.974861 -20.545406 -1.312501
65.319626 -20.539486 -1.222192
68.573227 -20.431976 -4.0574179
63.400642 -20.293913 1.404743
63.169506 -20.292654 1.249975
62.276287 -20.240139 1.055441
62.412457 -20.266632 -0.295544
64.498734 -20.227287 -1.4008009
68.513153 -20.218866 -2.4174089
67.699547 -20.07304 1.89957
68.317398 -20.111423 1.332666
66.139328 -20.157616 0.081439003
68.514526 -20.147316 -0.92933702
63.271954 -20.039473 -1.195331
65.022522 -20.102699 -1.283887
68.464546 -20.085199 -1.730806
68.580307 -20.147701 -4.9711728
78.488266 -30.875736 -7.8190889
67.435425 -30.370529 -0.151204
68.534767 -30.277634 -0.91916299
67.024521 -30.315434 -1.521482
68.659698 -29.797136 0.199356
68.634689 -29.336426 -1.510408
64.09259 -29.320908 -4.3516459
63.49427 -29.265844 -5.1180601
61.746586 -29.0802 -1.1440459
68.644936 -29.167734 -2.134923
63.838352 -29.144478 -5.0012732
64.328857 -29.004511 -5.3058858
62.175728 -29.095085 -5.8429818
61.863117 -28.880407 1.368294
61.79565 -28.857948 0.941131
62.659645 -28.93786 0.69196397
63.390438 -28.997711 -1.757115
61.667828 -28.88393 -1.861078
63.099571 -28.804041 -2.970494
64.236984 -28.839849 -3.4896021
65.385208 -28.88068 -3.50298
63.018295 -28.803497 -3.6865189
64.948402 -28.879673 -3.8281529
64.345222 -28.841799 -4.4812431
65.061668 -28.859381 -4.6320829
64.699966 -28.801567 -5.024157
68.692337 -28.704847 -0.59643602
64.436516 -28.794424 -1.3052059
65.995247 -28.684338 -1.633478
60.258549 -28.707384 -2.758775
62.147842 -28.769939 -3.1165831
60.639969 -28.695908 -3.917768
60.499107 -28.685244 -5.6751809
61.433754 -28.710783 -5.8917499
61.640209 -28.736877 -5.8256111
64.309769 -28.788227 -5.9846001
62.964752 -28.687687 -6.0257411
61.107475 -28.569899 -2.667099
65.734726 -28.543093 -4.2801609
65.744537 -28.473471 -6.8871031
65.727615 -28.213161 -4.1017232
68.633438 -28.062294 0.12808201
65.73687 -28.129541 -3.4919951
68.663696 -27.834332 -0.13416
68.676628 -27.954493 -2.001024
65.751236 -27.64259 -3.395165
65.7687 -27.775005 -3.421844
65.778076 -27.009861 -4.0658059
60.859116 -26.892429 -2.242768
65.782234 -26.68619 -4.8353572
60.891838 -26.558441 -2.5002019
62.993469 -26.021805 1.365381
67.787994 -26.060911 -4.8148952
61.182816 -25.906845 -0.54509902
68.342735 -25.824614 -0.491092
66.677895 -25.676441 -0.074225001
60.896702 -25.745209 -1.081014
68.818893 -25.665813 -1.2360851
65.899612 -25.658638 -2.1429009
65.790375 -25.611347 -2.3255961
67.72226 -25.669039 -2.2411349
65.792747 -25.671383 -2.5375941
65.923943 -25.646812 -3.4416361
67.108398 -25.629547 -3.653759
68.224243 -25.779163 -4.656249
66.926788 -25.579893 -3.1688819
66.693581 -25.510036 -3.8896101
68.319794 -25.524105 -4.1443558
67.493118 -25.535917 -5.9980912
67.069489 -25.443331 -6.0987082
68.724213 -25.092117 0.61788398
60.923149 -25.07995 -2.2339661
68.599503 -25.080797 -5.4903378
68.614319 -25.143749 -6.068789
68.78466 -24.938686 -0.153818
68.790474 -24.87999 -1.218707
60.935699 -24.850924 -2.141691
60.932907 -24.849422 -2.2934661
68.782356 -24.935947 -4.0435352
68.862755 -24.874605 -5.4377828
67.064774 -24.779222 1.7470241
66.957748 -24.736618 1.451841
61.413116 -24.599237 -0.137659
68.974518 -24.594275 -2.1637571
68.715385 -24.503456 -2.27212
68.769379 -24.566738 -4.5358648
68.711021 -24.291399 1.676749
61.441193 -24.279163 -3.1621981
61.453968 -24.195774 -2.9222159
65.352333 -23.820724 1.166724
68.71051 -23.879013 0.92248499
60.973999 -23.806665 -1.49401
68.654984 -23.839705 -4.3344049
61.061588 -23.618731 1.748392
68.713318 -23.695551 1.405075
63.375999 -23.737675 0.58644903
68.78302 -23.73645 -0.27763799
63.597931 -23.680208 -1.284235
61.084068 -23.758284 -2.803128
68.564896 -23.455956 -0.65436399
68.898193 -23.349669 -3.778554
68.871567 -23.269793 -4.5428829
60.993851 -23.111042 -1.014796
62.286469 -23.011688 -1.000685
60.99408 -23.150671 -1.451028
68.670624 -22.921703 1.486076
68.647827 -22.987944 -3.4827161
68.678436 -22.61586 0.43084201
68.496773 -22.797667 -4.167964
68.617493 -22.515732 1.467877
63.503773 -22.459702 1.364013
65.035255 -22.58337 1.36674
63.677383 -22.424242 0.95565897
65.429359 -22.430651 0.409706
61.455421 -22.569969 -0.55511498
61.399197 -22.535955 -2.767534
61.033504 -22.234707 1.094471
61.01387 -22.317337 0.23185199
68.467102 -22.142878 1.688018
75.109001 -22.097054 1.430079
62.266281 -22.071747 1.376865
61.019516 -22.022436 -0.75372797
68.650459 -22.191238 -3.5490661
68.483063 -22.165764 -4.467453
61.051544 -21.85688 0.98412299
61.050644 -21.838177 0.64745301
68.445976 -21.903547 -0.180317
62.2449 -21.836491 -1.236679
61.498123 -21.825008 -3.1109469
68.656471 -21.885633 -4.554697
68.491432 -21.733717 1.7678829
68.952133 -21.647282 1.036141
68.631577 -21.725286 -3.306283
61.041718 -21.554394 1.262525
65.64962 -21.52986 1.389658
61.03714 -21.520569 0.311351
60.117348 -21.472584 0.108024
60.049828 -21.453238 -0.074628003
65.128418 -21.404943 -0.43554899
66.318924 -21.477625 -0.499504
62.30854 -21.421684 -0.61339498
60.586876 -21.503601 -2.200135
60.979115 -21.39617 1.6713181
62.223473 -21.330048 1.09563
62.285896 -21.33366 -0.32246301
64.940369 -21.332813 -1.323202
61.954697 -21.071634 1.6590509
65.393097 -21.069929 1.416901
62.440922 -21.130808 1.399204
60.195786 -21.052982 -2.338551
68.724808 -21.139267 -2.6739321
67.812042 -20.894993 1.847064
63.75383 -20.984055 0.911735
66.114655 -20.83956 0.53924298
75.414558 -20.821175 0.591649
68.574371 -20.962601 -0.950441
65.255157 -20.935703 -1.255988
68.43438 -20.939648 -1.862846
60.956665 -20.965267 -2.7400229
60.370525 -20.963417 -3.162024
64.54158 -20.755428 -0.157645
62.300068 -20.690216 -0.299454
68.284279 -20.633358 -0.28259301
63.951298 -20.741863 -0.58934402
66.257355 -20.459808 1.413148
68.428062 -20.529324 1.4957761
68.353233 -20.479515 -0.258515
61.778198 -20.267258 1.764414
68.472549 -20.235435 1.7173409
63.366287 -20.238688 1.173404
63.492477 -20.276134 0.96719599
62.325859 -20.309437 -0.89779001
63.445717 -20.011518 1.651458
68.47197 -20.028013 1.665224
62.933659 -20.146095 1.121212
68.369843 -20.11718 0.96996498
62.301552 -20.163492 0.239021
68.505264 -20.116364 0.29572001
65.372452 -20.037273 -1.188514
68.346642 -20.103092 -1.74763
78.954193 -30.879313 -7.849041
68.294769 -30.427229 0.145208
67.868973 -30.351315 -0.88393998
67.230164 -29.626471 -0.845429
68.607101 -29.670267 -1.0795881
62.567024 -29.243362 -5.3309731
62.597122 -29.069553 -1.815886
63.792622 -29.159828 -4.6122041
62.157269 -28.890614 1.08345
62.724007 -28.894148 0.073453002
63.092564 -28.856068 0.18010201
62.214596 -28.844011 -0.57090503
64.63372 -28.967001 -0.48260701
60.802189 -28.824102 -1.121592
65.663414 -28.949173 -1.4677171
64.574036 -28.920675 -1.6704299
63.290512 -28.83054 -2.3545091
64.528389 -28.884171 -2.562237
63.998043 -28.974962 -6.1504688
65.557892 -28.845234 -6.6558409
65.426727 -28.677872 1.4564199
61.741547 -28.766655 0.086097002
66.07312 -28.708956 -0.315503
60.578297 -28.772865 -0.975555
61.369297 -28.765457 -1.2913181
66.187981 -28.674116 -1.53728
61.821144 -28.791264 -2.242753
61.41626 -28.743713 -3.0623641
65.744987 -28.566811 -2.608885
64.97654 -27.83684 -2.0469911
65.671219 -27.414587 -5.7951398
61.363514 -27.351021 -3.265795
68.8293 -26.904808 -0.383082
61.347778 -26.984163 -2.817565
61.410843 -26.571075 -3.084425
60.875725 -26.295033 0.95329702
65.824219 -26.293802 -4.5360618
60.881538 -26.196114 -1.030043
60.882305 -26.173754 -2.296968
68.495003 -25.804586 -0.283079
60.892586 -25.826809 -1.330753
67.675827 -25.924589 -5.4856629
67.043961 -25.700874 1.058509
68.101738 -25.741137 0.995794
60.733494 -25.677464 0.76943398
65.933113 -25.663166 -0.175699
61.435051 -25.602259 -0.70934898
66.660706 -25.67075 -0.63870603
68.219673 -25.68054 -2.2372341
61.203892 -25.623871 -2.786382
65.90258 -25.612959 -2.7065451
67.342827 -25.644398 -2.9274211
68.817062 -25.60738 -3.2632811
67.825111 -25.775982 -3.834301
65.898132 -25.666389 -4.3441381
68.844193 -25.508579 0.99966198
60.7677 -25.442654 0.546996
60.904976 -25.455616 -1.091655
60.918633 -25.405437 -2.530643
68.85321 -25.435413 -3.0087819
68.17347 -25.544838 -3.7255499
66.297195 -25.566559 -4.7259989
68.352478 -25.540277 -5.0151901
68.66584 -25.455162 -5.5301342
60.914272 -25.364914 -1.353377
67.517853 -25.162741 1.355932
61.390709 -25.128845 -2.9189241
68.902184 -25.188362 -5.5332832
68.82428 -24.897987 0.179548
60.927727 -24.90531 -1.8533829
68.747704 -24.656826 0.20089699
69.003166 -24.44117 -1.5898319
68.674637 -24.489574 -3.448736
68.74971 -24.574436 -5.5184598
60.961525 -24.201397 1.036287
60.946617 -24.293526 0.57180202
60.94783 -24.290512 0.115282
60.949825 -24.252865 -2.5285599
68.722839 -24.334429 -3.9818001
68.908455 -23.883091 -2.8526421
61.442131 -23.986834 -3.1202359
68.819412 -23.849085 -4.8451471
62.330997 -23.63739 1.642879
62.248329 -23.651688 0.89436901
62.231735 -23.691048 0.65986502
63.78698 -23.653725 -1.2442811
64.981537 -23.704161 -1.2626131
68.748161 -23.75013 -4.8784008
66.085205 -23.446409 -0.60958201
68.910995 -23.421497 -2.128027
61.471352 -23.538364 -3.288178
68.909683 -23.420177 -4.1348729
68.806953 -23.514135 -4.825541
62.365097 -23.299782 1.636508
60.992607 -23.371977 1.417555
62.228821 -23.385386 0.200611
68.537155 -23.292484 -1.003989
61.490631 -23.159317 -0.60703999
65.727226 -22.96376 1.427397
68.832344 -22.989498 -0.207927
66.086731 -22.845737 -0.54522401
68.563843 -22.8521 -2.0729589
65.275841 -22.735598 1.341079
68.653084 -22.654432 0.180096
61.025204 -22.795444 -0.793212
68.547997 -22.712772 -2.643075
68.610504 -22.783857 -2.939913
68.55587 -22.751192 -3.0665691
66.130455 -22.501923 1.395602
64.944382 -22.449087 0.89662099
66.113998 -22.484915 0.217573
68.37294 -22.448061 -5.7908058
62.252655 -22.252329 1.0475
68.614372 -22.227573 -0.18805499
68.186867 -22.00539 1.669189
63.784107 -22.109457 -1.362391
61.048943 -22.13586 -1.519093
68.503616 -22.140268 -1.7622499
61.483757 -22.19783 -3.038811
68.557381 -22.168188 -3.681345
73.761978 -21.809284 2.2343571
65.162071 -21.805046 0.01066
68.634407 -21.8536 -0.33487701
64.659325 -21.820927 -1.068908
64.935928 -21.819038 -1.048319
61.039154 -21.818756 -1.2311881
61.033501 -21.889084 -2.1409619
66.172005 -21.760632 1.348508
68.609688 -21.788099 0.109079
68.611313 -21.737108 -0.21769001
68.517586 -21.667988 -2.850153
60.507126 -21.507776 1.636126
67.011009 -21.469931 1.692582
68.307861 -21.438534 1.632219
68.5588 -21.412739 0.51296502
60.651485 -21.490784 -0.186101
61.055683 -21.537319 -0.54233199
61.053829 -21.507526 -1.510414
60.666214 -21.421658 -2.093044
68.736328 -21.570766 -2.9044859
68.566406 -21.413458 -5.4185162
62.271957 -21.368244 1.6813411
64.049431 -21.315588 0.85014701
66.086578 -21.256977 0.026730999
60.183201 -21.390232 -2.234761
61.506096 -21.290424 -3.223628
62.261307 -21.080238 1.333483
68.269203 -21.022404 1.293607
64.293121 -21.083134 0.97693002
68.650475 -21.089882 0.39370799
63.404697 -21.025208 -1.279687
61.334583 -21.037708 -3.0972819
68.832733 -21.086128 -3.80443
66.214012 -20.875851 -0.479188
68.38726 -20.965336 -1.268234
60.172832 -20.898602 -2.6804171
60.774868 -20.990461 -2.7572999
64.777267 -20.617348 1.423682
68.388481 -20.75083 1.597176
64.216476 -20.774559 0.830378
68.453087 -20.60807 0.682926
68.358215 -20.525351 1.448607
68.88298 -20.500685 -3.410152
62.765282 -20.202219 1.164264
63.619984 -20.26405 1.13871
66.160812 -20.217815 -0.48115799
64.840149 -20.023821 1.816811
62.304501 -20.092274 1.674804
63.850563 -20.01359 1.652148
62.331932 -20.132168 1.341894
63.576904 -20.124855 1.163877
68.367859 -20.105484 0.67795998
68.389191 -20.064392 -3.2328031
68.443619 -20.003813 -3.316541
68.360428 -20.129177 -3.8691621
67.484741 -33.515327 -2.247725
79.121376 -30.613995 -7.920805
68.086304 -30.333546 -0.111722
68.115219 -30.382553 -0.52918297
67.258743 -30.289476 -1.6574399
62.625607 -29.012491 -4.3844442
62.376518 -29.122488 -6.020453
63.158234 -28.932138 1.767575
63.039856 -28.853714 -0.23162299
63.404709 -28.887964 -0.23398399
64.349731 -28.923384 -0.32229999
65.488373 -28.97122 -0.65758699
64.284698 -28.984301 -0.98202503
65.324821 -28.958359 -0.92069203
64.272766 -28.944757 -1.453549
64.185631 -28.849861 -2.9682951
63.769623 -28.821682 -3.722497
64.141998 -28.840084 -3.777164
64.657845 -28.865685 -4.961411
64.955597 -28.846493 -6.1039619
61.698654 -28.771751 0.716039
62.956909 -28.78508 0.61065698
65.864899 -28.68853 -0.99408901
62.951706 -28.764851 -1.415418
68.653168 -28.606609 -2.0731721
63.034981 -28.661991 -3.667151
61.023102 -28.652916 -3.8531001
60.527107 -28.67676 -4.175344
62.262383 -28.668615 -4.284874
62.438126 -28.65661 -4.3470731
61.513664 -28.758854 -5.0818582
64.391724 -28.689596 -5.4092622
64.173676 -28.723078 -6.1921949
65.740204 -28.48848 -3.5309861
65.71563 -28.370535 -3.568238
65.726067 -28.221912 -4.7677121
68.679123 -27.855436 -1.633691
68.68322 -27.53557 -1.955083
68.814728 -27.271774 -0.38633299
65.789612 -27.064274 -4.8502131
62.864197 -26.228476 1.100306
68.530098 -26.024731 -1.362667
65.777802 -26.141687 -2.602376
60.896641 -25.916096 -2.325763
65.844131 -25.858616 -3.7141359
65.816818 -25.890676 -3.8361931
68.276825 -25.738068 0.56989402
66.678551 -25.682133 -0.579014
65.865219 -25.72876 -1.0914069
65.903336 -25.623617 -1.748818
66.157928 -25.629192 -1.888662
68.197235 -25.681355 -2.6682451
67.382591 -25.643261 -3.4248519
68.797623 -25.609528 -6.406301
66.953384 -25.488018 1.099926
68.663269 -25.438656 -0.55017102
66.759094 -25.480236 -3.7807381
68.305389 -25.537384 -3.8709669
68.843063 -25.438692 -4.148077
66.055511 -25.518152 -4.5899291
66.540024 -25.582907 -4.5119882
66.688271 -25.520634 -4.4922109
68.374359 -25.530321 -5.8929572
68.989227 -25.56451 -7.2840481
69.243896 -25.535969 -8.1856613
66.95713 -25.333435 1.305652
60.91597 -25.15366 -1.402429
68.82148 -25.014744 -3.5565419
68.802773 -25.141426 -5.1952462
68.810509 -25.147903 -5.8194861
68.764641 -24.860174 0.612845
68.843903 -24.93189 -0.33698899
66.721535 -24.744904 1.3039
68.760529 -24.666645 1.1931829
60.941666 -24.634434 -2.242739
60.941998 -24.694887 -2.6984799
61.433475 -24.653908 -3.3093419
68.684929 -24.608429 -5.7644958
68.634819 -24.561424 1.740399
60.952507 -24.575045 0.074676
68.868629 -24.42384 -1.983068
60.937317 -24.548733 -2.5668709
60.958099 -24.239279 -0.99571198
68.871391 -24.305431 -1.109658
68.842377 -24.360123 -1.7626179
60.960442 -24.214321 -2.243156
68.727814 -24.192898 1.122291
68.610817 -24.163116 -0.69878697
61.44252 -24.148808 -3.237046
61.393883 -23.832447 -0.50315398
68.90329 -23.893505 -3.304774
64.667686 -23.624029 -1.1659369
60.966015 -23.772676 -2.305557
62.258762 -23.404875 -0.53236902
61.817974 -23.582796 -1.110337
62.971786 -23.451748 -1.346857
68.696869 -23.307673 1.43952
66.063782 -23.338369 -0.215151
68.692627 -23.264305 -5.344316
68.399338 -23.318426 -5.8245592
65.406448 -23.061272 1.413388
68.65477 -22.809946 -1.842284
68.641075 -22.92606 -3.657872
66.072327 -22.639355 0.94506401
62.245155 -22.648418 0.57912701
63.170059 -22.610935 0.555879
61.039417 -22.625189 0.146686
68.603714 -22.70027 -3.282491
68.581627 -22.772217 -3.8489389
68.584427 -22.58239 1.668705
62.253006 -22.497967 0.95506799
63.246243 -22.417183 0.332205
61.021996 -22.41469 -0.87424898
61.00948 -22.598318 -1.806338
68.646484 -22.569637 -5.3709669
66.899399 -22.239353 1.725028
65.890686 -22.235065 1.370405
65.971428 -22.331993 -0.92919302
62.766884 -22.275896 -1.213094
61.020069 -22.250782 -2.2133241
75.331032 -22.136612 1.432529
62.243172 -22.139084 0.092201002
61.032707 -22.172098 -0.145312
68.584686 -22.164314 -3.2945449
64.955597 -21.813845 1.4030631
64.157761 -21.93926 1.378719
68.459816 -21.878014 -0.211586
63.503845 -21.801561 -1.06944
63.60062 -21.816429 -1.085694
76.315384 -21.783691 1.445307
65.396484 -21.67086 1.3416851
65.81778 -21.763657 1.393218
64.631615 -21.70731 -0.136931
62.713932 -21.698299 -1.160516
68.502838 -21.69141 -2.094044
67.657898 -21.423931 1.857661
61.106159 -21.568991 1.633347
65.375153 -21.489946 1.359782
66.084244 -21.506592 1.357922
68.447243 -21.53088 -1.344625
60.298424 -21.465153 -1.531083
68.487137 -21.500381 -1.481584
68.851509 -21.537685 -1.899664
68.71891 -21.456581 -2.3056221
76.082573 -21.201405 2.0315809
65.708244 -21.356197 -1.171513
63.352798 -21.001181 0.89206803
68.596649 -21.082027 0.91195297
64.572144 -21.036644 0.67097402
60.670914 -21.007425 -3.0547421
64.950684 -20.920008 0.66486299
62.291565 -20.907398 0.59490401
64.582985 -20.944605 -0.158749
68.278481 -20.804277 -0.279587
64.009239 -20.809246 -0.53097898
60.296394 -20.927181 -2.5286319
60.95977 -20.983524 -2.935329
68.753754 -20.613884 1.061004
62.267174 -20.644899 0.604451
68.543076 -20.710203 0.199077
64.593391 -20.69417 -1.395484
62.310322 -20.575211 -0.63791102
68.376953 -20.529213 -1.41769
68.458984 -20.552631 -1.768294
60.931934 -20.235565 1.712063
66.140808 -20.251453 1.41998
68.535645 -20.232733 -3.05478
65.889374 -20.055832 1.504166
62.816986 -20.006235 1.254862
62.276184 -20.011827 1.068635
62.410194 -20.055424 0.35154399
68.43116 -20.03941 -0.114354
62.93486 -20.077431 -1.198766
64.96772 -20.095116 -1.278896
68.374992 -20.095867 -2.6844029
68.535461 -30.518545 -2.1880839
67.557617 -30.355064 0.120047
67.038605 -29.422607 -0.161484
68.618195 -29.575428 -2.180655
63.494015 -29.280354 -0.75278503
64.267189 -29.103636 -4.4359689
61.759449 -29.166843 -5.2470908
63.834305 -28.979973 0.60363299
63.841309 -28.926691 0.233265
64.208221 -28.955317 0.280586
64.975716 -28.962597 0.28343901
60.672672 -28.817051 0.15452699
62.624008 -28.868128 -0.35401401
63.17852 -28.850525 -1.7453949
61.39246 -28.803713 -1.941095
65.667061 -28.876869 -2.9421749
60.12225 -28.930914 -5.667273
62.957569 -28.664963 -2.706846
63.026127 -28.676189 -2.6663561
62.981224 -28.658514 -2.946516
60.27002 -28.67561 -3.9965589
60.151981 -28.659992 -4.215404
62.988224 -28.637779 -4.628799
60.540966 -28.679611 -4.9895411
62.967602 -28.630436 -5.0682502
60.308212 -28.688547 -5.3131709
62.63316 -28.787241 -5.5704622
61.299637 -28.697111 -5.7238212
65.243507 -28.761436 -6.0674391
61.101128 -28.527218 -5.9430351
65.697899 -28.308784 -5.9172888
68.689514 -27.442722 -1.4561549
64.992607 -27.408934 -2.000119
65.104652 -27.235882 -1.872561
61.386555 -27.355 -3.1774621
69.130783 -27.307364 -5.0379081
68.696259 -27.053028 -1.9020489
65.794395 -27.187708 -7.8630929
65.752541 -26.918175 -2.6670899
60.866341 -26.557035 -0.053571001
65.057343 -26.553759 -2.0267739
65.823418 -26.461664 -3.8254869
61.416592 -26.347763 -3.0580859
61.370174 -26.274145 -3.3279719
68.514946 -26.034077 0.15334
60.897282 -26.073399 -2.5196919
60.887878 -25.958092 -0.05212
64.426025 -25.656345 1.369096
67.474945 -25.703266 1.084833
67.772881 -25.795248 -1.780403
68.550209 -25.777878 -1.679258
66.269424 -25.608055 -3.493799
66.676781 -25.632406 -4.3728871
65.823654 -25.692036 -6.9053788
65.884018 -25.563213 -4.4524999
66.276398 -25.563768 -4.4543171
68.873154 -25.489857 -5.3874941
66.25769 -25.543438 -6.0819669
68.655899 -25.234287 -0.246865
65.876961 -25.09902 1.215584
68.816757 -25.086447 -0.278678
60.928394 -25.095325 -1.820273
68.659363 -25.049837 -2.3024421
68.745171 -25.032448 -3.526161
68.673859 -25.055351 -4.527925
68.761787 -24.801382 1.639519
68.708191 -24.859331 1.162112
60.939354 -24.967033 -1.167106
68.839752 -24.603058 -0.27073699
61.360088 -24.64238 -0.581972
68.873772 -24.643494 -3.5396359
68.828476 -24.774284 -4.0247579
68.837616 -24.710018 -5.0028858
68.651901 -24.454662 -2.6900389
68.672707 -24.384235 -1.805164
68.683304 -24.377892 -3.4408319
68.652771 -24.284775 -4.1202412
68.717384 -24.199627 0.256726
61.580818 -23.874512 1.748841
61.328815 -23.835625 -2.7855361
62.858299 -23.661076 -1.086995
68.695663 -23.492702 0.056069002
62.262062 -23.399233 1.110683
68.712746 -23.393272 -0.29694101
61.456749 -22.824734 -2.8227971
68.609756 -22.872213 -3.269556
68.538765 -22.770542 -2.154552
61.014362 -22.685951 -2.6053481
61.125362 -22.533628 -0.173848
63.805298 -22.241585 1.337851
64.104027 -22.332932 0.8761
62.232376 -22.206758 0.64948398
61.075966 -22.225613 -2.7209201
61.246017 -22.324387 -2.7736549
68.554306 -22.323456 -2.7003291
61.476604 -22.364407 -2.8605139
62.161469 -22.168242 1.4304579
66.080559 -22.177485 1.375712
68.342926 -22.038937 -0.29143301
68.547272 -22.156731 -3.060173
75.089691 -21.83049 1.417196
64.62326 -21.801439 0.84167302
61.05201 -21.81971 -1.040911
63.322968 -21.81856 -1.295709
68.099205 -21.735413 1.804392
68.603653 -21.734196 -0.49956399
68.529442 -21.640514 -2.512285
68.864151 -21.622995 -2.5428431
