# .PCD v0.7 - Point Cloud Data file format
VERSION 0.7
FIELDS x y z
SIZE 4 4 4
TYPE F F F
COUNT 1 1 1
WIDTH 67
HEIGHT 1
VIEWPOINT 0 0 0 1 0 0 0
POINTS 67
DATA ascii
72.708206 -172.64017 -4.4335818
76.96727 -179.85291 -3.832767
76.966606 -179.82388 -5.0369902
77.266548 -179.88617 -5.4068079
77.040894 -179.72849 -5.8467598
76.567039 -160.89474 -4.254437
75.908897 -160.35147 -4.4336162
77.022865 -179.84354 -4.1221871
62.167648 -179.68437 -4.4025059
62.34956 -176.7471 -5.813807
62.314377 -176.18188 -4.3031301
62.236462 -176.11862 -4.4867859
60.25634 -176.01038 -5.1560988
73.180016 -175.78166 -3.831275
63.720222 -175.29123 -5.8810711
72.667068 -172.7168 -4.3865528
62.480106 -172.43185 -4.1859822
62.231724 -172.42613 -4.2532048
61.142559 -172.35153 -5.3534508
62.49609 -172.35623 -5.9154129
76.687851 -160.87004 -4.4760308
78.509476 -160.19125 -4.1103258
62.272369 -179.75409 -4.6206059
62.447392 -176.74524 -6.0813332
62.252556 -176.07361 -5.8607082
62.34156 -176.12469 -6.0609879
60.613728 -176.01524 -6.9715471
61.367809 -172.37016 -4.1567521
62.547501 -172.35208 -5.9113688
76.484749 -160.90555 -3.6725681
77.415756 -160.91936 -4.2008109
75.214111 -160.79935 -5.5632768
76.005714 -160.30078 -3.65769
76.729218 -179.96042 -5.5780811
77.216591 -179.7952 -4.8953981
77.224922 -179.78325 -6.8017201
73.911804 -179.44359 -16.080576
61.015305 -172.41908 -3.7076409
75.785843 -160.34641 -3.639888
79.762169 -179.93831 -4.9524922
77.107811 -179.79829 -5.5289602
76.917618 -177.26999 -5.4868269
62.184235 -176.13521 -4.4504881
70.995506 -172.70332 -4.4201908
62.329052 -172.37468 -5.6930962
74.739197 -160.87614 -3.4975121
77.010605 -160.89667 -4.1093612
76.603264 -160.81253 -6.171504
75.380913 -160.32748 -3.635803
62.229298 -179.63654 -6.287919
62.516281 -177.36716 -5.9822059
62.341995 -176.72343 -5.84834
62.266365 -176.12529 -4.2715888
62.237648 -179.05075 -6.2673001
62.25898 -178.51697 -6.1308341
61.824387 -172.41411 -4.0990348
62.801163 -172.42603 -4.0593152
61.703598 -172.32486 -4.0103788
61.765148 -172.34435 -5.6661429
60.301708 -175.99698 -6.9580488
63.277721 -172.52722 -4.3151278
61.296288 -172.31638 -5.7997742
74.660164 -160.73235 -5.443749
72.720062 -172.62714 -5.9593921
62.262512 -172.41948 -4.2412381
62.538635 -172.42503 -4.2033801
62.169765 -172.39185 -4.1223469
