# .PCD v0.7 - Point Cloud Data file format
VERSION 0.7
FIELDS x y z
SIZE 4 4 4
TYPE F F F
COUNT 1 1 1
WIDTH 1515
HEIGHT 1
VIEWPOINT 0 0 0 1 0 0 0
POINTS 1515
DATA ascii
90.372391 -249.70337 -5.3067942
90.906174 -249.7336 -5.2549729
91.064789 -249.70219 -5.239377
80.512314 -249.74191 -5.553596
80.721405 -249.77068 -5.5867929
81.478874 -249.69919 -5.5519581
83.111076 -249.72934 -5.542552
84.491898 -249.68704 -5.4964619
84.92807 -249.69855 -5.5223351
85.243088 -249.75635 -5.506897
85.762054 -249.65591 -5.507607
85.89418 -249.71552 -5.4957261
86.702263 -249.65909 -5.4412699
86.938187 -249.69257 -5.466404
87.628731 -249.73573 -5.5169559
88.154831 -249.76549 -5.455884
88.628845 -249.78604 -5.5085511
89.933029 -249.763 -5.4780688
90.346634 -249.78758 -5.4171181
90.48542 -249.77719 -5.4102178
80.520828 -249.61435 -8.2795067
88.079712 -249.72517 -9.5255365
88.115982 -249.79854 -9.6695232
90.763184 -249.783 -9.8549652
92.99025 -249.66177 -10.896462
93.103539 -249.66835 -11.541955
81.704231 -249.71684 -11.807076
81.789673 -249.66476 -12.122272
88.876671 -249.79718 -12.367324
91.33847 -249.72954 -12.209589
92.364342 -249.69502 -12.581913
93.189354 -249.79507 -12.934582
93.206924 -249.79082 -13.116396
83.038559 -249.71045 -13.31251
83.886597 -249.79668 -13.205046
81.820419 -249.73595 -13.560879
81.710686 -249.67435 -16.595078
82.094025 -249.7753 -16.421524
87.227409 -249.60892 -17.593031
87.051102 -249.4469 -4.9469371
88.139282 -249.50902 -4.9767952
88.591797 -249.51106 -4.938446
90.602638 -249.54196 -4.8813348
91.257996 -249.58134 -4.9463701
86.273026 -249.44774 -5.0555272
88.204536 -249.50076 -5.033885
90.77874 -249.58157 -5.127408
82.425369 -249.43907 -5.3868332
84.532883 -249.48276 -5.3693662
85.501999 -249.51857 -5.365469
96.247971 -249.46867 -5.2987151
98.610237 -249.49112 -5.2109671
98.981491 -249.40276 -5.2069602
80.964256 -249.49359 -5.5572019
81.056427 -249.48166 -5.5527701
83.318893 -249.55174 -5.5239329
83.534286 -249.52948 -5.4945588
84.949356 -249.59195 -5.5187469
96.197662 -249.44664 -5.6999588
80.042107 -249.48767 -6.9912601
80.323235 -249.45847 -7.4978971
80.46331 -249.47791 -7.6687741
80.144104 -249.50351 -7.9043241
80.290421 -249.491 -7.877285
88.35099 -249.56509 -9.5189915
92.49791 -249.47476 -9.5619278
93.448837 -249.48224 -10.456861
94.562271 -249.50317 -10.593008
80.767303 -249.5174 -10.649412
80.876358 -249.52679 -11.359331
93.365273 -249.51308 -11.612341
81.538956 -249.58118 -12.275528
91.340958 -249.46124 -12.314762
88.686157 -249.59982 -12.445524
91.257103 -249.58896 -12.79267
88.901886 -249.41513 -13.437145
89.85202 -249.59747 -14.373921
83.696587 -249.49074 -17.685455
86.672043 -249.32202 -4.9625392
81.791153 -249.26456 -5.1695509
82.951118 -249.27649 -5.1160488
84.679138 -249.35672 -5.098227
95.334976 -249.22485 -5.027482
96.10891 -249.35535 -5.0444121
96.21553 -249.36798 -5.0803881
99.326553 -249.26462 -5.1719751
80.146362 -249.23816 -5.3124938
80.958107 -249.28287 -5.3546071
82.068092 -249.33107 -5.2712979
99.443329 -249.35681 -5.2335649
99.737534 -249.33887 -5.2252169
80.387894 -249.35109 -5.5558958
80.96096 -249.27176 -5.422534
80.431015 -249.37686 -7.4327521
80.166557 -249.3934 -7.857501
80.263229 -249.30043 -7.9628892
93.396645 -249.26477 -11.262946
94.219299 -249.32285 -11.308842
82.241249 -249.26086 -11.807538
81.769272 -249.3913 -12.250528
82.295296 -249.21899 -12.454021
91.114594 -249.36713 -12.623054
89.042862 -249.28363 -13.100384
88.931053 -249.30392 -13.992353
88.869812 -249.26524 -14.187616
82.513031 -249.35373 -16.681219
82.185486 -249.27182 -16.919649
82.869156 -249.14478 -4.966527
83.434891 -249.15469 -4.964776
95.552116 -249.11411 -4.9944339
81.547592 -249.13049 -5.066637
82.131737 -249.15787 -5.019362
82.871841 -249.16875 -5.011301
90.298096 -249.01569 -5.0586972
91.461212 -249.08817 -5.062396
93.100609 -249.11414 -5.0421939
94.128082 -249.05743 -5.0342221
94.547211 -249.02271 -5.0343461
95.112595 -249.14359 -5.0439868
95.827126 -249.11905 -5.0470929
96.948067 -249.00066 -5.1630869
98.611023 -249.0845 -5.146534
99.065811 -249.16367 -5.1535521
80.905342 -249.16217 -5.242506
81.045311 -249.16678 -5.2484798
81.345901 -249.1852 -5.2110629
96.289505 -249.076 -5.4799242
80.387573 -249.16934 -7.533649
80.32724 -249.07068 -7.88308
80.116776 -249.02386 -8.3307724
80.287109 -249.05534 -8.2705526
80.120178 -249.12143 -8.4494572
91.882324 -249.17422 -10.291942
81.261383 -249.17523 -10.5599
92.078072 -249.06406 -10.50626
80.90889 -249.0493 -10.682527
81.069519 -249.03621 -10.84557
94.334335 -249.12216 -11.157326
82.536316 -249.01826 -12.199183
91.325462 -249.09637 -12.17778
81.47831 -249.06996 -14.762703
85.947021 -249.06891 -14.642944
82.563644 -249.09094 -16.661503
84.972084 -249.19263 -17.138739
84.915497 -249.06027 -17.658375
95.68528 -248.8591 -4.994051
82.772301 -248.95822 -5.0328259
84.078445 -248.97049 -5.0300412
85.332466 -248.826 -5.0897598
85.722183 -248.81474 -5.1348171
85.873009 -248.81699 -5.0965171
90.312691 -248.9758 -5.0645781
92.259109 -248.93744 -5.035604
92.651566 -248.88235 -5.0407658
93.287781 -248.99454 -5.0397649
94.492554 -248.94714 -5.0182238
94.719452 -248.93202 -5.0288959
95.476028 -248.9014 -5.0200658
95.67881 -248.90768 -5.020515
96.640732 -248.93329 -5.1201601
98.20694 -248.995 -5.1521149
99.366676 -248.93704 -5.1124969
80.367477 -248.98372 -7.9313788
80.248428 -248.89642 -8.345932
80.670174 -248.81076 -11.016241
81.756622 -248.9985 -13.792724
86.813126 -248.99718 -14.504599
82.225433 -248.83737 -14.950228
85.979622 -248.89174 -14.85926
86.079086 -248.99222 -14.976353
80.574203 -248.95177 -15.668442
85.312988 -248.88086 -17.30184
82.47731 -248.63623 -5.1065788
83.462654 -248.69684 -5.096498
83.894989 -248.67612 -5.104033
85.729858 -248.67923 -5.0967159
85.884109 -248.68524 -5.0984101
89.751007 -248.64162 -5.0291061
91.3508 -248.68451 -5.0141339
92.155151 -248.65726 -5.1243768
92.855057 -248.66269 -5.0625472
94.03537 -248.77405 -5.050014
94.461304 -248.62556 -5.0035372
94.852661 -248.70154 -5.0360641
96.10408 -248.68092 -5.0373731
96.663681 -248.62639 -5.084352
98.099426 -248.66322 -5.168169
98.337265 -248.7092 -5.1403379
99.894958 -248.65564 -5.0855269
95.427338 -248.75749 -5.2697511
92.651184 -248.60008 -6.4817252
86.881454 -248.70554 -14.670103
86.06073 -248.76384 -14.991592
94.843094 -248.72476 -14.889223
94.131966 -248.70164 -15.08355
93.541161 -248.63992 -15.36322
82.394012 -248.7662 -16.643
85.577576 -248.78221 -17.171553
85.022499 -248.49823 -4.9664078
94.26754 -248.55038 -4.9974098
94.859009 -248.54178 -4.9826708
95.18251 -248.55096 -4.9919271
95.384125 -248.46094 -4.9991698
95.854828 -248.48233 -4.9708748
80.938263 -248.51996 -5.1141801
81.320267 -248.53293 -5.1006708
82.806038 -248.48877 -5.1058588
83.511703 -248.50717 -5.0947962
85.34726 -248.49274 -5.0653729
85.584724 -248.52432 -5.0727749
86.086281 -248.52917 -5.0904622
87.193314 -248.43759 -5.0903902
89.409134 -248.58412 -5.0670028
90.107094 -248.49425 -5.0228028
91.36869 -248.57576 -5.0180321
91.900986 -248.44339 -5.016572
92.863075 -248.47849 -5.0486908
94.648849 -248.47906 -5.008162
96.96756 -248.56683 -5.1390891
97.874481 -248.46008 -5.0968642
92.242996 -248.50772 -5.324542
86.244049 -248.4053 -5.4476299
92.347931 -248.57364 -5.7576289
92.362473 -248.53391 -5.9084659
92.414276 -248.4892 -5.9572482
92.702881 -248.44089 -6.1019959
92.349701 -248.43947 -6.5091629
92.436157 -248.51477 -7.134953
92.447144 -248.4474 -7.2874551
92.357674 -248.40379 -7.5105901
92.716248 -248.43408 -7.543891
92.385414 -248.50804 -7.746418
92.376175 -248.42841 -7.8074889
92.734116 -248.45871 -8.2736759
80.150032 -248.55356 -8.4743557
92.458153 -248.50423 -8.6645508
92.751389 -248.44754 -9.5331087
92.60614 -248.45894 -10.631882
80.319321 -248.44077 -10.840793
86.29081 -248.48502 -10.885259
92.62265 -248.42706 -12.475639
96.045708 -248.56505 -13.410679
95.949341 -248.53229 -13.849286
82.307495 -248.58603 -14.90654
82.504333 -248.53336 -16.271152
85.972618 -248.41768 -16.341591
82.693451 -248.53741 -17.076775
84.683594 -248.49797 -17.132259
84.947784 -248.5005 -18.141661
90.162254 -248.30786 -4.946816
94.011467 -248.27895 -4.9928002
95.125381 -248.25882 -4.9899082
81.693192 -248.23987 -5.1092262
83.421387 -248.2424 -5.0768251
86.553909 -248.24861 -5.0966201
86.928986 -248.22697 -5.084507
88.977295 -248.37921 -5.076314
92.312546 -248.24292 -5.13204
92.934097 -248.30402 -5.0484862
93.565697 -248.2869 -5.0318432
93.846237 -248.21236 -5.0219011
94.090454 -248.31015 -5.0193839
94.313217 -248.34134 -5.012115
94.56472 -248.28299 -5.0291152
94.889183 -248.22256 -5.0210452
95.04776 -248.32451 -5.0068331
97.351929 -248.27957 -5.1066322
97.535339 -248.30046 -5.158711
85.756546 -248.28317 -5.2911472
85.86264 -248.33682 -5.2958989
92.456253 -248.21397 -5.3167491
85.892914 -248.32385 -5.6615672
86.181351 -248.36949 -5.730454
86.28302 -248.24091 -5.668138
89.342339 -248.22397 -5.6671648
89.406921 -248.2494 -5.638926
92.346001 -248.33138 -5.731339
92.449364 -248.29318 -5.894876
92.631416 -248.27927 -6.070611
92.473633 -248.23132 -6.8374939
92.620522 -248.22838 -6.9046631
92.48085 -248.26913 -7.1199799
85.955002 -248.28342 -7.2612991
86.195786 -248.29738 -7.3122711
92.372177 -248.31976 -7.329484
92.363182 -248.32829 -7.507812
92.370239 -248.31575 -7.8735361
92.706161 -248.24573 -8.0735188
80.296547 -248.38028 -8.3287411
85.9506 -248.22801 -8.2740355
86.00724 -248.26752 -8.3509417
86.298386 -248.21796 -8.2614183
92.387329 -248.32822 -8.6481819
92.442596 -248.35611 -9.1382542
92.382607 -248.30658 -9.3515644
92.430176 -248.34615 -9.4360723
86.308647 -248.22752 -10.031757
92.432739 -248.27553 -10.118298
92.46788 -248.28442 -10.240866
92.470062 -248.33101 -10.834912
86.300537 -248.22673 -11.541533
92.478592 -248.29468 -11.456458
92.863594 -248.23604 -11.750248
92.494705 -248.33597 -11.936178
92.621765 -248.23097 -13.751701
88.615753 -248.36281 -14.13205
95.723305 -248.23708 -14.207788
82.260345 -248.31415 -14.545978
95.69622 -248.31322 -14.625898
82.489197 -248.37093 -14.822166
82.191925 -248.21648 -15.42084
82.218796 -248.21759 -15.769356
85.866791 -248.27557 -16.313791
85.120369 -248.30556 -17.387665
86.530594 -248.20114 -18.211086
85.743988 -248.15332 -4.991128
94.131989 -248.16032 -4.9831738
95.470879 -248.19971 -4.9660292
80.660889 -248.07684 -5.107728
81.412079 -248.17813 -5.0700369
86.341591 -248.10376 -5.1594739
87.33197 -248.06442 -5.0802779
88.261047 -248.12071 -5.0377498
89.102112 -248.06111 -5.059566
89.95459 -248.12579 -5.0472589
90.298538 -248.07544 -5.0510392
90.493164 -248.08902 -5.0676079
91.035812 -248.04282 -5.0063262
92.127869 -248.12944 -5.0595498
92.527878 -248.11893 -5.0723448
92.952805 -248.12064 -5.0165162
95.354042 -248.11223 -5.0471959
95.724289 -248.0452 -5.0929341
96.300293 -248.17737 -5.1122079
97.011673 -248.09482 -5.129252
97.356064 -248.12701 -5.0436301
97.470978 -248.01736 -5.134727
97.741173 -248.09525 -5.1185398
98.976906 -248.14467 -5.108078
85.814697 -248.05862 -5.3170509
89.145798 -248.03134 -5.3255911
92.508133 -248.19221 -5.3165002
89.313675 -248.14099 -5.5116882
85.868828 -248.12668 -5.669024
89.310043 -248.08154 -5.6504078
85.858788 -248.11667 -5.9097099
85.908386 -248.16635 -6.050837
86.243828 -248.02991 -6.0925369
85.851471 -248.14087 -6.490694
85.878746 -248.11694 -6.7097678
85.910614 -248.09891 -7.074934
86.300308 -248.07437 -7.0583649
85.933441 -248.13628 -7.2977219
86.020432 -248.17172 -7.40416
92.623764 -248.19904 -7.4793801
86.326942 -248.07478 -7.6769352
92.619316 -248.151 -8.3209591
85.93689 -248.07588 -8.6672449
86.039818 -248.16986 -8.6437244
92.49411 -248.16138 -8.7713413
86.353111 -248.09323 -8.9627781
92.648361 -248.10736 -9.1007576
81.418793 -248.04611 -9.3044605
85.913017 -248.03348 -9.2874317
86.404739 -248.02957 -9.3673706
92.520126 -248.13605 -9.3125267
92.639931 -248.09348 -9.3048353
85.950607 -248.07745 -9.4836044
86.307098 -248.14465 -9.7367315
92.476906 -248.12987 -9.9907913
92.628738 -248.07332 -9.9096184
85.95858 -248.09589 -10.102701
86.19001 -248.15155 -10.14037
92.645134 -248.06384 -10.088369
85.967651 -248.10538 -10.480089
92.722412 -248.04196 -10.501507
80.577682 -248.09445 -11.081523
92.505005 -248.11105 -11.021814
86.062454 -248.10828 -11.314084
92.437828 -248.1886 -11.288447
86.084961 -248.12204 -11.783215
85.984512 -248.04144 -11.871622
86.448334 -248.08588 -11.851925
92.517097 -248.14221 -12.07959
86.106155 -248.16873 -12.240576
92.572403 -248.02052 -12.342432
92.549896 -248.04483 -12.483809
86.173889 -248.03247 -13.714552
82.6017 -248.13269 -14.115948
83.701057 -248.1963 -14.745583
84.108887 -248.15596 -15.153184
84.208321 -248.18169 -15.382728
84.732254 -248.06427 -15.790032
92.856934 -248.0126 -15.623399
85.570061 -248.09558 -16.568558
85.398987 -248.18011 -17.648708
85.100082 -248.15546 -18.137047
84.600189 -247.81021 -4.9432988
89.151039 -247.84393 -4.96457
92.509331 -247.91873 -4.9819651
93.388283 -247.87982 -4.9858088
94.302185 -247.9975 -4.9751792
94.714371 -247.98901 -4.9738731
95.298203 -247.97162 -4.988236
82.336456 -247.9267 -5.0645528
83.427826 -247.88029 -5.0597329
86.09671 -247.84157 -5.1232581
88.536507 -247.92807 -5.0299091
89.351532 -247.92688 -5.1147189
90.09787 -247.91612 -5.047977
90.237961 -247.89745 -5.0276341
91.723412 -247.8604 -5.0105829
91.878403 -247.9574 -5.0158358
92.127228 -247.92004 -5.0140858
92.550484 -247.92093 -5.0258579
92.696556 -247.9718 -5.036736
92.870689 -247.92612 -5.0212889
93.067307 -247.93488 -5.0257559
93.815071 -247.98013 -5.0201921
94.68129 -247.88361 -5.0524902
95.254158 -247.88162 -5.033329
95.484535 -247.91875 -5.050056
97.702866 -247.91925 -5.1332068
97.899323 -247.84601 -5.1421571
85.896446 -247.93311 -5.3110909
86.049179 -247.87811 -5.3375812
89.221924 -247.88617 -5.2873678
85.95005 -247.95912 -5.6874852
89.183189 -247.9216 -5.7488399
89.219925 -247.91716 -5.7242332
85.943993 -247.95575 -5.9017749
86.041801 -247.94106 -5.836813
89.183578 -247.88126 -5.8840289
85.969856 -247.95912 -6.154881
86.047791 -247.91019 -6.1139212
85.946091 -247.95938 -6.276001
86.033234 -247.91527 -6.2722511
89.170349 -247.8876 -6.2795129
89.225922 -247.86288 -6.314219
85.970322 -247.95544 -6.4883051
86.055206 -247.89999 -6.506484
85.945496 -247.96585 -6.742866
89.229843 -247.91299 -6.67943
89.254227 -247.87198 -7.1496921
85.967117 -247.94173 -7.2905579
86.051895 -247.90756 -7.293294
89.154587 -247.81967 -7.3136139
89.24823 -247.8616 -7.2884121
85.947678 -247.94684 -7.4484482
85.932518 -247.93695 -7.702507
89.149971 -247.80144 -7.6941628
85.95372 -247.97424 -7.8944702
89.262123 -247.85364 -7.9026709
89.248207 -247.81801 -8.1496906
86.069504 -247.86716 -8.4999237
86.000755 -247.8569 -8.7096167
89.19252 -247.86604 -8.8958035
81.528351 -247.89079 -9.5183125
86.055695 -247.86841 -9.5065708
86.405556 -247.95268 -9.736659
81.093353 -247.92865 -10.030674
80.070412 -247.91187 -10.756828
80.236023 -247.86169 -10.914882
80.435455 -247.96216 -11.091379
86.041641 -247.86472 -11.006449
92.71254 -247.97151 -11.684748
92.663467 -247.9695 -12.968913
83.088699 -247.9971 -13.682272
95.821808 -247.97078 -13.909412
92.827179 -247.9617 -14.205114
83.727684 -247.9144 -15.001704
82.219933 -247.93945 -15.374259
85.913773 -247.89427 -16.753763
85.823593 -247.75876 -4.959733
80.685135 -247.76317 -5.1098132
81.284714 -247.72275 -5.069068
81.87439 -247.77406 -5.0857878
83.903671 -247.65646 -5.0622339
85.042068 -247.70618 -5.018743
86.543877 -247.69949 -5.067729
87.475624 -247.69292 -5.049562
90.881287 -247.70679 -5.078537
91.328323 -247.64111 -5.0932288
91.71553 -247.65698 -5.0727119
92.503983 -247.6918 -5.0543938
94.286057 -247.71085 -5.060204
94.640732 -247.72392 -5.068131
95.14045 -247.72992 -5.0713019
96.355843 -247.74724 -5.0516911
97.344086 -247.79535 -5.1302199
98.106361 -247.62392 -5.1197901
89.132248 -247.79041 -7.806479
86.117004 -247.79471 -8.9745541
81.086914 -247.66434 -9.0385485
81.718254 -247.62947 -9.5696316
86.195084 -247.77405 -9.5099192
86.208801 -247.79199 -9.537344
81.651314 -247.74612 -9.6271687
86.095276 -247.79341 -9.8148184
86.098152 -247.7872 -10.266666
80.035355 -247.7558 -10.573485
86.315796 -247.73428 -11.092905
80.186905 -247.70493 -11.297223
86.055695 -247.79698 -12.633965
86.240334 -247.72223 -12.982801
83.819641 -247.64548 -14.461994
83.526016 -247.76276 -14.692519
84.220123 -247.68509 -15.241352
84.424515 -247.63092 -15.334856
86.333359 -247.73322 -15.790726
86.176849 -247.7901 -16.077715
85.763092 -247.7137 -16.250004
86.255676 -247.7981 -17.755692
81.259949 -247.44089 -5.0843811
81.870712 -247.52722 -5.0563302
83.316376 -247.51096 -5.0567961
84.071884 -247.53156 -5.0327029
86.491013 -247.55917 -5.081676
87.721268 -247.44556 -5.1060572
87.965729 -247.4371 -5.1337662
88.044472 -247.42917 -5.1242242
90.250282 -247.54597 -5.1125011
90.497238 -247.54456 -5.109767
91.81617 -247.59889 -5.1040039
95.035324 -247.42958 -5.0861759
95.700348 -247.46368 -5.0780911
96.352646 -247.5137 -5.0652971
98.497581 -247.43311 -5.0805378
99.711723 -247.55881 -5.0643539
81.239487 -247.48076 -9.1278973
84.614502 -247.52222 -14.987736
85.902954 -247.5537 -16.242544
85.778732 -247.52231 -16.483303
86.42366 -247.5222 -16.979185
89.658607 -247.59055 -17.057322
93.764206 -247.46381 -17.290421
80.18335 -247.33337 -5.0953279
80.9198 -247.34589 -5.0952449
81.130325 -247.37047 -5.0792389
81.488892 -247.33502 -5.0723529
82.531906 -247.20389 -5.153028
82.701614 -247.2045 -5.134357
83.335373 -247.21915 -5.1572208
84.308472 -247.25308 -5.1345601
85.710678 -247.30719 -5.137537
86.119476 -247.29192 -5.1241288
87.870003 -247.35356 -5.102313
89.096413 -247.36015 -5.0944061
91.731903 -247.34279 -5.0881772
92.728851 -247.37704 -5.0701199
94.143181 -247.35982 -5.0516791
94.302597 -247.36134 -5.0784531
94.950127 -247.38261 -5.0605211
95.896767 -247.35782 -5.0593891
96.129745 -247.37007 -5.0782728
99.708801 -247.26535 -5.0515199
80.265625 -247.32751 -8.7318439
80.123459 -247.30881 -9.9134026
80.085632 -247.36713 -10.284597
80.242195 -247.36731 -10.574095
80.342194 -247.27066 -10.858507
80.422127 -247.3663 -10.877542
85.331635 -247.39426 -14.917282
85.484543 -247.3317 -15.226799
85.886909 -247.37506 -15.474462
87.02066 -247.29535 -15.785322
86.076904 -247.31787 -15.884317
85.014969 -247.3295 -16.637653
86.603531 -247.28998 -17.218323
85.866806 -247.31223 -18.21711
81.737503 -247.13699 -5.1506448
82.325104 -247.13846 -5.125071
82.498627 -247.07373 -5.1074419
82.891006 -247.11203 -5.1337032
83.332382 -247.11359 -5.155477
83.718582 -247.10529 -5.15592
84.203011 -247.07393 -5.1363568
84.470726 -247.18614 -5.1205859
88.658791 -247.0208 -5.134552
88.976158 -247.00774 -5.0662818
92.184036 -247.00806 -5.0821881
92.768784 -247.16695 -5.0283842
94.519989 -247.03314 -5.0448012
95.50824 -247.07256 -5.0601749
96.905106 -247.04062 -5.079607
98.508186 -247.01144 -5.1392798
89.346321 -247.16983 -8.9200869
80.12265 -247.09096 -9.7573195
81.216209 -247.08496 -9.6474247
80.272354 -247.14304 -10.064745
84.952301 -247.02051 -13.709881
84.685493 -247.03355 -14.010479
84.966354 -247.00119 -14.582579
84.307648 -247.06026 -15.934114
85.624954 -247.10184 -17.774654
80.649788 -246.91518 -5.172946
81.486229 -246.92262 -5.100471
84.073639 -246.83838 -5.1431231
84.523636 -246.90735 -5.137373
88.677437 -246.99733 -5.0990739
94.440826 -246.96667 -5.0414991
95.035782 -246.83316 -5.0494981
96.180862 -246.93602 -5.1063738
96.260681 -246.91635 -5.0609832
96.427574 -246.86093 -5.1117249
96.915428 -246.89928 -5.124896
97.830742 -246.95374 -5.1272268
98.121559 -246.92418 -5.0774231
98.896042 -246.98566 -5.0833621
99.340454 -246.97687 -5.0697451
99.558411 -246.86673 -5.047843
80.302322 -246.87355 -8.3382378
80.239838 -246.87204 -8.5358076
80.045761 -246.92886 -8.9268551
80.510895 -246.98419 -9.6844606
80.600082 -246.87898 -9.6399364
80.521706 -246.8969 -10.184426
85.327446 -246.99384 -15.01876
86.751366 -246.92499 -15.53273
83.670654 -246.85176 -16.304462
84.529572 -246.90045 -16.761005
86.340393 -246.89011 -18.024942
82.311775 -246.68968 -5.1548071
83.394737 -246.73886 -5.1499019
85.141396 -246.62909 -5.115983
86.226906 -246.75105 -5.1200862
88.311958 -246.64859 -5.0976491
91.268387 -246.67032 -5.0982971
94.976334 -246.77539 -5.0849781
97.392242 -246.62051 -5.1010909
98.638123 -246.60448 -5.08637
99.09304 -246.65524 -5.0340519
99.312012 -246.69742 -5.0371408
99.850525 -246.74939 -5.0640988
80.477646 -246.66367 -8.4461708
80.069298 -246.6772 -8.895215
80.263412 -246.72397 -8.8719139
80.786774 -246.63817 -9.8016987
80.298157 -246.68784 -10.278976
86.849503 -246.64319 -15.31119
87.530632 -246.61081 -15.314538
86.59742 -246.67763 -15.812008
83.872116 -246.71933 -16.467003
81.867088 -246.5972 -5.15446
85.412994 -246.55127 -5.1228781
87.520012 -246.58502 -5.0734038
88.023003 -246.49356 -5.1007872
91.827156 -246.53542 -5.0704489
96.751877 -246.48886 -5.1200018
80.030716 -246.48883 -8.2814112
80.049255 -246.44989 -8.4977388
80.053658 -246.50436 -8.777195
80.129639 -246.51988 -8.8620443
80.653915 -246.45404 -9.9391098
80.503853 -246.52032 -10.228409
80.317146 -246.57037 -10.532978
84.677711 -246.45035 -12.127515
84.377968 -246.41844 -12.524885
84.517792 -246.48065 -13.052114
84.384178 -246.52649 -13.225246
84.582199 -246.50793 -13.435822
84.878883 -246.5349 -14.225346
95.836212 -246.51907 -14.656386
87.498779 -246.5571 -15.147872
87.686935 -246.58893 -15.046795
86.737984 -246.58246 -15.205816
83.473312 -246.44104 -15.414072
85.891968 -246.43083 -15.482365
84.547607 -246.47159 -17.273056
81.275146 -246.28381 -5.1553292
85.878403 -246.33418 -5.128026
89.738609 -246.28505 -5.0854449
90.115517 -246.23523 -5.0896931
98.916443 -246.22644 -5.0936351
99.301895 -246.21722 -5.0564642
80.448853 -246.2005 -8.1442909
80.64521 -246.28261 -8.1719294
80.10424 -246.2594 -8.4608288
80.225571 -246.27037 -8.5721302
81.011421 -246.21548 -9.5892639
80.275467 -246.26543 -9.8487139
80.675598 -246.33459 -9.8778896
80.678299 -246.31525 -10.157979
80.368683 -246.39133 -10.615659
84.354965 -246.23846 -12.298566
84.469032 -246.21194 -12.705183
84.553619 -246.26755 -13.382256
84.590408 -246.24533 -13.706341
95.439331 -246.32446 -14.179621
84.862617 -246.25861 -14.267764
87.745895 -246.23848 -14.70423
87.044067 -246.26347 -14.96889
87.706665 -246.38414 -14.813652
86.945732 -246.327 -15.233132
83.508385 -246.22119 -15.437963
83.494545 -246.28123 -16.077698
94.019073 -246.29221 -18.547863
93.901627 -246.27542 -18.630789
80.943825 -246.11319 -5.0922489
82.260948 -246.11337 -5.1362448
82.499466 -246.0977 -5.1237068
83.345642 -246.11179 -5.1473899
85.830269 -246.00999 -5.1319361
87.606262 -246.0538 -5.083602
87.893074 -246.17203 -5.0988779
90.04425 -246.05028 -5.0840092
91.470116 -246.07767 -5.0633068
92.503448 -246.1929 -5.0329399
94.947922 -246.14117 -5.0479789
99.712135 -246.13025 -5.02737
80.536743 -246.06786 -7.671721
80.162918 -246.14337 -8.3534851
80.265549 -246.13727 -8.5328541
80.963684 -246.09305 -9.6704807
81.010902 -246.12196 -9.7559366
80.69175 -246.09796 -10.008659
84.818657 -246.19339 -12.171897
85.108414 -246.04453 -12.535438
84.313385 -246.13249 -12.679115
84.270546 -246.17697 -12.940157
84.305038 -246.14282 -13.109518
88.070221 -246.03201 -13.157711
84.286659 -246.14734 -13.285596
88.109406 -246.02895 -13.368865
87.960236 -246.04254 -13.872314
87.964912 -246.17847 -14.118364
87.099602 -246.07852 -14.537264
87.39415 -246.16159 -14.576943
83.552368 -246.09563 -15.181231
85.822174 -246.17151 -15.097767
85.921013 -246.06642 -15.50025
86.415756 -246.04242 -16.029331
87.145164 -246.00179 -16.194832
87.517548 -246.01831 -16.619104
91.398407 -246.1393 -18.873642
85.361298 -246.1938 -19.017075
85.497231 -246.15131 -19.525751
95.356117 -245.94164 -4.9644542
80.637367 -245.85164 -5.1113381
82.310379 -245.84125 -5.114748
84.953682 -245.87601 -5.1180739
88.017456 -245.9102 -5.113009
92.2603 -245.8315 -5.026134
96.30014 -245.88449 -5.0580258
80.269547 -245.84854 -7.5743299
80.195686 -245.85481 -7.770421
80.328857 -245.91061 -7.94945
80.155334 -245.84912 -8.1629314
80.299881 -245.91617 -8.0884447
80.46447 -245.85414 -8.0485172
80.293053 -245.88928 -8.2860975
80.555161 -245.87549 -8.336935
80.654938 -245.87881 -8.2101641
80.263489 -245.91187 -8.5131025
85.06012 -245.90839 -12.687187
88.16452 -245.92558 -13.004322
84.873505 -245.93266 -13.418228
88.061165 -245.86613 -13.692923
87.191803 -245.93887 -14.278505
87.274483 -245.81999 -14.252466
87.125153 -245.96024 -14.510482
87.496552 -245.8829 -14.947139
83.356934 -245.98407 -15.413377
83.279343 -245.81198 -15.857536
86.178612 -245.84375 -15.815808
83.378494 -245.93057 -16.210033
83.795135 -245.95258 -16.91209
87.489815 -245.80939 -16.879784
81.063515 -245.65826 -5.1509871
81.892136 -245.76764 -5.133738
85.472557 -245.79922 -5.1038718
87.768822 -245.78448 -5.0897641
90.205963 -245.76591 -5.0603199
94.329071 -245.7603 -5.05054
96.049202 -245.62094 -5.0203791
97.763512 -245.76953 -5.0790381
99.434418 -245.72235 -5.0547261
80.290375 -245.73129 -7.7304449
80.641403 -245.74887 -7.6647301
80.433167 -245.7243 -7.9081612
80.678864 -245.78728 -8.0511646
80.182678 -245.71405 -8.3204136
80.287941 -245.75833 -8.3222752
87.75264 -245.64952 -12.77626
87.756714 -245.73767 -12.979793
87.510605 -245.69492 -13.110825
87.387375 -245.67667 -13.886586
87.771591 -245.75421 -14.185711
87.802856 -245.71437 -14.491667
85.757011 -245.72803 -14.771286
87.512131 -245.74092 -14.714464
85.800751 -245.78877 -15.026944
85.916748 -245.76617 -15.336525
86.08371 -245.71634 -15.440472
87.185768 -245.61594 -15.972131
83.038597 -245.63736 -16.175894
87.410706 -245.72356 -16.323196
87.533524 -245.77493 -16.625729
87.629051 -245.73752 -16.625759
85.245834 -245.78754 -19.411489
95.690521 -245.41882 -4.9908342
80.569321 -245.48254 -5.1275368
82.480545 -245.41451 -5.1261988
85.329819 -245.41498 -5.0935001
86.359711 -245.53664 -5.0901332
86.967529 -245.44656 -5.0708742
87.771233 -245.42986 -5.0785351
90.126282 -245.42116 -5.0445051
91.374733 -245.46019 -5.0308232
98.309906 -245.52072 -5.06499
80.484833 -245.53383 -7.5289831
80.423584 -245.49063 -8.0509634
87.81424 -245.57373 -12.735995
87.54261 -245.48799 -13.111645
87.647949 -245.46796 -13.046157
87.52935 -245.47705 -14.19909
85.711296 -245.45193 -14.385934
85.84008 -245.42157 -14.288906
85.760201 -245.59181 -14.941917
85.802666 -245.40443 -14.990703
82.95652 -245.50755 -15.290777
85.956055 -245.44672 -15.348565
83.033249 -245.50998 -15.528656
88.127579 -245.46259 -15.965815
87.404465 -245.49036 -16.077255
87.445511 -245.52592 -17.060247
80.311813 -245.29361 -5.1289759
80.950851 -245.26758 -5.0704441
81.032242 -245.30649 -5.1308742
86.818321 -245.21375 -5.0890141
92.979538 -245.38368 -5.0540252
95.769348 -245.2717 -5.0315142
97.882019 -245.37267 -5.088829
99.380081 -245.26898 -5.0627799
99.46283 -245.3584 -5.0042229
85.875 -245.37622 -14.240719
91.243484 -245.3028 -14.313412
85.925919 -245.32529 -14.642532
86.031677 -245.29082 -15.098332
85.890396 -245.29314 -15.276559
86.132607 -245.37463 -15.470507
87.419083 -245.32712 -15.939357
87.705055 -245.37991 -16.330917
93.2267 -245.20163 -16.559746
87.73922 -245.28583 -16.60984
81.912209 -245.08142 -5.111659
82.556305 -245.1012 -5.1298728
82.96624 -245.00446 -5.1210818
86.213806 -245.02359 -5.1126199
86.511307 -245.02896 -5.0660958
88.084869 -245.13841 -5.0779772
89.796051 -245.03653 -5.045095
91.025116 -245.09981 -5.0246181
91.276749 -245.00464 -5.0404968
96.520752 -245.00334 -5.0507622
96.905937 -245.04886 -5.0654011
97.808342 -245.16548 -5.106051
98.642776 -245.07373 -5.0348582
86.07386 -245.15048 -13.483488
85.842773 -245.10095 -13.750154
85.743095 -245.12994 -13.848024
85.554413 -245.02081 -14.156917
85.718277 -245.08737 -14.298057
85.784248 -245.07794 -14.615692
85.777939 -245.07014 -14.96553
85.891953 -245.09741 -15.039058
86.118439 -245.14507 -15.3318
86.206841 -245.00548 -15.286343
86.226135 -245.06903 -15.431034
87.71315 -245.04758 -15.928685
87.310974 -245.02742 -16.140968
87.843178 -245.06514 -16.283276
87.766068 -245.14671 -16.563538
94.349815 -244.80247 -4.960999
80.579918 -244.96782 -5.1414208
86.26561 -244.88423 -5.0660009
87.825996 -244.89604 -5.049325
89.126839 -244.99292 -5.0932279
92.472382 -244.8692 -5.0545731
92.727211 -244.9552 -5.062387
93.698395 -244.88509 -5.0304341
99.338058 -244.91287 -5.0017509
86.12249 -244.9948 -13.498666
86.064232 -244.9416 -13.691194
85.677277 -244.99567 -13.956934
86.06411 -244.85135 -14.236204
86.097137 -244.93011 -14.625389
86.124222 -244.89456 -15.043278
87.825829 -244.90236 -15.575543
93.305382 -244.812 -15.765507
93.724846 -244.99437 -15.779999
88.044708 -244.84421 -15.958786
94.787193 -244.68228 -4.9900341
84.666962 -244.63094 -5.1010079
86.570267 -244.69489 -5.10115
86.908188 -244.60945 -5.0760889
89.045151 -244.61337 -5.0865989
91.318604 -244.61964 -5.0519042
96.075676 -244.62959 -5.0480399
86.230057 -244.63641 -13.721245
86.057159 -244.65741 -14.548
86.150635 -244.69324 -14.616331
86.14856 -244.64465 -14.956182
86.089203 -244.68269 -15.108431
87.714203 -244.61711 -15.911337
93.356384 -244.66042 -15.844334
87.745468 -244.69775 -16.08996
93.369812 -244.68015 -16.102028
91.839081 -244.57776 -5.0182762
93.785721 -244.58798 -5.0226688
99.833344 -244.55719 -5.9672852
98.621971 -244.51126 -6.0181131
96.386391 -244.42719 -6.5658011
99.798782 -244.52188 -6.5920129
96.672493 -244.45003 -6.6404309
97.059662 -244.43375 -6.6538482
86.09317 -244.42441 -13.71624
86.221054 -244.58611 -13.751223
85.96228 -244.54214 -14.257442
86.08844 -244.59468 -14.200837
88.173439 -244.51489 -15.299309
88.423721 -244.41103 -15.4268
88.247398 -244.49136 -15.691967
94.220833 -244.22479 -4.964107
99.530762 -244.29465 -4.9554062
81.438004 -244.26624 -5.10533
81.812531 -244.25311 -5.1319461
85.385681 -244.21393 -5.087647
85.788834 -244.21179 -5.0891271
86.967979 -244.21445 -5.0588531
88.183334 -244.22995 -5.0627198
90.588654 -244.20496 -5.0524802
92.54673 -244.37363 -5.0007048
95.800247 -244.20612 -5.0001602
96.264946 -244.25006 -5.0178461
98.760033 -244.28502 -5.0295091
91.400322 -244.25604 -6.655427
92.424232 -244.29776 -6.621882
86.226433 -244.32407 -13.681147
88.544495 -244.2962 -15.326252
93.818802 -244.3687 -15.866777
93.416504 -244.19054 -4.9988132
80.166199 -244.17337 -5.1028318
80.930573 -244.12363 -5.1224332
83.886696 -244.12845 -5.1058621
85.950142 -244.12599 -5.0404639
88.524193 -244.15421 -5.059494
91.29921 -244.15758 -5.0251222
94.243912 -244.15549 -5.0112691
97.826668 -244.17036 -5.0262151
98.383728 -244.19092 -5.0408902
80.970848 -243.86485 -5.0647998
84.585663 -243.84824 -5.056612
86.166046 -243.81143 -5.029778
86.941513 -243.81676 -5.034174
87.536743 -243.88019 -5.0354762
88.18425 -243.82803 -5.0398421
90.134735 -243.84006 -5.0280452
83.050377 -243.82498 -6.0417891
84.103317 -243.89044 -6.02914
89.403793 -243.78052 -4.9889789
90.945511 -243.7977 -4.974875
94.234253 -243.68175 -4.8873429
96.913048 -243.76219 -4.980968
98.921555 -243.72641 -4.9564562
80.894897 -243.74309 -5.0922718
83.37468 -243.76791 -5.0700908
83.879097 -243.7274 -5.0863609
87.896545 -243.74576 -5.0359402
83.062775 -243.78299 -6.0510349
95.432343 -243.62175 -6.5430012
81.995506 -243.68704 -6.7036781
82.046539 -243.66219 -6.6894498
83.449112 -243.77234 -6.679893
89.829201 -243.48822 -4.991673
90.554619 -243.4366 -4.9522009
92.722061 -243.41019 -4.971499
98.55262 -243.44789 -4.963119
86.652954 -243.45387 -5.0169592
95.408173 -243.59421 -6.5795879
89.84948 -243.40366 -6.6977358
89.35701 -243.3651 -4.9626179
91.461472 -243.379 -4.955956
93.714272 -243.33698 -4.9337749
94.445068 -243.21994 -4.9519968
94.632164 -243.3718 -4.9186382
96.290916 -243.32181 -4.955317
97.714661 -243.35724 -4.9497018
98.253326 -243.39723 -4.928916
98.68293 -243.29208 -4.9774871
99.744156 -243.35809 -4.9086032
80.087379 -243.39032 -5.055892
81.630753 -243.3932 -5.0931692
85.812126 -243.01961 -4.9869862
86.583755 -243.00204 -4.9892979
89.824654 -243.07312 -4.9831409
81.281723 -243.00607 -5.037817
83.071327 -243.01619 -5.0372362
84.473862 -243.10388 -5.014328
84.444351 -243.08897 -6.628099
85.522476 -243.18703 -6.610374
87.075684 -242.96375 -4.983634
92.995575 -242.94958 -4.9013662
95.489395 -242.9097 -4.8861809
98.093651 -242.88455 -4.8924689
80.117401 -242.98792 -5.0624981
85.841957 -242.95593 -5.0216408
86.725731 -242.89247 -5.0099678
87.385963 -242.69852 -4.9353681
89.742584 -242.63693 -4.9372678
91.693184 -242.6557 -4.8991032
93.45253 -242.64444 -4.8868608
94.608894 -242.64078 -4.8589458
96.323807 -242.64825 -4.8880148
99.951721 -242.69035 -4.8481722
80.124039 -242.68613 -5.0278459
84.736435 -242.74194 -5.002387
91.493256 -242.54338 -4.8821278
92.114006 -242.49039 -4.9068661
98.173386 -242.51851 -4.87955
98.614731 -242.5455 -4.871695
83.780769 -242.51929 -5.0212331
95.329811 -242.39804 -4.7887592
82.943008 -242.22365 -4.9787531
85.742134 -242.20386 -4.9441919
86.27092 -242.23492 -4.9626598
86.533936 -242.23405 -4.941308
95.439545 -242.28102 -4.8186879
96.690735 -242.25517 -4.895308
96.943604 -242.28741 -4.9007311
97.297043 -242.30078 -4.8593559
97.823555 -242.26476 -4.877666
98.077759 -242.25604 -4.8875132
98.431229 -242.36642 -4.881958
85.360092 -242.2536 -5.004324
99.938087 -242.25024 -6.9216061
99.92276 -242.2933 -7.4636502
85.526268 -242.16238 -4.9515252
85.65625 -242.10571 -4.9182968
86.934387 -242.1701 -4.9356432
88.127609 -242.12759 -4.9233069
90.921738 -242.16565 -4.9094391
92.964111 -242.01906 -4.874342
93.715805 -242.07602 -4.8713331
94.518341 -242.05222 -4.9638109
95.051102 -242.063 -4.9310369
98.946396 -242.11412 -4.869761
99.431175 -242.1478 -4.9934611
99.913712 -242.13907 -4.9661932
83.464172 -242.14891 -5.000946
93.303886 -242.00211 -5.0320349
93.513443 -242.00958 -5.0304198
94.914001 -242.06973 -5.0178938
95.848244 -242.09317 -5.022428
96.303726 -242.1123 -5.0162349
96.478333 -242.11646 -5.011477
99.870575 -242.15732 -7.5049772
81.700943 -241.85051 -4.9886508
82.883347 -241.86832 -4.968092
86.280838 -241.82724 -4.9437518
87.060104 -241.87674 -4.9096661
88.66777 -241.83504 -4.9336271
89.551178 -241.8611 -4.9174852
91.056931 -241.90604 -4.9609232
91.305672 -241.89853 -4.9364982
91.704697 -241.92474 -4.9393611
98.19899 -241.83084 -4.8551521
99.865906 -241.85895 -4.9606619
88.879501 -241.81342 -5.0900612
89.555298 -241.84 -5.0623288
90.134377 -241.86089 -5.0567722
91.309555 -241.91844 -5.053916
91.700989 -241.923 -5.0298128
92.6716 -241.90192 -5.02775
93.100349 -241.96011 -5.036839
94.727295 -241.98096 -5.0032411
99.79126 -241.83546 -6.2925658
99.876129 -241.8259 -6.456624
99.793877 -241.86172 -6.6850739
99.877304 -241.88263 -6.8994122
84.738098 -241.66031 -4.9755111
86.874542 -241.76041 -4.9424248
87.88385 -241.77707 -4.9601789
88.659859 -241.77194 -4.9636192
93.844482 -241.78174 -4.994637
97.000465 -241.76614 -4.931499
99.737488 -241.728 -4.982615
82.342377 -241.79431 -5.0075021
84.124702 -241.62073 -5.0769529
84.516602 -241.64557 -5.0634179
85.145576 -241.64075 -5.0904989
85.273849 -241.64899 -5.0887008
85.651665 -241.68369 -5.0850668
86.296158 -241.6857 -5.0609078
86.960693 -241.74588 -5.08355
89.389755 -241.65198 -5.0436101
90.846649 -241.73969 -5.038466
91.477058 -241.78224 -5.05478
99.883156 -241.72498 -5.095849
99.928421 -241.79697 -6.2961531
99.905571 -241.74696 -6.7132268
99.860748 -241.69153 -7.0312648
80.967773 -241.5235 -4.9992561
81.720505 -241.54025 -4.983551
82.067322 -241.54831 -4.9795532
80.277298 -241.44951 -5.1274109
82.966797 -241.55249 -5.1180091
87.062668 -241.45822 -5.0529389
90.573898 -241.49344 -5.0103378
99.922356 -241.52261 -6.7504249
99.912666 -241.53204 -6.918221
80.575882 -241.48758 -8.7536659
91.796165 -241.34216 -4.985642
98.735687 -241.34109 -4.8280392
99.163368 -241.28206 -4.93154
99.691948 -241.29543 -4.9579058
88.911377 -241.39285 -5.047256
90.360657 -241.34335 -5.0085301
92.300705 -241.2545 -5.0170588
80.835358 -241.23183 -7.1722212
80.718048 -241.27489 -7.6434069
93.034088 -241.18405 -4.9966741
95.854622 -241.04457 -4.9670219
97.270126 -241.00218 -4.8270488
99.53373 -241.00082 -4.9491301
80.043655 -241.0217 -5.1168571
80.632034 -241.07706 -5.145349
85.336502 -241.08632 -5.064652
92.561134 -241.0849 -5.0117059
94.29364 -241.03763 -5.01053
80.561691 -241.05713 -5.3242021
80.62558 -241.07695 -5.2509089
80.632561 -241.11176 -5.4782619
80.678055 -241.08856 -5.7123809
80.580742 -241.06512 -5.9203711
80.803947 -241.06621 -6.3100858
80.572861 -241.05069 -6.701221
80.814545 -241.07318 -6.6608181
80.845657 -241.06982 -7.6585522
80.692955 -241.00671 -7.874238
80.715248 -241.01889 -8.1042042
94.166039 -240.88536 -4.992218
96.160217 -240.96159 -4.9495292
96.531258 -240.97925 -4.9435701
83.693878 -240.89697 -5.0945611
83.834259 -240.91827 -5.1007509
84.574883 -240.99947 -5.0561528
85.888855 -240.853 -5.061646
87.898727 -240.9258 -5.0354338
92.129456 -240.82196 -5.0343709
92.304382 -240.94693 -5.011415
80.775246 -240.83333 -7.4508781
80.818039 -240.90912 -7.5196838
80.631195 -240.99538 -8.2585258
90.595909 -240.63062 -4.9878879
95.837631 -240.68933 -4.937757
81.063469 -240.60945 -5.1001921
91.812416 -240.65439 -5.0089211
80.754448 -240.76395 -7.3516431
80.829185 -240.7599 -7.4823942
91.380264 -240.689 -10.158131
89.444649 -240.50093 -4.9959359
94.3274 -240.46704 -4.971869
81.311607 -240.51276 -5.0930901
84.211266 -240.55156 -5.0490389
83.129959 -240.47964 -9.999711
91.189873 -240.45197 -9.9502716
93.724243 -240.47595 -10.196369
91.066292 -240.56818 -10.225403
94.469894 -240.44888 -10.716608
91.351273 -240.50243 -11.019793
80.558327 -240.46843 -12.700377
80.148827 -240.52824 -13.706561
98.547943 -240.27855 -4.7595458
96.516861 -240.27333 -4.9275098
80.913261 -240.27023 -5.0824838
81.792847 -240.22896 -5.0745668
84.998337 -240.20334 -5.0490189
86.287674 -240.30107 -5.041317
87.340408 -240.26482 -5.0196381
89.319626 -240.29807 -5.0057621
91.348724 -240.30884 -9.7871008
92.823959 -240.35414 -9.9810009
83.265373 -240.22751 -10.110859
91.717636 -240.29227 -10.182073
93.513474 -240.39729 -10.007176
92.876648 -240.27209 -10.208835
94.348083 -240.39709 -10.548004
94.298126 -240.2215 -10.664673
91.296509 -240.31494 -10.933926
80.310013 -240.21594 -13.756314
94.619804 -240.19713 -4.935966
96.97934 -240.08357 -4.88553
97.476112 -240.12418 -4.8298149
80.230034 -240.0643 -5.0756931
80.61953 -240.19131 -5.0923071
83.833214 -240.12224 -5.043983
85.926331 -240.17143 -5.0277219
91.000877 -240.06877 -5.0312729
82.031494 -240.11349 -9.7291956
92.527168 -240.19501 -9.9421997
94.485977 -240.13417 -9.9619713
82.974007 -240.15314 -10.151881
94.193497 -240.08743 -10.176741
91.120941 -240.11761 -10.468675
92.187454 -240.08514 -11.306745
80.278648 -240.00717 -11.882797
92.327568 -240.02823 -12.586813
81.139107 -240.03201 -12.774595
93.230545 -240.14386 -13.029032
82.038368 -259.90283 -5.993053
87.870972 -259.84229 -5.908442
89.493393 -259.89496 -5.8783879
92.46846 -259.811 -5.8411512
92.954674 -259.88885 -5.8316889
81.442795 -259.85706 -18.208895
80.819527 -259.93204 -19.30839
85.210587 -259.87167 -21.01482
84.649048 -259.74225 -5.9698281
85.041885 -259.79962 -5.9733682
86.222549 -259.73456 -5.9130182
93.275757 -259.78241 -5.842432
94.791252 -259.79727 -5.8162498
97.137657 -259.75848 -5.8651352
98.505424 -259.70602 -5.8656621
83.768555 -259.74042 -6.0000329
98.893997 -259.66837 -6.0693521
99.423805 -259.70065 -6.186337
99.393494 -259.73236 -6.3195519
99.110062 -259.64786 -6.4318399
80.627197 -259.75989 -18.316519
80.56575 -259.64896 -18.962006
82.446182 -259.77368 -20.459766
82.039429 -259.45642 -5.9894972
83.877892 -259.40894 -5.9257522
89.981384 -259.42746 -5.8999629
90.051994 -259.4436 -5.8550072
90.588432 -259.42145 -5.85291
91.362587 -259.47473 -5.8545542
94.491684 -259.44147 -5.8399081
95.078331 -259.42517 -5.806376
96.120872 -259.46417 -5.914927
98.547737 -259.49939 -5.8504939
99.726746 -259.51523 -5.9240518
98.951355 -259.47513 -6.2676978
99.103638 -259.45157 -6.306273
90.669357 -259.40182 -12.920782
83.722221 -259.52887 -20.396175
86.986969 -259.27866 -5.9115648
89.798553 -259.28522 -5.8749042
98.134476 -259.39838 -5.8417349
80.640221 -259.3548 -6.021687
95.393051 -259.21793 -6.2829242
99.03363 -259.27246 -6.314425
91.325882 -259.29788 -11.792229
91.420189 -259.34802 -11.74712
91.440186 -259.37088 -12.138555
82.73262 -259.38052 -18.582788
80.652466 -259.28229 -19.04018
87.746254 -259.09045 -5.9051218
88.621239 -259.01587 -5.8927722
88.974419 -259.12207 -5.896596
90.574089 -259.09973 -5.8559251
96.852188 -259.04178 -5.8125591
95.28862 -259.09875 -6.3182201
95.471901 -259.10141 -6.35814
95.525803 -259.13522 -6.4391031
89.465561 -259.03552 -11.547613
90.505241 -259.10034 -13.085938
90.461861 -259.11349 -13.208118
80.671722 -259.16937 -18.900358
97.828827 -258.93512 -5.7881441
81.116989 -258.94589 -5.9974728
84.279587 -258.97321 -5.9527721
86.205101 -258.95001 -5.9211602
86.922775 -258.91437 -5.9288859
87.335907 -258.86435 -5.9171772
80.543381 -258.96539 -6.0276699
90.64653 -258.99063 -12.215528
82.998688 -258.99506 -18.720966
80.805984 -258.95654 -18.905233
83.747864 -258.71307 -5.9499321
85.779114 -258.60056 -5.9236741
87.522224 -258.69153 -5.9058261
91.431625 -258.62726 -5.8396602
95.89119 -258.62366 -5.9031439
98.552086 -258.64114 -5.8130212
81.535576 -258.66165 -6.0136242
82.095993 -258.64493 -6.0234141
90.520897 -258.72211 -10.924566
83.17601 -258.7858 -18.726391
80.70134 -258.63794 -18.977936
87.032166 -258.53094 -5.9064741
89.205215 -258.54572 -5.8600898
92.603516 -258.59766 -5.8151731
93.324646 -258.51874 -5.8220549
81.494339 -258.48657 -6.0014219
81.934265 -258.50363 -6.0117779
90.330032 -258.58167 -10.925255
89.679588 -258.5864 -11.514217
96.535706 -258.20749 -5.7884302
81.061043 -258.32947 -5.9953728
83.743767 -258.29962 -5.9474411
86.283539 -258.21408 -5.9185281
87.445297 -258.3197 -5.893599
90.133362 -258.28003 -5.844161
80.815666 -258.38736 -6.0092111
90.975342 -258.2659 -11.747692
89.947968 -258.20279 -11.953169
84.266304 -258.07297 -5.9441652
84.66449 -258.1109 -5.9295149
88.177139 -258.05273 -5.8630562
92.965111 -258.10208 -5.8223271
81.823669 -258.18454 -6.0232062
98.796799 -258.15045 -6.447041
93.009224 -258.15417 -12.407151
81.625 -258.03818 -17.907438
81.629822 -258.13959 -18.046692
92.472206 -257.85095 -5.790957
94.737068 -257.90656 -5.7900681
98.136993 -257.91077 -5.763598
84.668022 -257.86215 -5.926641
88.233231 -257.89536 -5.8551698
88.619568 -257.9248 -5.8779058
89.795158 -257.89984 -5.8436599
98.627205 -257.83325 -5.8801799
99.066711 -257.97879 -6.5872612
93.533775 -257.90799 -10.61377
94.326347 -257.82343 -11.050455
83.540817 -257.86612 -18.102489
83.960709 -257.96396 -18.767069
80.426788 -257.8074 -18.900095
82.404449 -257.89243 -19.669552
91.869797 -257.78564 -5.8125601
92.693001 -257.68909 -5.8034692
92.153816 -257.74188 -12.147423
80.77433 -257.763 -17.543682
81.481201 -257.79565 -18.177513
80.55938 -257.75275 -19.348713
92.641052 -257.44699 -5.784132
95.336906 -257.47446 -5.7855711
85.335762 -257.50696 -5.9222012
87.787827 -257.44745 -5.8478012
88.168793 -257.56976 -5.8298998
88.286209 -257.44977 -5.83356
94.307312 -257.50186 -10.898201
80.730286 -257.4581 -13.518526
80.793274 -257.53302 -17.10733
81.579826 -257.43848 -17.17588
83.700012 -257.42334 -17.377617
80.924255 -257.49518 -17.408199
83.390579 -257.57907 -17.759626
94.138123 -257.39441 -5.7767029
94.544846 -257.30762 -5.7565579
97.026695 -257.37622 -5.783103
83.39151 -257.37457 -5.9360232
85.059677 -257.3251 -5.9148102
99.640556 -257.29153 -5.8833051
99.271576 -257.20923 -6.388957
99.45929 -257.26166 -6.357687
99.654289 -257.31219 -6.2669072
89.339386 -257.22537 -10.651397
80.748779 -257.37668 -13.681535
82.617813 -257.30853 -13.633732
83.344307 -257.32211 -17.52883
80.709122 -257.35419 -19.423996
95.075623 -257.12326 -5.757638
97.157967 -257.13223 -5.7752552
83.598907 -257.17392 -5.9406371
83.806473 -257.1875 -5.930872
85.469139 -257.00351 -5.8838458
88.04509 -257.11551 -5.871407
98.849266 -257.19131 -5.8621202
89.339691 -257.1098 -10.564238
94.086334 -257.08493 -10.453495
89.364639 -257.10349 -10.841314
87.780693 -257.02475 -12.809496
83.345802 -257.06909 -17.385399
80.129654 -257.1528 -18.811172
80.671967 -257.18933 -19.392292
94.923195 -256.91394 -5.7758651
97.98481 -256.85724 -5.7183719
86.96463 -256.95197 -5.8441048
89.404366 -256.99329 -5.8224592
92.037155 -256.98743 -5.8194389
99.121971 -256.92361 -6.0707889
90.045998 -256.90625 -9.5042419
90.212646 -256.95947 -10.566883
92.138184 -256.92944 -10.871005
95.057709 -256.8313 -11.942032
88.93486 -256.98059 -12.121704
87.529289 -256.80539 -12.765568
83.93309 -256.97357 -15.154217
83.154831 -256.81381 -17.15984
81.56015 -256.97421 -18.352192
91.295593 -256.77841 -5.786346
91.881866 -256.69153 -5.7534199
92.159439 -256.70615 -5.7777462
92.544235 -256.62378 -5.764605
95.13224 -256.67307 -5.7843719
95.298363 -256.64328 -5.7284451
87.754944 -256.61035 -5.8244529
95.483994 -256.63416 -6.2244458
89.308006 -256.66364 -9.5649586
89.795609 -256.66571 -9.552352
89.475929 -256.64349 -9.7922964
94.44072 -256.76367 -10.37792
89.734062 -256.65167 -10.475651
92.065079 -256.77771 -10.513115
87.812027 -256.63083 -11.14945
87.866623 -256.6843 -11.286263
82.994965 -256.66763 -17.259037
90.946075 -256.52744 -5.7637572
95.399887 -256.55466 -5.7822118
85.044991 -256.50128 -5.8831878
89.706299 -256.51727 -5.8136668
95.472092 -256.50607 -6.1232009
89.78006 -256.59494 -9.6445065
94.066902 -256.59052 -10.14757
90.181137 -256.55164 -10.840269
87.942535 -256.57648 -12.723719
87.257919 -256.24078 -5.7907958
93.030411 -256.21234 -5.740293
93.370766 -256.28378 -5.7603869
94.825256 -256.30334 -5.7496858
96.997566 -256.24228 -5.7247982
98.658699 -256.25348 -5.7607641
87.349472 -256.24625 -5.8208151
89.788803 -256.2002 -5.8091121
99.13765 -256.29913 -6.0893192
91.22937 -256.3725 -9.7018204
89.705521 -256.30365 -10.186338
89.840256 -256.28094 -10.602153
88.154617 -256.30457 -11.317007
88.992393 -256.203 -11.270018
94.679787 -256.34009 -13.238712
94.071198 -256.15457 -5.759995
95.423111 -256.16412 -5.7116852
97.793953 -256.19598 -5.7262859
83.01503 -256.16803 -5.90272
87.01239 -256.08896 -5.8323479
80.3405 -256.03165 -6.3185959
93.565102 -256.14893 -10.063933
89.864113 -256.05377 -10.853868
92.245041 -256.05396 -11.357426
89.185577 -256.12958 -13.733489
89.951927 -256.09772 -14.991425
94.264236 -255.80391 -5.7473459
96.999184 -255.85156 -5.7139831
98.664505 -255.87854 -5.7248349
88.920776 -255.8147 -9.7455101
93.758652 -255.83293 -9.7049065
89.11174 -255.89645 -10.140591
89.959175 -255.8024 -10.176914
87.247131 -255.63943 -5.7804031
91.782524 -255.75919 -5.7443562
92.568359 -255.63579 -5.75249
95.903435 -255.79297 -5.736135
85.319878 -255.73013 -5.8505702
86.964355 -255.7925 -5.812223
88.655128 -255.68025 -5.8277721
89.195404 -255.7162 -5.8225298
98.683823 -255.77708 -5.8496351
81.774231 -255.79648 -6.1381211
90.31813 -255.60403 -6.049715
80.955551 -255.74554 -6.3228712
91.781525 -255.76567 -9.0807505
93.457306 -255.70068 -9.432333
88.967346 -255.73795 -9.7315407
89.417809 -255.74081 -9.9247532
89.930161 -255.67188 -9.8151016
90.001945 -255.69048 -9.947794
91.071205 -255.64288 -9.9582233
88.772415 -255.67047 -10.165319
88.93042 -255.66605 -11.775106
88.238274 -255.45103 -5.7741051
89.760056 -255.5426 -5.7360549
90.417709 -255.46017 -5.7296009
91.000031 -255.45691 -5.7482891
91.97274 -255.53336 -5.7648382
94.71537 -255.42009 -5.6928382
80.787811 -255.40312 -6.2922721
81.272522 -255.48669 -6.2659822
90.449303 -255.50339 -6.3592839
89.433632 -255.4991 -10.168328
87.845367 -255.46834 -11.774287
87.848999 -255.59198 -12.498701
89.741653 -255.31868 -5.7725339
94.277161 -255.38098 -5.728364
82.659042 -255.29486 -5.9045048
83.057426 -255.37439 -5.867486
86.99688 -255.38113 -5.8074999
95.97831 -255.37341 -5.8660522
98.907021 -255.38153 -5.8042622
91.423386 -255.31531 -8.7152367
93.267746 -255.29437 -8.9747238
92.076706 -255.33777 -10.509725
87.923401 -255.25256 -10.639204
88.945587 -255.39569 -10.95542
94.758583 -255.2093 -12.790717
86.694839 -255.07834 -5.799067
95.820816 -255.04324 -5.6956358
99.474876 -255.04543 -5.742362
86.608521 -255.12164 -5.8070779
86.988876 -255.11447 -5.821435
96.278702 -255.0983 -5.852859
99.002304 -255.04259 -5.810216
81.330246 -255.03395 -6.313241
99.67926 -255.05878 -6.30373
86.761215 -255.09686 -11.66136
94.482391 -255.10265 -11.613667
89.798157 -255.0825 -14.119965
90.31015 -255.03708 -14.028627
86.246796 -254.91293 -5.7911472
88.976624 -254.8959 -5.7544789
