# .PCD v0.7 - Point Cloud Data file format
VERSION 0.7
FIELDS x y z
SIZE 4 4 4
TYPE F F F
COUNT 1 1 1
WIDTH 1516
HEIGHT 1
VIEWPOINT 0 0 0 1 0 0 0
POINTS 1516
DATA ascii
91.708031 -230.9682 -9.8121691
84.040504 -230.83858 -10.63977
89.947372 -230.9782 -10.61055
92.133331 -230.9617 -10.610975
92.704529 -230.8584 -10.622166
89.733673 -230.99881 -10.960043
92.906937 -230.99985 -11.039045
92.548141 -230.95941 -11.646051
86.242279 -230.82132 -12.466003
88.8937 -230.80244 -12.915461
84.88485 -230.96214 -13.334592
90.797531 -230.87019 -14.137102
87.207466 -230.96722 -15.715627
91.026207 -230.81142 -15.840694
92.834106 -230.77998 -4.3967452
98.210342 -230.68233 -4.287652
85.793762 -230.61295 -4.5979738
86.688919 -230.67593 -4.5119262
92.328407 -230.67517 -4.41254
92.589523 -230.68584 -4.4291801
93.264595 -230.62224 -4.4298992
80.179039 -230.73517 -4.7420921
80.28289 -230.66571 -4.7415409
85.668747 -230.63431 -4.6579099
86.221069 -230.66154 -4.6121101
91.01828 -230.68845 -6.5558901
91.09333 -230.6507 -6.6610761
91.314041 -230.7054 -6.6983008
91.619522 -230.61604 -6.8501081
84.511169 -230.70508 -7.175724
84.365326 -230.75346 -7.2815471
84.523239 -230.66522 -7.3280449
90.457581 -230.75497 -7.2721581
90.940445 -230.68317 -7.320086
90.697678 -230.74739 -7.4234848
87.555702 -230.666 -7.9455161
87.162178 -230.62267 -8.1299191
87.339249 -230.6846 -8.0591602
87.701263 -230.72321 -8.1028175
86.016449 -230.67316 -8.6923809
86.509796 -230.69066 -8.6649055
91.09137 -230.70282 -8.6199322
86.628067 -230.66132 -8.9260139
89.969017 -230.69771 -9.0839701
91.286987 -230.6248 -9.0286293
92.334274 -230.63158 -9.176302
90.074677 -230.6084 -9.394165
92.309113 -230.6411 -9.279129
86.72036 -230.65622 -9.4476871
91.763397 -230.65694 -9.479845
89.492493 -230.62112 -9.7959099
80.41996 -230.60822 -10.055723
93.58345 -230.76952 -10.712088
89.14592 -230.75024 -10.947615
91.968872 -230.72209 -10.971863
92.599258 -230.76279 -11.043414
81.097824 -230.71046 -11.278103
92.488632 -230.63747 -11.372222
92.284973 -230.65088 -11.442751
85.365158 -230.63144 -13.435496
89.402847 -230.77539 -14.263105
80.26368 -230.62714 -14.60296
90.272186 -230.42664 -4.3990312
95.930336 -230.54338 -4.300951
96.273598 -230.5235 -4.3060131
99.867416 -230.44022 -4.259068
86.899078 -230.51463 -4.4712958
88.249184 -230.56534 -4.4779959
90.539581 -230.5016 -4.4105229
90.840202 -230.46619 -4.4062982
91.040909 -230.41927 -4.4081411
81.706772 -230.58202 -4.6304011
91.02549 -230.46579 -6.1219029
91.271713 -230.4745 -6.0259781
90.92498 -230.58423 -6.5871658
90.540329 -230.51357 -7.0003738
90.935303 -230.40381 -7.065022
91.755661 -230.42883 -7.9506779
92.489456 -230.54459 -7.9563332
84.661743 -230.47873 -8.088769
89.576012 -230.55994 -8.2206841
89.847839 -230.52243 -8.4695435
86.390038 -230.55524 -8.7166901
85.909653 -230.55298 -8.8369656
89.935242 -230.52243 -9.3438625
90.752312 -230.42421 -9.4066782
87.242455 -230.51967 -9.8427353
92.244576 -230.57074 -10.753192
93.733871 -230.54204 -10.931909
83.823654 -230.42621 -11.5482
89.236694 -230.40845 -11.598125
92.116394 -230.52682 -11.746274
85.959358 -230.45538 -12.297638
86.16523 -230.58476 -12.368469
88.514107 -230.56607 -13.170967
80.454994 -230.50278 -14.107279
80.50882 -230.53633 -14.419155
81.045105 -230.47662 -14.536339
89.324615 -230.55862 -14.46373
83.724564 -230.4162 -15.128102
91.729691 -230.539 -15.570267
88.675545 -230.40642 -15.629494
86.85556 -230.28754 -4.552876
80.3274 -230.22504 -4.7311349
80.877388 -230.3152 -4.698071
81.561081 -230.2359 -4.6625609
85.054108 -230.25124 -4.6228008
91.374893 -230.23425 -6.6688719
90.863235 -230.38751 -7.0458131
87.524414 -230.27634 -7.5731392
90.246574 -230.35666 -7.5201092
91.113457 -230.30499 -7.4151568
84.569122 -230.25177 -7.720458
83.948509 -230.23712 -7.9373741
84.189499 -230.22993 -7.8650951
84.214523 -230.28783 -7.87323
91.87027 -230.2599 -7.9101119
92.188522 -230.30667 -7.9204202
89.919922 -230.37802 -8.1572361
90.136497 -230.37054 -8.5875969
89.297623 -230.22501 -8.9797344
86.714676 -230.256 -9.3156433
89.698425 -230.34775 -9.3568764
89.342529 -230.25526 -9.5791769
93.115311 -230.27472 -9.4633503
89.409973 -230.26622 -10.161122
88.353729 -230.33926 -10.640331
93.730515 -230.28229 -10.829126
83.922897 -230.24603 -11.555975
88.257263 -230.38171 -11.481558
89.222916 -230.32945 -11.419369
92.37149 -230.39172 -11.497545
85.480537 -230.2849 -13.357038
88.08577 -230.2691 -13.736371
90.118065 -230.23889 -13.733707
80.65741 -230.26376 -14.447006
83.493011 -230.24265 -14.901722
91.590439 -230.33289 -16.36108
90.153152 -230.18112 -4.3959541
93.653534 -230.05299 -4.3283768
96.162354 -230.13956 -4.2944551
88.297356 -230.1286 -4.4496808
90.17672 -230.05002 -4.4007778
80.936386 -230.14085 -4.6618552
85.481956 -230.05487 -4.7288122
86.662094 -230.10446 -4.6602359
98.349518 -230.00891 -5.2416158
98.559181 -230.03522 -5.3665662
98.572609 -230.06036 -5.5939341
91.009445 -230.10394 -6.6029091
91.523972 -230.12897 -7.492979
91.735435 -230.13889 -7.4884958
91.869743 -230.11331 -7.453187
81.933205 -230.02928 -7.8131628
91.294861 -230.13957 -7.86308
87.236198 -230.10762 -8.2942142
92.214523 -230.00906 -8.3692589
86.565964 -230.18048 -8.5002842
86.921768 -230.14056 -8.5289021
93.380753 -230.12936 -8.9448051
83.361206 -230.02895 -9.219368
92.806145 -230.02213 -9.2158442
92.241661 -230.14429 -9.9137144
91.378845 -230.02344 -10.476488
84.501373 -230.00468 -11.047579
91.243004 -230.12096 -11.009451
94.326637 -230.16022 -11.138538
84.497864 -230.13547 -11.389993
89.157379 -230.19014 -11.435183
87.709457 -230.09093 -11.619205
84.730431 -230.16069 -12.040026
92.410408 -230.13078 -13.326584
85.691093 -230.09148 -13.58095
91.025688 -229.87968 -4.3694658
87.115875 -229.86757 -4.4875731
87.713615 -229.81134 -4.4882979
89.063141 -229.90903 -4.402247
80.583984 -229.91144 -4.674449
85.29686 -229.97041 -4.6998129
86.042183 -229.83116 -4.7268262
99.059677 -229.85413 -5.4970832
98.505455 -229.87036 -5.6937842
97.315987 -229.86389 -5.829833
98.627151 -229.83295 -5.9047661
97.574799 -229.83481 -6.022337
91.504639 -229.86394 -6.9924278
91.738556 -229.81259 -7.0050068
91.474541 -229.91687 -7.4660349
87.38517 -229.94086 -7.7996988
90.363586 -229.8887 -7.6438522
81.953506 -229.8658 -7.9115748
84.790588 -229.95108 -8.4531946
90.912628 -229.89322 -8.4907446
87.415413 -229.91602 -8.7309732
93.422089 -229.88214 -8.7420273
86.178955 -229.82988 -8.8784647
93.466461 -229.93051 -8.8635044
83.332504 -229.90906 -9.0947361
93.29908 -229.85944 -9.0941076
90.647217 -229.86362 -9.3580074
92.649796 -229.82706 -9.2384987
92.945107 -229.80115 -9.336524
93.227707 -229.98801 -9.4356222
92.297806 -229.88617 -10.060201
89.864311 -229.83707 -10.338357
91.115723 -229.87503 -10.326999
86.946823 -229.84897 -10.577369
91.402786 -229.96274 -10.475956
90.048676 -229.80026 -10.603845
86.617767 -229.83681 -10.990162
85.604507 -229.99088 -11.845654
85.854225 -229.84204 -12.185013
86.111435 -229.8947 -12.234566
93.310852 -229.82144 -13.339865
88.221832 -229.95222 -14.216696
90.135834 -229.74132 -4.3821912
93.79657 -229.77542 -4.324954
94.067078 -229.78114 -4.3307662
96.139206 -229.68411 -4.2931571
82.757301 -229.78183 -4.5421062
97.322121 -229.6618 -4.7858729
86.112785 -229.75302 -5.0810332
86.229767 -229.74673 -5.0574722
86.123657 -229.7272 -5.3256478
86.125381 -229.65552 -5.5544958
97.715111 -229.78842 -5.5039029
97.549118 -229.75751 -5.780694
97.633408 -229.73288 -5.7294431
85.995262 -229.61774 -5.8247099
90.464432 -229.63483 -6.3328261
86.431717 -229.6387 -7.151505
91.143723 -229.72626 -7.0967898
86.32251 -229.65814 -7.4153962
84.612114 -229.74695 -7.8762112
86.339836 -229.68832 -7.849339
92.652824 -229.70193 -7.8999991
84.915741 -229.78581 -8.2019072
90.639259 -229.61313 -8.2251043
91.035408 -229.74216 -8.538271
85.109756 -229.65858 -8.7119017
89.990166 -229.74783 -8.9191618
93.614433 -229.60013 -8.9769735
86.541473 -229.78531 -9.0058165
85.019821 -229.69528 -9.5241842
86.454071 -229.7942 -9.4993477
83.568878 -229.76718 -9.6836576
83.828262 -229.72833 -9.7648258
86.68586 -229.76389 -9.7355232
92.325394 -229.74829 -9.7760468
84.137093 -229.66379 -9.9256229
92.479599 -229.68704 -9.8090172
91.019951 -229.77036 -10.776213
92.275841 -229.75983 -10.95644
90.71225 -229.66879 -11.171245
91.335632 -229.69032 -11.100772
93.496178 -229.69812 -11.011266
87.297424 -229.79453 -11.328577
89.875992 -229.73705 -11.422338
84.883888 -229.6082 -12.078236
88.321854 -229.72131 -12.57776
85.777634 -229.62363 -13.157356
88.096115 -229.76517 -13.113025
85.547897 -229.62778 -13.356474
88.237053 -229.68745 -13.251516
83.315666 -229.70372 -14.737259
92.282669 -229.43648 -4.3261409
95.094681 -229.54567 -4.2756348
84.872696 -229.50905 -4.576633
87.086609 -229.52489 -4.512866
88.312561 -229.51215 -4.4531708
80.290527 -229.50986 -4.7315211
85.888008 -229.50876 -4.9344392
86.473984 -229.50615 -4.9363651
86.612076 -229.41908 -5.032577
86.020592 -229.59416 -5.5539832
98.661293 -229.50433 -5.4767241
98.291214 -229.4261 -5.680737
85.957581 -229.49506 -5.8688178
86.072449 -229.48825 -5.834599
86.538994 -229.43086 -6.066937
98.474442 -229.44124 -6.109283
98.942612 -229.56012 -6.1219869
86.103745 -229.51837 -6.274302
98.072693 -229.48824 -6.2332821
90.363602 -229.40094 -6.7179661
91.64827 -229.48706 -7.3455572
84.784744 -229.44888 -7.5677571
92.671593 -229.48065 -7.7341299
93.098862 -229.41382 -7.8512888
86.740181 -229.55101 -8.1270237
84.378349 -229.55028 -8.3648529
84.839615 -229.51836 -8.2786818
85.394623 -229.45346 -8.2163448
81.441696 -229.42369 -8.589571
83.980865 -229.52647 -8.5294113
90.377815 -229.40897 -8.5848198
81.832741 -229.52756 -8.6144114
83.280441 -229.43559 -8.9620428
90.325195 -229.54008 -8.9296417
91.287666 -229.52338 -8.9051523
90.576607 -229.41585 -9.0534821
86.59671 -229.54247 -9.308136
90.302216 -229.52213 -9.3189545
92.637482 -229.49313 -9.4105129
83.764015 -229.56706 -9.7351723
92.53743 -229.42223 -9.6815672
83.536667 -229.42946 -9.9662991
84.207993 -229.49631 -9.8572063
86.581032 -229.57379 -9.952981
91.726929 -229.4008 -9.8450127
92.120087 -229.44131 -9.8390274
83.856522 -229.50974 -10.040838
84.678513 -229.43784 -10.27622
84.585388 -229.42732 -10.53042
93.794601 -229.51178 -10.703278
84.526093 -229.50647 -10.942461
86.777542 -229.56624 -10.886403
86.822769 -229.57719 -10.855079
91.228485 -229.47693 -11.080203
92.489845 -229.4534 -11.37219
93.099777 -229.40646 -11.7346
85.35202 -229.50212 -11.957806
88.403107 -229.58838 -12.78206
85.249619 -229.43723 -13.572182
88.53405 -229.53465 -13.411187
89.830551 -229.47693 -13.951399
87.91716 -229.3812 -4.3848429
91.504631 -229.26561 -4.3781738
92.272034 -229.21883 -4.335381
93.67601 -229.33759 -4.3308039
95.843597 -229.29333 -4.2629948
96.585541 -229.35518 -4.2773409
99.756729 -229.22021 -4.2066669
83.705276 -229.34991 -4.472003
87.312637 -229.32297 -4.4928441
87.718422 -229.33032 -4.4465089
80.304428 -229.20271 -4.7359972
84.912971 -229.39626 -4.6661801
86.537781 -229.38312 -5.261189
99.661568 -229.2493 -5.4627242
99.042519 -229.29549 -5.6924009
85.944092 -229.38098 -5.8425941
97.290398 -229.32858 -5.9799509
99.323273 -229.32127 -5.830955
99.463348 -229.27689 -5.8332019
97.918648 -229.35907 -6.0799799
99.033142 -229.34668 -6.1005201
86.060211 -229.3447 -6.2071428
86.514999 -229.38963 -6.366168
86.653763 -229.35443 -6.544518
92.068329 -229.21606 -6.4662361
85.602127 -229.26688 -6.7967181
86.501175 -229.32472 -6.6784682
86.829636 -229.27533 -6.9719429
80.293968 -229.28577 -7.0430088
85.680649 -229.33488 -7.118506
85.566147 -229.32524 -7.234097
91.809998 -229.30319 -7.3194442
92.742645 -229.28722 -7.3161268
86.787987 -229.2357 -7.4806519
92.299957 -229.28259 -7.4448318
92.435699 -229.36101 -7.6352801
86.824677 -229.30411 -7.904573
81.461777 -229.39008 -8.5947704
87.293518 -229.2673 -9.026721
92.895477 -229.33955 -9.3684235
84.237946 -229.26215 -9.5483398
83.497528 -229.29382 -9.828845
91.365753 -229.30154 -10.274041
91.83287 -229.24011 -10.90213
91.787292 -229.39493 -11.381722
84.994812 -229.25993 -11.430624
93.586403 -229.27386 -11.740046
91.990372 -229.27441 -12.217821
92.526596 -229.3965 -13.49207
89.818909 -229.25464 -14.836833
89.040115 -229.1051 -4.3900752
95.753746 -229.17516 -4.2390389
97.363487 -229.05013 -4.248889
98.898499 -229.12665 -4.238584
99.272835 -229.1046 -4.3092942
87.126404 -229.1223 -4.5457339
87.750229 -229.01001 -4.485076
98.444206 -229.07382 -5.3654618
97.914833 -229.01981 -5.5089021
99.462662 -229.11917 -5.4751959
86.726578 -229.12975 -5.7975521
97.171509 -229.02045 -5.8524432
98.646629 -229.05223 -5.8990321
98.604347 -229.13449 -6.0259428
98.861031 -229.18779 -6.0945239
99.54319 -229.04074 -6.1692381
99.574173 -229.04852 -6.2001562
99.28891 -229.03717 -6.4797549
86.76783 -229.17952 -6.6934409
86.858597 -229.18205 -6.614646
83.957779 -229.05861 -7.198904
86.900589 -229.13007 -7.374032
90.35659 -229.01611 -7.395328
85.8116 -229.1561 -8.2003298
85.161758 -229.15192 -9.1132412
93.294449 -229.0256 -9.2942963
92.635193 -229.04608 -9.7014837
86.58017 -229.04507 -9.8967819
88.190674 -229.12102 -9.87924
92.677673 -229.00354 -10.098026
90.04303 -229.05991 -10.554457
90.191864 -229.04749 -11.313196
92.27459 -229.00638 -11.548482
80.096863 -229.08429 -11.74137
86.019348 -229.01288 -12.211576
93.481247 -229.06625 -13.45325
92.588058 -229.07097 -13.609754
96.015831 -228.8129 -4.1982379
92.202858 -228.86598 -4.2952638
93.849815 -228.99677 -4.3040829
82.203568 -228.88286 -4.5820432
83.321167 -228.87457 -4.4916949
84.9431 -228.92854 -4.5097961
98.490387 -228.91537 -4.5106521
98.91449 -228.965 -4.4932919
98.691757 -228.97272 -4.7681661
98.614868 -228.89912 -5.0563011
98.098328 -228.99568 -5.676302
97.817978 -228.85637 -6.1232738
91.710999 -228.87143 -6.5892062
91.402962 -228.99611 -7.0188389
90.988602 -228.85852 -7.3994298
89.519066 -228.91963 -7.6982059
92.265289 -228.88364 -7.9568129
86.15934 -228.90944 -8.285655
91.039009 -228.85329 -8.2199688
92.225357 -228.80023 -8.2449493
93.068176 -228.84296 -8.3241062
91.004211 -228.9906 -8.4420366
91.767532 -228.92737 -8.5594082
93.083282 -228.84058 -8.6656437
93.239517 -228.96738 -8.6376648
90.141304 -228.88791 -8.931716
87.902313 -228.92752 -10.073763
90.234116 -228.90845 -10.109459
90.535461 -228.84634 -10.151932
80.046806 -228.90176 -10.799006
88.358078 -228.85292 -10.780673
91.913742 -228.95882 -10.82205
85.359505 -228.93028 -11.956871
93.850868 -228.87257 -13.017917
88.288086 -228.94563 -15.254248
96.822922 -228.62791 -4.1785522
87.513702 -228.78592 -4.3857841
90.13945 -228.73083 -4.350616
98.244522 -228.65067 -4.232069
82.746742 -228.61833 -4.5299201
83.935844 -228.79987 -4.5049868
84.912643 -228.68858 -4.4894171
85.123817 -228.61296 -4.56705
80.891991 -228.65764 -4.6369848
98.405556 -228.77397 -4.7118669
99.521378 -228.60587 -5.3814259
99.364456 -228.7328 -5.9027629
98.540916 -228.64931 -6.2033339
87.410713 -228.64595 -6.5544562
90.986778 -228.70911 -6.5993581
99.400742 -228.75726 -6.4491439
91.755501 -228.79823 -6.7811918
91.437126 -228.64238 -6.9634151
80.095192 -228.79712 -7.1995072
86.456985 -228.74695 -7.1799231
92.551849 -228.6414 -7.1801281
80.922188 -228.64339 -7.3514762
81.078209 -228.70998 -7.319243
86.441788 -228.74826 -7.324688
85.076035 -228.75067 -7.7480779
85.867226 -228.61414 -7.918869
90.216202 -228.72308 -7.836051
90.562515 -228.69284 -7.9113259
93.639023 -228.62863 -8.074173
84.065315 -228.64597 -8.2290688
90.985504 -228.67427 -8.2001057
91.31041 -228.60672 -8.3006477
93.565948 -228.67062 -8.3172913
93.861145 -228.75713 -8.3070335
86.216309 -228.67065 -8.5877867
92.812546 -228.76399 -8.562602
92.866669 -228.72308 -8.6161194
94.431526 -228.69611 -8.7301102
93.350464 -228.60275 -8.9853554
83.708984 -228.68109 -9.4018078
86.659149 -228.74786 -9.6917152
84.257309 -228.77568 -9.8412256
87.423737 -228.68517 -9.8415098
87.416168 -228.6326 -10.183645
92.781387 -228.7229 -10.186865
84.647537 -228.69746 -10.575721
90.315186 -228.73941 -10.508518
91.326645 -228.60124 -10.872314
80.06646 -228.77606 -11.034416
88.224304 -228.60641 -11.052801
84.883049 -228.61981 -11.385664
91.223289 -228.60715 -11.286091
93.461945 -228.63492 -11.43115
93.019882 -228.61295 -13.492537
88.494629 -228.7323 -14.418814
96.565804 -228.50128 -4.2092342
98.694061 -228.5593 -4.290432
80.842209 -228.49518 -4.5924988
82.476768 -228.50606 -4.5503998
83.348083 -228.57216 -4.4952211
85.044479 -228.40146 -4.501811
98.68837 -228.54037 -4.5508628
97.821861 -228.59988 -5.7149978
90.318054 -228.44452 -6.2965298
85.498718 -228.5462 -6.9854431
85.914284 -228.57822 -7.0281892
86.139748 -228.5314 -7.0487728
86.918846 -228.41031 -7.184413
84.790268 -228.53375 -7.2700949
80.051041 -228.54515 -7.4111319
80.732697 -228.49265 -7.470098
85.395981 -228.55743 -7.4425402
87.079391 -228.52081 -7.418324
90.937859 -228.58078 -7.43401
87.827026 -228.47182 -7.975677
92.304077 -228.5491 -7.9382458
87.919876 -228.53326 -8.1257553
83.959793 -228.564 -8.3087273
90.310608 -228.44012 -8.2416821
83.691948 -228.45502 -8.5265846
93.013992 -228.56018 -8.962615
94.262383 -228.5043 -8.8283215
87.771141 -228.49341 -9.1743908
92.752861 -228.56885 -9.033987
93.39949 -228.58273 -9.3930292
83.491226 -228.4648 -9.4725494
87.094864 -228.5311 -9.4703646
84.853073 -228.43098 -9.7120962
87.648697 -228.54115 -9.7621422
84.503006 -228.45767 -10.143554
92.900833 -228.49261 -10.081625
93.190704 -228.42076 -10.081246
91.337189 -228.5674 -10.659682
92.002106 -228.5374 -12.592524
85.500862 -228.51033 -13.044071
87.839531 -228.51172 -14.726242
92.260284 -228.58334 -15.82147
94.278244 -228.27429 -4.2579732
96.211349 -228.23917 -4.2166972
97.563759 -228.22099 -4.2590008
98.106903 -228.32774 -4.2598858
82.55378 -228.29956 -4.5132742
84.611465 -228.29515 -4.474658
87.13459 -228.33066 -4.4535441
88.062958 -228.24167 -4.4258108
97.815506 -228.38672 -5.7721601
99.507584 -228.24449 -5.7324462
99.708221 -228.36769 -5.73561
90.434799 -228.22054 -6.2454228
91.518364 -228.26123 -6.4911928
86.258728 -228.29768 -6.7166581
85.326881 -228.26823 -6.950428
81.119644 -228.30655 -7.4804592
87.354645 -228.25153 -7.4514561
91.171677 -228.23434 -7.752419
86.334122 -228.29079 -8.0875378
87.942917 -228.25885 -8.0446625
82.26474 -228.354 -8.2137718
91.464203 -228.32855 -8.3336582
92.758354 -228.35788 -8.2810936
86.352951 -228.26152 -8.4049873
86.597023 -228.2399 -8.5143023
87.488327 -228.28922 -8.5734596
90.62677 -228.29666 -8.5998735
90.100662 -228.32471 -8.6676168
85.044617 -228.20462 -8.9705648
93.934769 -228.35812 -9.0706558
83.538818 -228.32246 -9.3420353
90.995651 -228.3194 -9.2114668
93.845428 -228.32111 -9.3573055
93.593071 -228.25754 -9.4663954
83.871399 -228.25215 -9.600419
84.181885 -228.22865 -9.7399216
89.22274 -228.28589 -9.8023624
90.754883 -228.29077 -9.9320183
93.102821 -228.24652 -9.8452263
87.325851 -228.28433 -10.237895
90.382645 -228.26514 -10.591235
90.556366 -228.33275 -10.499239
91.566406 -228.23593 -10.476328
88.291794 -228.22919 -11.101014
92.578003 -228.24335 -11.50433
86.107445 -228.29904 -11.632164
87.088272 -228.26122 -12.881308
85.509926 -228.24776 -13.092012
85.646667 -228.34027 -13.065212
92.653557 -228.23784 -13.738979
87.750679 -228.00143 -4.392067
88.992653 -228.09357 -4.3608971
89.424736 -228.04425 -4.3479452
91.63269 -228.1795 -4.3397832
96.93306 -228.06735 -4.2366891
97.375114 -228.12958 -4.2298498
98.18988 -228.06345 -5.6791091
98.220978 -228.16609 -6.1660352
85.168396 -228.19264 -6.7206368
84.500641 -228.12991 -6.9864159
84.645248 -228.10349 -6.9089098
86.515518 -228.09656 -6.9480882
80.708679 -228.12361 -7.3347678
90.318901 -228.18839 -7.3381252
90.54425 -228.17664 -7.3317652
87.911095 -228.12811 -7.5301189
88.292175 -228.02017 -7.475728
81.081429 -228.18582 -7.714746
86.999153 -228.19266 -7.7194428
87.674828 -228.1188 -7.7594118
89.954651 -228.08095 -7.8331451
90.546776 -228.17851 -8.0399733
83.314941 -228.00258 -9.1642714
90.964516 -228.06567 -9.074976
93.099609 -228.18723 -9.0893593
93.068161 -228.16766 -10.095074
87.427689 -228.07466 -10.646175
92.444633 -228.1132 -10.603788
83.360611 -228.12285 -11.446421
86.514709 -228.11179 -11.432232
88.573265 -228.1904 -11.770575
91.921951 -228.02023 -11.707947
85.318214 -228.08749 -11.874876
93.805405 -228.09698 -12.680941
92.964577 -228.09491 -13.435514
93.480598 -228.16943 -13.438766
99.393585 -227.81812 -4.1582479
88.594177 -227.83405 -4.363246
88.830414 -227.85298 -4.3686719
89.807388 -227.91498 -4.3075781
91.677551 -227.922 -4.3171368
82.546387 -227.89384 -4.514667
83.70948 -227.97894 -4.4636521
84.237999 -227.93816 -4.465363
84.499504 -227.94339 -4.4619479
84.946297 -227.94902 -4.4597378
87.767807 -227.89252 -4.4208279
88.504707 -227.84396 -4.460073
98.213379 -227.96205 -5.656909
91.759552 -227.87096 -6.3737631
84.693222 -227.88762 -6.7601938
85.001892 -227.81706 -6.7429581
80.15538 -227.91879 -6.994947
90.379181 -227.80894 -6.9251642
90.464798 -227.93414 -6.9539108
92.057816 -227.83734 -6.834692
80.676468 -227.8566 -7.3928528
81.194649 -227.98491 -7.6988282
81.842819 -227.97052 -7.742806
89.839264 -227.94135 -7.746738
90.305359 -227.9693 -7.7050538
88.083221 -227.8656 -7.8436518
82.88826 -227.94072 -8.7556295
91.834915 -227.84348 -8.836937
83.444321 -227.94418 -9.09305
90.080444 -227.88051 -9.020895
84.076996 -227.89417 -9.5108175
88.035194 -227.98723 -9.5545349
93.115128 -227.93941 -10.246383
85.510414 -227.87975 -11.14891
92.62738 -227.85706 -11.37012
86.414749 -227.85062 -11.407262
90.377037 -227.9621 -11.409529
87.480453 -227.9519 -11.61437
91.8993 -227.86716 -11.723955
93.33136 -227.81012 -12.449923
83.743423 -227.81938 -14.472333
89.429436 -227.69565 -4.319335
94.687111 -227.79089 -4.2229052
95.769783 -227.73932 -4.2309451
95.84668 -227.7574 -4.3151212
83.195366 -227.74936 -4.4655881
83.303078 -227.68944 -4.4679809
80.384949 -227.61288 -4.69031
87.152657 -227.61671 -6.282248
86.190338 -227.78897 -6.8915758
90.963158 -227.79301 -6.8601189
87.465881 -227.78958 -7.1332922
91.769516 -227.71919 -7.7999382
87.837807 -227.72058 -7.9221139
80.462128 -227.78786 -8.1305857
93.87027 -227.67789 -8.3325806
93.790092 -227.73488 -8.4973459
83.858963 -227.67264 -9.0213852
90.611656 -227.69995 -9.0959301
87.840103 -227.75336 -10.171891
93.376984 -227.78299 -10.18161
85.670326 -227.62814 -10.566383
86.761856 -227.70209 -10.468987
85.55574 -227.71545 -10.717514
85.740517 -227.67493 -10.938553
85.441582 -227.79662 -11.479785
90.673965 -227.78543 -11.809181
85.869202 -227.76524 -12.181862
92.677399 -227.6273 -12.737958
92.960602 -227.60547 -13.774689
89.696365 -227.73837 -14.776558
98.965881 -227.47418 -4.181159
92.128777 -227.48769 -4.274148
93.06778 -227.44073 -4.2533779
94.617432 -227.48611 -4.2361302
81.498154 -227.49774 -4.6067219
85.837402 -227.42848 -6.3486562
86.007011 -227.41939 -6.4665742
91.084305 -227.50565 -6.9394131
91.441032 -227.43875 -7.019969
87.635132 -227.51508 -7.3553009
91.192543 -227.54739 -7.5595069
80.13472 -227.51761 -7.9282122
87.918945 -227.54079 -7.8594031
87.817726 -227.56113 -8.078537
85.139771 -227.50436 -8.5942659
93.945488 -227.57414 -8.5005369
94.089294 -227.45207 -8.4983091
83.661057 -227.56969 -8.9884987
83.913574 -227.54025 -8.9232788
93.413872 -227.55423 -8.9572325
87.641464 -227.54605 -9.1008196
83.82782 -227.59428 -9.4459763
87.790192 -227.5311 -10.950803
87.050293 -227.46597 -11.336516
86.411034 -227.5793 -11.414716
85.194107 -227.40968 -11.791536
94.162766 -227.44707 -12.318211
90.602058 -227.47089 -14.185062
91.878265 -227.59044 -15.518934
88.265434 -227.36728 -4.3677592
88.532196 -227.34686 -4.3283229
90.638908 -227.31784 -4.2774258
90.906021 -227.29356 -4.2608891
92.491348 -227.32977 -4.2481499
82.085587 -227.30588 -4.547771
85.585121 -227.20988 -6.4885521
85.922821 -227.37811 -6.5718198
85.233742 -227.25299 -8.1978493
87.100601 -227.36128 -9.3147068
93.267021 -227.37045 -10.165955
85.564789 -227.22736 -10.225312
89.080688 -227.35382 -10.869635
92.326431 -227.37978 -10.918048
92.36911 -227.35063 -11.548432
85.672119 -227.32774 -13.395147
87.057838 -227.00891 -4.3845978
89.13308 -227.03069 -4.333837
90.168228 -227.01767 -4.2801242
90.951355 -227.18443 -4.296289
92.37883 -227.0853 -4.237175
95.000748 -227.18652 -4.2285309
80.278976 -227.00369 -4.5776672
80.035324 -227.0278 -6.8909688
90.335365 -227.18802 -6.9093399
90.489464 -227.13983 -7.2602658
90.143555 -227.11716 -7.957335
89.911324 -227.13448 -8.1961489
80.572601 -227.06068 -9.0442982
92.95565 -227.10693 -10.179701
85.749161 -227.13934 -10.321299
93.068832 -227.19733 -10.406733
85.590248 -227.14763 -11.157356
91.562424 -227.16084 -11.561758
92.330467 -227.05313 -11.406781
91.19162 -227.12152 -13.756804
89.604599 -227.10347 -14.237247
99.921837 -226.85989 -4.1613808
91.718948 -226.96591 -4.2654419
81.093353 -226.94756 -4.5882978
84.132423 -226.89445 -4.4395971
80.562386 -226.89859 -7.170867
80.110352 -226.99263 -8.8317385
86.878273 -226.98174 -9.4232874
80.457603 -226.81769 -10.380445
85.552299 -226.98976 -10.249002
91.811958 -226.90125 -10.641354
89.143021 -226.91339 -10.953223
92.824249 -226.88686 -12.443199
91.494339 -226.96957 -15.117975
90.7332 -226.96762 -15.256762
97.416 -226.69136 -4.1919351
83.402794 -226.77177 -4.3101211
90.679176 -226.6599 -4.2305908
92.310806 -226.68042 -4.2198181
92.57515 -226.6241 -4.2294612
82.697113 -226.73315 -4.525876
92.232422 -226.75189 -7.4328418
86.898819 -226.75369 -9.1496172
84.73262 -226.69269 -9.686244
85.228989 -226.63304 -9.6910982
92.755836 -226.76704 -9.7479095
80.446274 -226.79118 -10.286407
91.147812 -226.6806 -10.24431
85.883118 -226.67798 -11.327079
90.625679 -226.69284 -11.566668
91.766357 -226.73651 -12.037304
91.360764 -226.61038 -13.767232
89.850632 -226.6028 -14.515539
95.764832 -226.53302 -4.189507
98.154633 -226.51073 -4.149375
98.814987 -226.44588 -4.1062551
82.984436 -226.57367 -4.3698349
84.906586 -226.53735 -4.3910332
92.684845 -226.52263 -4.2158861
93.40007 -226.56071 -4.211823
94.246819 -226.49911 -4.2032719
91.292999 -226.42755 -8.6763
88.939209 -226.40182 -8.8659925
88.281876 -226.44846 -9.1113129
90.776329 -226.54825 -9.3528013
88.890106 -226.52167 -9.7937126
80.147156 -226.49861 -9.830286
80.558586 -226.48837 -10.632102
92.09407 -226.56607 -10.877157
88.175919 -226.27658 -4.3147988
92.187469 -226.24725 -4.218966
95.090904 -226.32314 -4.202281
82.730804 -226.29105 -4.4510541
88.853897 -226.20258 -8.4073029
88.734367 -226.29845 -9.5015535
88.61071 -226.3235 -9.6015568
91.25914 -226.20081 -9.6274872
80.034607 -226.38573 -9.8014803
80.816025 -226.24446 -10.742915
80.769165 -226.33635 -11.080669
92.050354 -226.28008 -11.460308
92.59008 -226.32419 -11.483566
90.825188 -226.26334 -11.973886
89.91098 -226.20448 -14.790806
90.387772 -226.36537 -15.644827
93.762108 -226.16997 -4.1368632
99.838837 -226.16635 -4.0943599
88.910919 -226.10738 -4.2862649
92.983665 -226.14038 -4.2191319
89.158188 -226.10587 -6.7379222
88.296776 -226.04172 -7.3844719
88.979233 -226.12128 -8.1924753
89.286049 -226.04021 -8.2034378
90.692413 -226.1723 -8.7312145
88.940918 -226.13159 -9.079339
91.056229 -226.1535 -9.4695539
87.2995 -226.02713 -10.95141
91.016182 -226.19681 -10.925035
87.512146 -226.08299 -12.325786
92.077263 -226.11069 -14.043495
93.314522 -226.06856 -15.86642
84.082817 -225.90961 -4.354465
84.776306 -225.9321 -4.3473458
86.160027 -225.81812 -4.3205051
89.33989 -225.88745 -4.279707
90.640152 -225.85291 -4.2681451
93.107399 -225.93065 -4.2124748
89.443329 -225.8056 -6.6758881
87.975258 -225.81149 -8.1557856
88.242088 -225.8904 -8.24858
80.667831 -225.9147 -9.4621458
90.717651 -225.90497 -9.7519979
88.088303 -225.8381 -10.673625
92.258629 -225.95766 -10.86257
88.865021 -225.91512 -11.399533
88.161026 -225.90517 -13.034144
91.817169 -225.90482 -14.004473
90.079575 -225.8688 -14.818766
92.370956 -225.90636 -15.410665
94.428101 -225.65021 -4.1671319
97.481995 -225.66487 -4.1373572
86.50029 -225.65193 -4.29041
87.634895 -225.70862 -4.3141351
90.142181 -225.67329 -4.2607312
90.322334 -225.6537 -4.2478399
92.265671 -225.77705 -4.2468052
81.636986 -225.62927 -4.4104862
89.313408 -225.62746 -7.1627002
88.979439 -225.77505 -8.1405201
88.306847 -225.77438 -9.3905067
88.442368 -225.74591 -9.3620625
91.75985 -225.76082 -9.7753515
91.090553 -225.77724 -9.8014231
91.444344 -225.76552 -9.8424129
92.487312 -225.63632 -11.533987
91.441216 -225.74078 -11.986671
89.531769 -225.78204 -15.10845
93.727196 -225.73584 -15.701777
91.949776 -225.75647 -16.620052
97.860031 -225.45164 -4.1137729
80.058075 -225.4478 -4.543808
89.107361 -225.58844 -6.7584171
89.280029 -225.56654 -6.7505178
87.86039 -225.46077 -6.925004
89.524208 -225.52148 -7.1090102
88.197144 -225.48593 -7.4658542
88.281197 -225.58144 -7.661305
88.232361 -225.52011 -8.1941032
91.067474 -225.47061 -8.8975716
88.463455 -225.42871 -9.3490391
88.884888 -225.53658 -9.4818878
91.877068 -225.44153 -9.4303274
92.921364 -225.44492 -10.508688
91.091652 -225.41884 -10.634968
87.088356 -225.47144 -11.896523
87.863007 -225.4062 -12.436921
88.09642 -225.4021 -13.533579
94.346588 -225.56821 -15.971107
93.524605 -225.27904 -4.159718
95.777756 -225.24969 -4.1185999
90.983902 -225.25217 -4.221807
81.73101 -225.39603 -4.4280481
83.261238 -225.34377 -4.4854531
88.097633 -225.31361 -7.3732362
89.633034 -225.25876 -10.149023
91.864418 -225.27444 -10.530889
92.971878 -225.38017 -10.439906
87.977104 -225.36359 -10.896295
89.872162 -225.26065 -11.058613
93.47155 -225.10779 -4.1249051
93.779305 -225.08192 -4.153286
99.057892 -225.10835 -4.0440869
81.371002 -225.06599 -4.3923101
84.910759 -225.03694 -4.3103819
86.45002 -225.11313 -4.279963
89.133438 -225.19925 -4.2650399
89.434906 -225.02228 -4.2247829
80.59359 -225.14474 -4.5398779
82.4049 -225.14078 -4.4049158
87.853348 -225.18129 -7.63237
88.258255 -225.12927 -9.0687752
90.550819 -225.133 -9.1103268
87.903137 -225.0921 -9.3036633
88.328835 -225.08257 -9.3165255
88.480865 -225.14778 -9.3145676
81.683983 -225.17548 -9.5512114
91.246078 -225.1378 -9.6246872
80.15593 -225.09967 -10.136742
88.433792 -225.14481 -10.086966
89.883598 -225.07889 -11.044209
90.077568 -225.14825 -11.066411
87.044365 -225.07111 -11.532814
81.891945 -225.0929 -11.615511
92.573151 -225.09964 -12.339548
88.051735 -225.19589 -13.763419
94.702438 -225.19655 -16.001808
93.736664 -224.93312 -4.1176271
96.435143 -224.8317 -4.1062698
98.570114 -224.80305 -4.1311989
99.469681 -224.89973 -4.0730448
84.760735 -224.89481 -4.3162642
85.082993 -224.99216 -4.312623
86.499176 -224.92638 -4.2633018
87.839165 -224.89206 -4.2552228
90.25499 -224.88104 -4.2060342
91.743042 -224.8252 -4.2037301
88.522972 -224.81984 -8.6143856
81.629723 -224.90834 -9.2788029
88.558411 -224.93045 -9.2884846
89.848122 -224.8663 -10.042048
89.041397 -224.92673 -10.288876
91.075119 -224.94888 -10.530989
86.972206 -224.91223 -11.473467
87.257294 -224.83337 -11.420197
90.161453 -224.60913 -4.1667418
82.323105 -224.79443 -4.359314
82.569489 -224.68744 -4.353137
87.718956 -224.75458 -4.2009931
81.495422 -224.70952 -4.4345102
88.247787 -224.66893 -8.6101742
88.449028 -224.72812 -8.6999531
81.843216 -224.61797 -9.1888609
87.3311 -224.75726 -9.6283073
82.513298 -224.65993 -9.9310274
88.78717 -224.67686 -9.8512306
81.441528 -224.77051 -10.360011
87.912605 -224.79016 -10.399699
94.971153 -224.65591 -15.969487
95.763298 -224.56506 -4.0614362
83.879761 -224.43124 -4.2863321
84.661095 -224.42694 -4.246254
86.595261 -224.51451 -4.2557478
89.383385 -224.54405 -4.2372379
89.723366 -224.45734 -4.2359362
87.49752 -224.52753 -9.1933069
87.818878 -224.55316 -9.1114664
88.772926 -224.44754 -9.4488716
87.384369 -224.48544 -11.129855
91.944199 -224.48163 -11.434227
92.073845 -224.57935 -12.172679
91.55941 -224.56528 -12.758512
80.18708 -224.59198 -13.217354
98.276138 -224.28313 -4.0519209
88.587936 -224.27025 -4.239995
88.022659 -224.35274 -8.2512436
89.554718 -224.29915 -9.9707174
90.085297 -224.29987 -9.8617163
88.335297 -224.29596 -10.192312
88.29689 -224.22533 -11.476526
81.00882 -224.13821 -4.3681669
81.809052 -224.13458 -4.364872
90.471573 -224.11438 -4.2007728
83.285309 -224.0444 -10.472086
87.362144 -224.10417 -10.498509
87.16835 -224.0412 -11.308295
92.603485 -224.00027 -13.5835
80.823265 -224.16698 -13.686529
87.555656 -224.07623 -13.627237
91.49231 -223.87016 -4.1533771
92.523376 -223.99077 -4.0711188
94.473465 -223.91489 -4.1819191
96.549805 -223.88336 -4.0364528
99.904709 -223.92453 -4.0233631
90.249794 -223.85844 -10.996513
90.53392 -223.84656 -10.969711
96.242119 -223.62659 -3.9969001
95.378815 -223.7193 -4.0607462
80.039566 -223.61731 -4.355279
83.27887 -223.65399 -4.292717
84.649658 -223.75861 -4.258081
87.489456 -223.79752 -10.884876
90.245705 -223.7661 -11.941846
90.468994 -223.64198 -12.392073
89.457886 -223.75104 -13.091434
86.2892 -223.4622 -4.1982489
86.633499 -223.48764 -4.1905279
93.119461 -223.41507 -4.1649208
96.992386 -223.51128 -4.0174441
98.348457 -223.42322 -4.009377
81.087097 -223.59691 -4.3148589
85.332245 -223.51604 -4.2336621
90.043633 -223.41502 -10.237535
87.922806 -223.41772 -10.840509
88.295052 -223.41252 -12.544919
89.47377 -223.43497 -12.868435
89.628006 -223.48421 -12.814899
99.106308 -223.22424 -3.955405
99.936043 -223.33672 -3.9495521
89.243073 -223.25098 -4.148262
91.997841 -223.37202 -4.123076
94.355598 -223.33208 -4.109551
97.511032 -223.27431 -4.0174422
84.348007 -223.3028 -4.2279921
84.6166 -223.29294 -4.224422
85.032852 -223.38242 -4.2196422
89.800766 -223.3257 -10.963324
90.068054 -223.30728 -12.447884
95.43985 -223.08273 -3.9911849
97.437119 -223.07782 -3.9900401
87.361221 -223.01822 -4.1637759
89.847977 -223.0217 -4.1449938
91.85611 -223.10886 -4.132256
95.562233 -223.03168 -4.0099959
83.903824 -223.19408 -4.2561178
85.066772 -223.19772 -4.2076101
85.39563 -223.112 -4.2038598
89.916656 -223.17117 -10.265244
89.70578 -223.14462 -10.865938
88.010941 -223.1759 -11.727935
88.549423 -223.1581 -12.222757
91.914459 -223.00674 -12.84971
95.927376 -222.94711 -3.990799
90.093002 -222.92673 -4.1514959
91.454712 -222.99979 -4.1661248
92.982887 -222.97546 -4.0819678
93.658958 -222.9068 -4.0392699
82.225906 -222.92882 -4.2409539
95.255173 -222.76265 -3.984616
96.731552 -222.67477 -3.984576
99.288635 -222.79736 -3.9730921
87.040527 -222.7204 -4.1785259
94.207596 -222.63441 -4.0371881
97.304886 -222.717 -4.0291409
99.309937 -222.77989 -4.038579
81.565666 -222.72955 -4.2450771
83.124771 -222.72922 -4.2835288
84.194962 -222.45078 -4.156888
89.670235 -222.4196 -4.1598878
91.350952 -222.53305 -4.1659942
92.110168 -222.4902 -4.1833282
92.309769 -222.52371 -4.1274099
92.888847 -222.4389 -4.1248889
95.844505 -222.42091 -4.016911
82.663864 -222.59531 -4.2311091
97.514984 -222.23553 -3.9720399
98.312752 -222.31367 -3.963815
84.641983 -222.3168 -4.166296
86.559952 -222.30743 -4.072176
86.858597 -222.30148 -4.16397
92.517456 -222.35257 -4.162477
93.048721 -222.25662 -4.106699
93.656921 -222.33719 -4.083817
94.698135 -222.32034 -4.0420051
80.023964 -222.27907 -4.2575159
94.405746 -222.03511 -3.9955339
95.474945 -222.11192 -3.9532721
93.097633 -222.13852 -4.1095309
80.18824 -222.14569 -4.2426648
89.845032 -222.10001 -11.764359
88.592285 -222.0715 -13.995701
96.620972 -221.92491 -3.947392
97.911163 -221.82739 -3.9519811
92.841721 -221.85294 -4.0708871
96.599442 -221.94588 -4.0071101
97.860321 -221.86235 -4.049562
88.550049 -221.94205 -13.999705
93.521454 -221.70964 -3.969192
97.745209 -221.70222 -3.948163
99.30188 -221.67801 -3.923512
99.818283 -221.75562 -3.9267111
85.811378 -221.76193 -4.1313152
88.967979 -221.74185 -4.035223
90.267136 -221.77264 -4.1290431
91.089325 -221.63397 -4.1776252
95.662689 -221.77217 -4.0210562
89.911926 -221.77441 -11.527478
99.735016 -221.49789 -3.899982
94.265617 -221.23604 -3.990869
94.496536 -221.32607 -3.9989049
95.818077 -221.27946 -3.9583881
96.57016 -221.30171 -3.957365
96.965569 -221.3067 -3.9404759
97.772606 -221.32324 -3.95118
83.053741 -221.21617 -4.1534152
84.289833 -221.20921 -4.194849
93.019684 -221.31102 -4.1009378
98.763428 -221.39052 -4.018867
82.584503 -221.37047 -12.933636
95.292038 -221.08218 -3.962733
95.458107 -221.05908 -3.951319
95.852524 -221.00922 -3.949048
89.078545 -221.14728 -4.0762281
98.537605 -221.11879 -4.8753538
99.444931 -221.01192 -5.241745
95.409225 -220.98518 -3.9384999
95.76358 -220.89334 -3.9908841
97.012802 -220.91879 -3.921294
99.668999 -220.88525 -3.8408401
80.931778 -220.84195 -4.1475539
88.416466 -220.88177 -4.083745
90.239548 -220.98694 -4.0950832
99.064667 -220.88596 -4.8619781
96.011803 -220.73071 -3.953634
96.898376 -220.60403 -3.8968959
97.375877 -220.63852 -3.913487
97.797363 -220.68668 -3.915827
99.964989 -220.74419 -3.8918469
85.919243 -220.6993 -4.1187711
88.691391 -220.66833 -4.0586252
89.815971 -220.60196 -4.0743999
92.713646 -220.77458 -4.1538868
98.1464 -220.62331 -4.3245978
98.272125 -220.6335 -4.442471
98.083954 -220.60367 -4.9474158
97.580551 -220.72424 -5.1550112
88.157761 -220.494 -4.0111351
93.347961 -220.51402 -4.0350418
98.479584 -220.55795 -4.4936509
97.885468 -220.45346 -4.6792989
90.330818 -220.44614 -5.142786
97.517433 -220.50546 -5.1044059
90.356949 -220.48425 -5.3467379
90.836929 -220.5011 -5.3107309
98.352386 -220.48306 -5.264164
97.736816 -220.5098 -5.49897
89.941719 -220.2274 -3.997663
95.055641 -220.21506 -3.927686
97.465187 -220.35632 -3.879818
80.207535 -220.2345 -4.1246018
82.604095 -220.29456 -4.1015539
85.015862 -220.36047 -4.0748811
85.837105 -220.26482 -4.1228571
89.89209 -220.32333 -4.0090342
98.948372 -220.34558 -4.4974842
90.125847 -220.3187 -4.7421451
90.974411 -220.28723 -4.985445
97.552658 -220.22403 -4.971879
99.468613 -220.26527 -5.046103
89.489891 -220.25317 -5.2284012
90.782089 -220.34155 -5.270597
90.948654 -220.29782 -5.3332191
97.497719 -220.26459 -5.3439279
90.126045 -220.24924 -5.4763269
90.477615 -220.29285 -5.487247
97.878693 -220.24271 -5.4298272
90.192764 -220.23451 -5.6431732
93.46447 -220.0914 -3.997916
94.068695 -220.06735 -3.9201241
96.224586 -220.11542 -3.965112
98.503349 -220.10538 -3.9070511
84.097641 -220.129 -4.105443
86.598595 -220.12254 -4.0418081
98.389786 -220.12657 -4.030622
90.372696 -220.11282 -4.5441751
89.418968 -220.07394 -4.7728348
97.345589 -220.02908 -4.7162352
89.233902 -220.01134 -4.8477321
91.320572 -220.12463 -5.2498689
98.590088 -220.17473 -5.5020938
90.082428 -220.07637 -5.7339292
90.266418 -220.09372 -5.718935
90.279846 -220.05879 -6.0989919
98.107018 -239.8649 -4.7625322
90.655556 -239.84946 -4.9989901
91.391586 -239.85486 -4.996594
95.435471 -239.86166 -4.922235
98.576324 -239.87433 -4.8155341
99.079086 -239.8815 -4.853447
83.351646 -239.81349 -5.00176
84.560074 -239.8447 -5.0433922
87.765274 -239.94444 -5.024662
80.215706 -239.80389 -5.3003998
91.680832 -239.85834 -5.2913771
80.08786 -239.87166 -8.372282
84.214218 -239.87656 -8.9351931
82.897324 -239.90488 -10.112812
93.485764 -239.83134 -10.155939
91.046021 -239.9176 -10.392522
94.243973 -239.91306 -10.224428
91.921661 -239.81985 -10.563929
94.445244 -239.9599 -10.581287
92.606003 -239.97424 -10.788945
92.644295 -239.82158 -10.998878
80.922668 -239.82645 -12.604824
81.112419 -239.90176 -12.857279
80.575272 -239.92627 -13.121919
92.389503 -239.82707 -13.002205
80.70285 -239.96703 -13.21246
93.196945 -239.65884 -4.974371
95.383888 -239.64325 -4.957058
95.750206 -239.65643 -4.9247718
95.961823 -239.62376 -4.934958
96.063675 -239.6189 -4.9443989
96.273941 -239.66147 -4.9333668
96.530777 -239.63213 -4.9452229
98.07782 -239.69267 -4.9065161
99.100433 -239.72737 -4.8987608
99.456436 -239.74394 -4.9054408
83.040222 -239.78638 -5.046257
83.319839 -239.60039 -5.0247598
85.031174 -239.76981 -5.0508809
93.153587 -239.6257 -5.0082788
83.529022 -239.66669 -8.6451702
84.286263 -239.71164 -8.7583599
84.223328 -239.65063 -8.9184608
83.042244 -239.60373 -9.4140682
92.317932 -239.73125 -9.6797886
80.450226 -239.63251 -10.06049
80.314346 -239.66205 -10.228112
93.797028 -239.63647 -10.438551
92.721619 -239.70279 -11.476831
80.287651 -239.73492 -11.729786
80.709846 -239.67418 -11.669885
92.359245 -239.63512 -12.08965
80.731651 -239.78757 -12.256736
92.553139 -239.63647 -12.580347
80.38073 -239.73979 -12.701265
93.107086 -239.76549 -12.90261
81.043335 -239.63733 -14.17939
81.227654 -239.68263 -14.297258
89.894211 -239.67068 -17.863539
86.034073 -239.61855 -19.92794
98.320702 -239.42169 -4.555316
94.294685 -239.47293 -4.717936
97.8302 -239.41518 -4.7182121
99.73201 -239.4646 -4.703299
91.155212 -239.45114 -4.9970279
93.713058 -239.55255 -4.9554
94.503296 -239.52937 -4.9204412
95.131744 -239.56567 -4.9309268
95.904114 -239.54486 -4.912374
96.21389 -239.40379 -4.9521828
96.701805 -239.43077 -4.9373569
97.144226 -239.45056 -4.9376569
98.61171 -239.50446 -4.8362041
99.065071 -239.54466 -4.9544349
80.486732 -239.48547 -5.103065
84.11631 -239.4184 -5.0378332
89.009216 -239.4077 -5.0143218
89.31929 -239.44037 -5.0186319
90.104027 -239.50909 -5.0100441
90.556732 -239.41611 -5.015491
91.602547 -239.47479 -5.0156012
92.216507 -239.46091 -5.0122838
97.070747 -239.42397 -5.11763
97.888718 -239.48022 -5.1137142
98.49221 -239.49777 -5.0827141
98.863052 -239.53735 -5.076611
99.108536 -239.53653 -5.0946999
96.576714 -239.44055 -5.346693
96.976013 -239.44568 -5.5004439
80.231499 -239.5237 -8.3288441
83.627678 -239.58035 -8.637104
80.375435 -239.48645 -9.7936878
81.396919 -239.46449 -9.7332306
80.420555 -239.52859 -9.9146538
82.340141 -239.54453 -10.191051
94.057121 -239.52863 -10.167965
92.464005 -239.42084 -10.266684
83.345139 -239.51335 -10.477623
84.260124 -239.43695 -10.494541
92.504669 -239.46939 -10.542669
92.592598 -239.58447 -10.991452
81.457352 -239.56433 -11.061372
80.318451 -239.46494 -11.344009
80.548256 -239.55159 -11.486414
80.839203 -239.47836 -11.569554
92.65152 -239.49057 -11.451304
92.603683 -239.5051 -12.53339
80.17041 -239.47607 -12.650258
81.26413 -239.44466 -12.843739
80.002777 -239.46822 -13.054875
80.952782 -239.54068 -14.220181
81.844917 -239.47635 -16.110504
87.789383 -239.51576 -17.813522
89.824799 -239.45865 -18.022125
91.280434 -239.52502 -18.792408
86.75618 -239.44954 -18.8641
93.129784 -239.29482 -4.7779841
95.080521 -239.38795 -4.707931
98.048935 -239.34111 -4.794817
99.71492 -239.29442 -4.6902361
89.126083 -239.37753 -4.9703722
90.464149 -239.34863 -4.9922829
91.325424 -239.3777 -4.9876542
92.670158 -239.25664 -4.9735808
94.292931 -239.326 -4.9435
80.680435 -239.20685 -5.0585389
82.146973 -239.29672 -5.051157
83.113571 -239.28387 -5.0522151
84.703629 -239.26071 -5.0492711
86.537567 -239.24449 -5.0562158
87.052795 -239.31931 -5.018786
88.357025 -239.33353 -5.0362592
89.905258 -239.37769 -5.0194411
91.276085 -239.31607 -5.0005732
94.775223 -239.33954 -5.0778861
96.517334 -239.30676 -5.1135478
97.060204 -239.29538 -5.1413999
97.464775 -239.28003 -5.1393418
92.054138 -239.20712 -5.2259789
97.536957 -239.32413 -5.305789
96.68544 -239.32254 -5.4888482
97.313339 -239.2599 -5.7039452
90.141914 -239.21417 -6.271349
90.244301 -239.26218 -6.4443102
80.58474 -239.39536 -6.8227801
80.741432 -239.35007 -8.6584053
83.143814 -239.30579 -8.710207
81.534515 -239.31297 -9.1741447
80.287064 -239.32355 -9.369339
81.527718 -239.37874 -9.3739319
93.971909 -239.24597 -9.3013554
83.010948 -239.33322 -9.4629097
94.238937 -239.23694 -9.4620676
93.935585 -239.34491 -10.08313
92.367737 -239.35931 -10.319321
93.371994 -239.23462 -10.225937
93.905663 -239.26685 -10.259844
81.718613 -239.38664 -10.847239
93.140594 -239.3347 -11.272331
93.929604 -239.32117 -11.50639
94.019165 -239.30295 -11.441423
83.460129 -239.37981 -11.715092
92.726891 -239.39883 -11.758862
93.310486 -239.27318 -12.14266
80.747742 -239.34505 -12.214705
81.215897 -239.37706 -12.568642
93.091644 -239.25494 -12.570077
93.229538 -239.25092 -12.570663
92.753151 -239.31682 -12.991645
92.838348 -239.24756 -13.032206
81.824585 -239.23849 -13.946857
82.203156 -239.35579 -14.6213
81.575745 -239.36847 -15.491556
81.796051 -239.31458 -15.798193
81.502655 -239.39145 -16.234282
91.101128 -239.38368 -17.221277
91.428467 -239.30945 -18.061441
95.280273 -239.16885 -4.7936192
97.102455 -239.09999 -4.7235599
98.107368 -239.19131 -4.7368379
87.459244 -239.03635 -4.9944491
88.575546 -239.08008 -4.9704199
92.359932 -239.03557 -4.816515
93.270065 -239.12071 -4.8340449
93.765175 -239.13147 -4.8442478
83.511963 -239.10019 -5.038795
83.813057 -239.00601 -5.0431991
85.260986 -239.16693 -5.0380201
86.891487 -239.01791 -5.1080341
89.101318 -239.10222 -5.1096511
90.492905 -239.15842 -5.0852051
91.049026 -239.17581 -5.1809759
91.305466 -239.18701 -5.1535382
91.494583 -239.19196 -5.1478701
97.328491 -239.03329 -5.1167989
97.470093 -239.03516 -5.1342468
86.52002 -239.01611 -5.2339778
86.91597 -239.0121 -5.2263808
88.666443 -239.07898 -5.2110429
88.865158 -239.08505 -5.224473
90.096031 -239.04042 -5.278614
90.865906 -239.17334 -5.2068281
91.461983 -239.19038 -5.221313
96.871185 -239.0589 -5.3182788
97.331238 -239.09402 -5.326076
96.742455 -239.11993 -5.506721
97.324615 -239.14792 -5.549243
89.793968 -239.02347 -5.6171632
90.295708 -239.04727 -5.7130799
96.530235 -239.15355 -5.6569309
96.909882 -239.06735 -5.6825609
97.26226 -239.16066 -5.6967692
90.07531 -239.06525 -5.8939128
97.301422 -239.15619 -5.9313412
90.742134 -239.0184 -6.0892758
82.991592 -239.00868 -6.2218509
83.009132 -239.01537 -6.211791
89.547104 -239.09174 -6.2181711
90.315948 -239.0278 -6.333919
90.465698 -239.02676 -6.2470622
90.699837 -239.10934 -6.2512789
90.890915 -239.13751 -6.2855091
90.304115 -239.09579 -6.4693809
80.404541 -239.005 -8.2423105
80.684708 -239.03271 -8.6693039
80.070908 -239.11151 -9.1376553
84.038902 -239.04472 -9.1680965
94.125664 -239.08943 -9.081048
80.324783 -239.12053 -9.3224277
92.958733 -239.10466 -9.5817871
82.170341 -239.04581 -9.7302456
84.571472 -239.00443 -9.6537113
82.990219 -239.08759 -9.9477234
82.642815 -239.03911 -10.149298
92.364746 -239.13789 -10.18713
92.47847 -239.13927 -10.111118
84.198204 -239.07751 -10.317963
92.318176 -239.14836 -10.52499
80.708527 -239.05309 -10.855363
81.715988 -239.15172 -10.892548
84.318657 -239.11087 -10.9763
80.573654 -239.06241 -11.366428
83.678352 -239.07668 -12.059185
93.070923 -239.13379 -12.630052
92.747459 -239.04404 -13.13274
92.68869 -239.04626 -13.321719
80.7668 -239.15399 -13.986319
82.399734 -239.18744 -14.823856
81.746132 -239.0634 -15.423337
81.30658 -239.07852 -15.737135
81.863716 -239.1169 -15.659958
89.838249 -239.18628 -18.119352
87.198418 -239.002 -18.710932
91.687759 -239.13936 -18.790531
89.708282 -238.81085 -4.7859168
90.292969 -238.81786 -4.7944069
91.766609 -238.888 -4.767035
93.71521 -238.89058 -4.7398038
94.106125 -238.92906 -4.747366
99.106735 -238.88899 -4.6563091
83.330818 -238.81592 -4.9438009
84.174744 -238.86343 -4.9537988
87.311188 -238.8365 -4.8651109
88.113815 -238.89297 -4.903728
90.353798 -238.88841 -4.8216629
80.426582 -238.98062 -5.1137528
81.294426 -238.93185 -5.0783348
81.560005 -238.84183 -5.0188832
83.030136 -238.87447 -5.0960951
84.107773 -238.88049 -5.1600699
84.520294 -238.91266 -5.0955791
84.852974 -238.89847 -5.1448741
85.290436 -238.95068 -5.1847739
86.12262 -238.98456 -5.1298399
86.510353 -238.9955 -5.1175532
82.693512 -238.81036 -5.278841
85.524017 -238.93869 -5.2347312
85.9739 -238.98109 -5.2108068
86.298508 -238.99802 -5.2091608
89.920677 -238.84891 -5.2776508
96.568184 -238.83926 -5.2695251
96.689682 -238.9538 -5.2752318
97.584152 -238.9511 -5.3517561
89.710442 -238.93756 -5.5387411
89.847672 -238.91673 -5.4670458
90.137909 -238.87689 -5.429173
96.732994 -238.92972 -5.513248
97.840744 -238.85742 -5.5436249
89.872391 -238.90945 -5.7502198
90.134628 -238.8699 -5.7517209
90.77124 -238.8511 -5.6655769
97.462318 -238.91325 -5.6313891
97.897018 -238.81329 -5.6677699
89.905113 -238.89005 -5.8552132
97.159935 -238.90555 -5.8153272
83.128807 -238.99725 -6.218843
90.88324 -238.85274 -6.2946148
91.124191 -238.89922 -6.263629
91.237236 -238.91634 -6.2211652
90.247803 -238.87608 -6.4522009
91.102058 -238.83519 -6.5020771
93.905411 -238.91817 -7.690495
94.059364 -238.81268 -7.8955011
80.15609 -238.91463 -8.1906404
93.914299 -238.84996 -8.1378307
80.257874 -238.8889 -8.2310495
93.560837 -238.80371 -8.2428408
93.212082 -238.96982 -8.5186157
80.991989 -238.86545 -8.6367798
81.889404 -238.96179 -9.0677557
83.316833 -238.96909 -9.050766
84.896667 -238.96085 -9.3383055
80.781769 -238.96774 -9.5550385
80.948257 -238.95903 -9.4891968
92.909744 -238.96552 -9.4999475
82.448166 -238.92825 -9.9973745
93.845886 -238.9696 -9.90693
