# .PCD v0.7 - Point Cloud Data file format
VERSION 0.7
FIELDS x y z
SIZE 4 4 4
TYPE F F F
COUNT 1 1 1
WIDTH 833
HEIGHT 1
VIEWPOINT 0 0 0 1 0 0 0
POINTS 833
DATA ascii
88.523598 -298.0965 -8.6851807
98.881989 -291.83371 -11.330904
97.217926 -291.13571 -11.228636
95.756989 -290.68646 -11.453497
98.101402 -290.02393 -15.798347
94.424942 -289.62415 -9.8676338
94.373184 -289.38052 -9.8555164
99.302902 -289.30719 -11.027666
94.370453 -289.03342 -9.8365574
95.102615 -288.97455 -11.350023
96.588165 -288.81738 -12.811651
96.457237 -288.03006 -12.744309
97.971664 -286.49225 -13.984489
97.021561 -286.56882 -14.054575
87.976585 -297.75803 -14.77662
88.72554 -297.18207 -19.659737
90.485741 -295.69434 -11.217409
90.096771 -295.32974 -13.409687
94.850708 -295.17395 -11.436535
95.587234 -294.44885 -10.45186
89.983757 -294.39352 -11.012918
94.485275 -294.19662 -11.754694
89.860756 -294.14905 -12.045462
97.762764 -293.52283 -11.656195
87.844055 -293.50119 -19.219606
97.358818 -293.18414 -11.068699
94.199448 -292.61627 -11.655009
94.126923 -292.52182 -11.519901
99.019196 -291.83563 -11.302908
97.444504 -291.98962 -12.2457
98.51886 -291.80258 -14.756588
94.30397 -291.73254 -11.38519
96.886444 -291.76941 -13.02113
94.185608 -291.46768 -11.701789
96.310043 -291.38129 -11.68889
94.571198 -291.36523 -12.66756
99.645905 -291.31299 -13.843904
93.651939 -291.14078 -10.954016
98.557953 -291.10568 -15.131493
99.068436 -291.07504 -15.125244
98.679878 -291.1467 -15.328932
95.946251 -290.9509 -11.446003
99.7034 -290.81381 -14.109406
95.733261 -290.6937 -11.301684
99.533318 -290.68967 -13.800892
97.321594 -290.61884 -14.353884
99.436737 -290.70636 -15.039816
99.26368 -290.76355 -15.229664
95.493805 -290.50183 -11.10191
99.060699 -290.47235 -14.97145
98.756912 -290.47284 -15.333536
98.261154 -290.53308 -15.41132
92.516472 -290.35541 -10.244287
95.273621 -290.24747 -10.932766
95.72757 -290.25784 -11.556725
96.120499 -290.23825 -11.555584
97.582367 -290.20142 -12.418139
93.473122 -290.17215 -10.613914
94.967331 -290.04297 -10.742955
95.344101 -290.19348 -10.73012
96.053406 -290.16614 -11.78231
98.253281 -290.10577 -15.845345
99.640457 -289.99518 -11.541642
97.485703 -289.94061 -12.832237
97.643631 -289.98734 -13.968446
97.762489 -289.93951 -14.008123
92.248932 -289.60077 -9.7587252
94.555847 -289.66956 -9.8673248
95.142227 -289.69373 -10.678399
98.327301 -289.70355 -11.893513
98.602112 -289.67429 -11.848614
97.491234 -289.66702 -12.566334
93.361115 -289.48288 -9.3793163
91.853233 -289.42706 -10.147265
94.289337 -289.56543 -10.100126
99.118301 -289.48608 -10.885974
97.524696 -289.58154 -12.341096
99.740326 -289.43262 -12.298219
96.913101 -289.53662 -12.558395
99.573814 -289.54401 -13.910479
97.467316 -289.43866 -14.469932
93.228775 -289.34329 -9.0164757
92.464851 -289.28015 -9.4766045
94.352402 -289.30005 -9.8139954
92.172531 -289.34717 -11.139248
99.418701 -289.32288 -11.067554
99.722687 -289.34778 -11.144553
99.63324 -289.30722 -11.213778
96.599251 -289.29352 -11.943398
99.773682 -289.30493 -11.900341
97.960739 -289.38763 -12.407936
97.211983 -289.23877 -12.673198
99.82933 -289.25717 -12.654841
94.176125 -289.08142 -9.4253302
94.717606 -289.11792 -10.590536
95.859131 -289.10748 -11.855783
96.073837 -289.11859 -11.838305
99.77269 -289.18085 -12.11515
93.46431 -288.93356 -9.2762098
95.086105 -288.99579 -11.091637
96.496033 -288.85443 -11.396418
98.046715 -288.81119 -13.50133
95.536743 -288.71564 -11.816848
96.184929 -288.63153 -12.302194
97.013504 -288.7316 -12.606209
99.536697 -288.63263 -14.275162
99.664749 -288.70898 -14.280632
98.690277 -288.68243 -14.958755
93.187332 -288.48645 -10.065034
99.898529 -288.53552 -10.603716
95.611542 -288.58731 -12.085024
99.208138 -288.58182 -12.402129
97.751678 -288.50684 -13.324118
99.792747 -288.57343 -13.816737
98.369659 -288.41864 -14.57653
98.706627 -288.54773 -15.214167
99.816589 -288.32922 -11.40671
98.972107 -288.38428 -12.60067
98.995667 -288.38998 -12.998281
97.457039 -288.37753 -13.483517
99.933502 -288.06885 -12.490808
99.427742 -288.1095 -12.986718
99.416809 -288.13275 -13.368919
98.573349 -287.88812 -15.114057
99.821236 -287.56061 -13.581869
99.720673 -287.44318 -13.718519
98.489281 -287.49786 -15.372138
97.066986 -287.02036 -13.508256
98.784882 -287.07587 -14.307652
95.287285 -287.11612 -15.566208
98.188538 -286.97647 -15.647115
97.639404 -286.9599 -15.952232
99.022186 -286.70807 -13.201927
99.293495 -286.73593 -13.360785
97.984955 -286.52472 -13.987508
96.979263 -286.58105 -14.053635
99.417892 -286.21698 -12.667341
99.413963 -286.13562 -14.580364
99.736137 -285.85657 -13.078811
99.248749 -285.9718 -14.236719
99.075928 -285.77319 -14.17713
98.196548 -285.75217 -15.087391
99.787254 -285.50565 -13.271421
97.909882 -285.43481 -14.191514
99.013863 -285.57822 -14.08518
99.451881 -285.44278 -15.047596
99.446167 -285.30392 -13.015399
99.55761 -285.22751 -13.233067
99.599258 -285.19638 -12.93565
97.031677 -284.85983 -14.720773
99.348213 -284.64453 -14.046227
98.791901 -284.42654 -13.56802
99.377441 -284.57831 -13.989416
96.8311 -284.48499 -15.083427
98.235939 -284.13666 -15.169809
97.940765 -284.17279 -15.38316
88.201004 -298.11917 -13.554988
88.023224 -297.83453 -14.386892
88.625298 -297.14557 -19.658674
87.873734 -296.43643 -19.157486
95.851395 -296.06296 -11.157103
89.683884 -295.71439 -18.742332
90.328369 -295.56009 -11.267208
89.259216 -295.54547 -18.843002
94.860542 -295.16528 -11.417068
90.093384 -295.06763 -11.692034
89.982773 -294.26566 -12.581483
94.458328 -293.86456 -11.765671
92.682159 -293.31769 -12.427744
97.438873 -293.08514 -11.03262
96.786133 -292.68808 -10.996969
94.175217 -292.64728 -11.505003
96.203995 -292.33618 -11.842155
93.53569 -292.08481 -11.762423
96.990433 -292.00385 -12.134374
98.966225 -291.87109 -11.077568
97.147751 -291.96262 -13.285564
97.997368 -291.73196 -11.10005
98.894379 -291.67609 -13.913177
94.415268 -291.42667 -12.839878
92.477173 -291.31165 -10.832642
94.14682 -291.39392 -11.499393
98.512032 -291.29807 -13.644786
97.689224 -291.20355 -14.174147
95.061279 -291.26614 -14.835596
98.787949 -291.37448 -15.449697
98.834335 -291.01282 -11.740425
99.760536 -291.17059 -13.84564
98.864525 -291.17609 -15.212454
94.891541 -290.89966 -13.913565
99.020973 -290.8985 -14.120656
95.366959 -290.85666 -14.82091
99.476807 -290.92648 -15.076675
95.743362 -290.63992 -11.182941
97.329315 -290.70187 -14.285197
99.434647 -290.73132 -15.084234
97.898552 -290.41858 -14.149157
95.517967 -290.21298 -11.214875
97.070724 -290.22342 -12.817211
93.026939 -290.00992 -10.031832
93.697617 -290.0802 -10.235565
95.299286 -290.16779 -10.6639
98.3311 -290.11105 -11.278473
98.495216 -290.02344 -11.838991
97.84304 -290.06976 -14.026909
98.907883 -290.1745 -14.961113
97.243469 -289.85294 -12.04097
97.649872 -289.98981 -13.97107
98.410225 -289.61426 -11.531191
99.140327 -289.48746 -10.849228
95.123222 -289.47339 -11.188353
97.042114 -289.40106 -12.619556
99.328041 -289.31171 -10.966443
96.354668 -289.25201 -11.831209
99.695496 -289.3894 -11.875176
94.186707 -289.11197 -9.4116945
94.306427 -289.11707 -9.8803234
94.639404 -289.05905 -10.885607
92.850601 -289.07471 -11.159437
98.195023 -289.17178 -15.32378
99.612053 -288.86288 -10.323027
95.401947 -288.88791 -11.673697
99.378494 -288.8833 -12.438874
99.666016 -288.98651 -12.448555
97.955811 -288.88397 -13.095566
93.419807 -288.40637 -9.1302195
99.952286 -288.47809 -10.616483
99.934464 -288.5755 -11.781136
96.222649 -288.5864 -12.586362
98.475067 -288.45883 -13.074013
99.860634 -288.23245 -11.410254
96.113922 -288.39865 -12.290909
99.055939 -288.37891 -13.001465
98.177643 -288.26059 -14.643566
93.349197 -288.17322 -10.497111
99.481903 -288.11133 -12.977367
99.116852 -287.85535 -11.618999
99.948036 -287.91809 -12.705811
97.599716 -287.81241 -14.900026
98.336746 -287.72348 -15.132524
97.005951 -287.28043 -13.3073
95.390633 -287.23169 -15.559189
95.640793 -286.67889 -15.779123
98.972214 -286.48138 -14.110865
97.206841 -286.44928 -15.874325
99.454239 -286.23001 -12.561756
98.86927 -286.10922 -14.258224
98.370682 -286.16467 -14.5007
99.432907 -286.14429 -14.49207
98.874847 -285.8046 -14.761445
99.254517 -285.79547 -14.668756
99.339142 -285.42902 -12.634642
99.44265 -285.41641 -13.237969
96.819092 -285.48682 -13.567259
99.045128 -285.58099 -14.136518
99.485275 -285.31122 -13.119195
99.459312 -285.12698 -13.040303
98.188629 -285.01633 -14.93044
98.651993 -284.68848 -13.998938
98.7061 -284.34537 -14.184244
98.95575 -284.32361 -14.16523
98.233345 -284.0705 -14.523586
97.511452 -284.15204 -14.929927
99.028069 -282.53162 -6.7463398
86.030792 -299.06628 -19.322594
88.153931 -298.20135 -11.338094
87.871063 -298.05994 -13.265253
94.236954 -295.64389 -11.299856
89.397781 -295.68695 -18.901257
90.940689 -295.17633 -12.131489
95.613785 -294.78775 -10.690315
95.260872 -294.43301 -11.045429
96.150803 -294.49109 -12.165199
94.454895 -294.21674 -11.777586
90.951599 -293.89166 -12.431931
97.853439 -293.36777 -11.702043
94.074554 -292.33694 -11.567032
96.255203 -292.28229 -11.879973
98.194221 -292.07574 -12.225153
98.54567 -291.71716 -15.036466
98.989822 -291.41742 -15.100265
97.818146 -291.33899 -12.982912
95.748604 -291.24081 -13.479614
92.223648 -291.1308 -10.845915
93.682541 -291.07593 -10.903676
98.982666 -291.08029 -11.456789
97.903587 -291.13776 -14.19367
99.688744 -290.86798 -14.121993
97.514542 -290.96011 -14.24703
99.427246 -290.73755 -15.029999
95.726105 -290.24802 -11.451873
96.08609 -290.20316 -11.556149
94.949181 -290.22281 -14.452287
95.472549 -290.15076 -11.293209
97.367722 -290.07266 -11.909234
96.680191 -290.14221 -12.045753
97.7827 -290.09439 -13.990108
94.610275 -289.95657 -8.6089725
93.625397 -289.85275 -9.8647327
98.551895 -289.68228 -11.82285
98.000122 -289.69589 -12.041567
99.0989 -289.46613 -10.773418
98.677238 -289.53564 -11.940371
99.522911 -289.5329 -13.907106
91.493095 -289.28174 -10.693501
99.285477 -289.33908 -11.007076
99.514343 -289.28012 -11.90465
97.733543 -289.2215 -13.051655
94.36293 -289.02121 -10.440819
93.461212 -288.92786 -9.7044468
93.762871 -288.81204 -9.694665
95.090263 -288.98505 -11.138467
97.863205 -288.87939 -13.304573
95.53418 -288.7561 -11.756344
98.905327 -288.62607 -12.897099
98.615883 -288.7334 -14.987131
98.327148 -288.4447 -14.559965
96.288582 -288.21939 -12.486509
97.988403 -288.29022 -14.823035
99.847366 -287.957 -13.8286
95.980301 -287.95862 -14.984978
99.27243 -287.49506 -12.455031
97.02906 -287.26501 -13.134821
98.923691 -287.27777 -14.812427
94.254646 -287.27887 -16.160576
98.166473 -287.02954 -15.637787
98.959465 -286.89804 -13.319482
97.626312 -286.8262 -14.996034
97.33593 -286.71579 -14.995252
98.992508 -286.49329 -14.151831
93.639618 -286.50058 -15.190351
97.672165 -286.47702 -15.625509
97.155014 -286.26099 -7.020946
98.560272 -286.2308 -15.229259
97.972916 -286.02466 -14.01449
99.291824 -286.02295 -14.190756
99.429596 -286.18094 -14.563695
99.300056 -285.94522 -12.56055
99.229767 -285.94476 -14.241429
98.300171 -285.76624 -15.252776
97.575912 -285.40833 -14.464205
99.717903 -285.30151 -12.785275
97.325157 -285.34552 -14.192852
97.190735 -285.30322 -14.204319
97.811172 -285.34015 -14.749132
99.017761 -285.35614 -15.062965
98.221115 -285.0932 -13.78306
98.962997 -284.98557 -14.354894
99.004684 -284.31647 -14.204398
98.716942 -284.06445 -13.29245
97.95639 -284.15823 -14.731125
97.995987 -283.97278 -14.657692
97.97744 -282.29053 -6.9714279
98.826035 -281.58887 -6.6956601
94.517578 -280.10809 -8.6226139
94.586922 -280.14191 -9.0488586
88.063904 -298.11707 -12.634274
87.90567 -298.02454 -12.956786
88.156334 -298.12122 -12.937119
87.852989 -297.72913 -15.234389
85.624565 -297.43326 -18.660604
90.439491 -295.61163 -11.19547
89.138016 -295.65915 -18.768333
89.94101 -295.75452 -18.831562
93.239899 -295.29312 -12.138395
92.695023 -294.9968 -13.498392
95.182175 -294.70404 -12.10082
95.491791 -294.48071 -10.456903
89.727844 -294.55759 -12.625847
97.754883 -293.90265 -11.990086
90.707153 -293.79349 -11.517809
88.217712 -293.62817 -18.441193
95.826347 -293.14325 -12.341276
88.206352 -292.78702 -18.281622
88.769653 -292.64905 -18.214359
93.989456 -292.43158 -11.53246
98.353981 -292.15497 -14.043188
98.897896 -291.86954 -11.104991
97.445053 -291.97061 -12.220695
93.954887 -291.64343 -11.241779
98.037361 -291.73544 -11.224102
98.751114 -291.71179 -11.301314
96.848236 -291.70676 -13.020688
98.222359 -291.67459 -14.794239
97.23056 -291.55356 -11.809553
97.517059 -291.23672 -11.218977
98.35183 -291.38745 -14.002937
99.852249 -291.1532 -13.917843
98.60302 -291.03665 -15.154087
97.128769 -290.98987 -11.740289
95.46228 -290.84702 -14.884127
93.810287 -290.77094 -10.767309
97.597305 -290.73499 -11.578539
99.546967 -290.69894 -13.846225
99.270462 -290.72888 -15.272606
95.39782 -290.47095 -11.092274
95.396767 -290.32098 -10.953754
98.663589 -290.27374 -12.62841
98.418198 -290.36551 -15.00676
93.289474 -290.10486 -10.808918
98.108246 -290.06735 -12.090237
97.62571 -290.15628 -12.627318
94.079422 -289.97198 -14.31434
92.218803 -289.61499 -9.8494883
94.577721 -289.66779 -10.086832
98.248642 -289.68134 -11.914644
98.164536 -289.79871 -15.839375
91.150658 -289.20724 -11.148575
99.675156 -289.39795 -13.748234
97.555717 -289.24292 -14.876712
99.829758 -289.17499 -12.100266
98.219589 -289.16101 -12.64942
92.87854 -288.80902 -12.316586
97.917984 -288.87564 -13.055682
98.711548 -288.86755 -14.751651
98.526413 -288.81311 -14.938288
98.099174 -288.8931 -15.716024
93.716385 -288.79541 -9.6934614
98.99675 -288.6987 -13.504609
98.843384 -288.61414 -14.98772
99.912285 -288.42932 -10.810633
99.390717 -288.57233 -11.851727
99.330566 -288.539 -12.595066
98.603554 -288.57693 -12.971476
99.412292 -288.578 -13.83778
95.438606 -288.51031 -14.335453
97.489433 -288.39584 -13.726322
99.488983 -288.28418 -13.780779
99.50782 -288.15247 -12.992607
93.806229 -287.83118 -10.226408
99.323051 -287.92551 -13.410883
99.90078 -287.77481 -12.288433
97.846069 -287.21304 -13.665424
93.67543 -287.12659 -11.55386
95.827911 -286.88422 -15.793089
97.485703 -286.96075 -15.790589
94.694946 -286.97879 -15.998533
97.207047 -286.54953 -7.030334
95.687134 -286.55865 -15.568044
99.166168 -286.3912 -13.590595
99.112366 -286.39664 -13.970575
99.767464 -286.03192 -13.054701
97.398598 -286.09888 -15.572294
99.355026 -285.94968 -13.052392
99.014503 -285.88452 -14.7218
98.22332 -285.71289 -15.071913
97.00042 -285.78857 -16.155396
98.469826 -285.4231 -14.555006
99.225479 -285.16501 -13.73674
98.206223 -285.04028 -14.368891
97.256195 -285.16025 -14.450657
98.223877 -285.0914 -14.941208
98.141945 -284.67624 -13.716672
98.95414 -284.6593 -14.129379
97.972076 -284.56744 -15.019375
98.064575 -283.95569 -15.322032
98.572029 -282.63205 -6.7043042
98.880928 -282.31042 -6.7429638
99.780113 -281.74722 -6.6521678
94.491348 -280.9462 -8.7550621
94.573341 -280.49182 -9.0498333
89.286285 -298.56662 -19.864166
88.472076 -298.06097 -8.5705509
88.234268 -298.12781 -9.9834604
89.285057 -296.95642 -19.536751
94.822136 -296.54617 -11.050835
95.003799 -296.38385 -11.043303
95.780457 -296.09332 -11.103357
94.616989 -294.68671 -11.055606
90.813812 -294.2757 -11.697001
96.817993 -292.70227 -10.975763
98.047668 -292.52225 -11.244492
96.536896 -291.82184 -11.869665
94.035362 -291.91141 -14.397881
98.174805 -291.67343 -14.922007
93.21109 -291.46918 -11.271897
96.215591 -291.36176 -11.716715
98.689034 -291.31549 -13.556719
97.311783 -291.15417 -11.234557
95.379578 -291.09125 -11.652234
96.153427 -291.04593 -11.641148
99.304138 -290.94604 -14.634109
96.873596 -290.59372 -11.863642
99.065529 -290.48874 -15.028996
92.460327 -290.37637 -10.268808
96.855827 -290.35178 -12.026417
93.115356 -290.04657 -10.4058
98.437775 -290.17612 -12.038767
98.926849 -290.18188 -12.018798
97.49968 -290.05118 -14.550657
97.611313 -290.0585 -14.588243
99.685501 -289.94611 -11.566802
97.376076 -289.90259 -11.967644
97.833054 -289.90707 -12.06102
97.693848 -289.97083 -14.112399
94.211533 -289.68988 -10.087714
93.033371 -289.70398 -10.239752
98.33577 -289.67383 -15.136812
95.122818 -289.49927 -11.24815
94.313828 -289.2547 -9.5607662
97.150772 -289.20334 -16.098562
94.722618 -289.09927 -10.594957
94.836746 -289.16696 -10.617733
99.406929 -289.16812 -14.709467
96.65509 -288.81113 -12.545588
99.400848 -288.49426 -11.459479
99.000984 -288.56763 -12.521963
98.15477 -288.46927 -13.078445
93.265366 -288.22546 -10.264126
93.727646 -288.31076 -10.556493
99.768066 -288.21667 -11.428453
99.075272 -288.28046 -12.660837
99.007996 -288.31143 -12.901957
99.925919 -288.23672 -13.675922
93.128334 -288.02594 -10.615379
94.363495 -288.03516 -11.202245
96.480392 -288.08231 -12.637462
96.458824 -288.0831 -13.059628
97.824562 -287.93448 -13.331768
99.877701 -287.97156 -13.359073
97.281441 -287.90002 -13.402401
97.072548 -287.78925 -12.964695
98.332191 -287.47202 -15.360516
96.371323 -287.29346 -14.817763
97.880585 -287.13394 -13.749706
99.286491 -287.1918 -14.65238
94.536926 -287.19461 -16.108721
99.590363 -286.85495 -13.214001
99.083687 -286.69031 -13.167793
99.337921 -286.72711 -13.400107
99.337212 -286.04361 -6.7478142
99.203682 -286.09851 -13.324317
97.319801 -286.15689 -15.81068
99.741249 -285.8342 -13.208464
97.782135 -285.92053 -15.476551
97.709717 -285.94327 -15.610682
99.681885 -285.73709 -13.126734
99.731277 -285.50858 -13.24323
99.400696 -285.3205 -13.104712
99.042725 -285.17929 -12.963921
98.060806 -284.61835 -14.919287
97.94574 -284.44138 -14.765976
98.178665 -282.4314 -7.065064
99.539169 -280.02927 -6.6635141
88.340469 -298.16895 -10.424429
87.594437 -296.4982 -18.752453
96.030579 -295.75977 -11.25035
94.600143 -295.51837 -11.945774
89.068344 -295.45963 -18.734322
89.468971 -295.14038 -18.793287
89.143524 -294.93781 -17.87488
89.578697 -294.49725 -12.88376
89.92337 -293.91699 -11.788511
90.832298 -293.8707 -12.363945
94.954857 -293.69574 -13.304718
88.493233 -293.57642 -18.41151
92.679947 -292.74319 -12.363239
97.474457 -292.6897 -12.733309
97.082802 -291.84616 -12.019466
97.083481 -291.96899 -13.353438
98.667786 -291.78046 -14.649643
98.357224 -291.51257 -14.736758
99.381638 -291.54437 -15.184153
98.014885 -291.36917 -13.264979
98.39962 -291.17743 -10.969325
98.303764 -291.14233 -14.468063
99.09848 -291.04053 -15.151671
97.715569 -290.98651 -11.702616
98.106979 -290.81122 -14.317892
93.529388 -290.73334 -10.839964
93.58226 -290.57455 -10.593909
98.18866 -290.49475 -15.409336
93.06826 -290.29318 -9.4573927
92.523056 -289.83795 -9.7740297
93.540695 -289.86798 -10.023911
94.896408 -289.85715 -10.232401
99.536186 -289.74118 -11.751535
97.491043 -289.63556 -12.591278
93.375511 -289.47757 -9.3882313
91.867523 -289.41016 -10.084127
97.465225 -289.5838 -12.170609
98.284447 -289.44324 -12.41354
93.24427 -289.32861 -9.0899372
91.659622 -289.35306 -10.541098
96.99881 -289.38846 -12.658287
99.410568 -289.23126 -14.656094
98.208466 -289.37891 -15.738733
97.406647 -289.17209 -13.027219
98.144821 -289.06158 -14.801847
99.573563 -288.86108 -10.46495
95.132919 -288.98642 -11.267105
92.47451 -288.95383 -11.86472
96.680176 -288.8356 -12.949873
99.619026 -288.867 -14.317348
93.147133 -288.79959 -9.2493935
93.285812 -288.62381 -9.8737173
96.14798 -288.61624 -12.330067
99.289238 -288.71906 -14.683407
93.960464 -288.54001 -10.146376
99.450172 -288.56482 -14.14326
93.297226 -288.24649 -11.018504
98.719376 -288.3891 -13.019245
99.92659 -287.80194 -12.741711
97.24337 -287.83002 -13.00247
99.950302 -287.69965 -14.09055
98.784576 -287.79169 -14.715728
99.769104 -287.45715 -13.681384
98.184441 -287.48901 -14.126854
96.113274 -287.22125 -14.776907
97.970528 -287.31772 -15.393949
98.859276 -287.15747 -14.294762
93.014977 -286.98816 -10.812222
97.55677 -286.81958 -14.146292
97.465973 -286.90063 -14.662718
97.813675 -286.92456 -15.848175
94.686516 -286.67651 -15.836454
94.398567 -286.66721 -16.042133
95.523087 -286.59903 -15.795137
99.381905 -286.18329 -12.574467
99.022141 -286.16248 -14.192915
96.877098 -286.0065 -16.008499
99.083481 -285.86368 -13.507074
98.744629 -285.97949 -14.254019
99.324112 -285.87543 -14.610187
99.466919 -285.61115 -13.294865
98.085251 -285.65338 -13.53022
99.363983 -285.44287 -12.626828
99.656219 -285.4295 -12.991858
99.144424 -285.59116 -13.125498
98.93013 -285.47083 -13.786219
99.461761 -285.5361 -14.76985
97.901184 -285.44363 -15.356438
99.10524 -285.073 -12.784
99.033813 -285.11298 -13.761329
98.565796 -285.04767 -14.725696
97.894943 -284.66321 -15.476703
98.572174 -284.22379 -14.176699
99.390594 -283.87692 -6.7414489
97.745995 -282.56778 -7.3592572
94.499771 -281.32352 -7.9914808
99.370583 -280.8916 -6.6484532
94.621254 -280.49719 -14.011873
88.262146 -297.90771 -14.519912
88.326309 -295.53326 -18.954185
89.97789 -294.98264 -11.715006
95.515511 -294.53992 -11.345909
95.455315 -294.25571 -10.636625
92.387772 -294.06937 -13.947746
90.10408 -293.69888 -12.279193
97.56076 -293.59183 -11.785631
94.979805 -293.1427 -11.181492
97.114532 -292.45209 -10.614375
92.569717 -292.57022 -13.016845
97.268242 -292.30963 -10.620152
99.150841 -292.06415 -14.701012
98.923607 -291.84543 -11.262882
94.19902 -291.86536 -11.456114
97.410225 -291.64496 -10.938356
94.171814 -291.72314 -11.722134
99.282303 -291.7337 -14.74005
99.32901 -291.44006 -15.255985
93.716423 -291.29501 -12.835307
99.043648 -291.37573 -13.432153
98.461632 -291.12329 -11.124392
95.967377 -290.96167 -11.495979
99.606842 -290.74753 -14.094952
95.319221 -290.48087 -13.997804
98.611488 -290.5257 -15.304075
97.566391 -290.20941 -12.560415
97.06321 -290.21112 -12.811104
98.626953 -290.03601 -13.088764
99.158592 -290.15948 -13.277702
92.213898 -289.85126 -10.580965
96.366028 -289.97104 -12.163465
99.498268 -289.81009 -13.090755
97.499626 -289.93341 -14.08674
95.044632 -289.7753 -10.578005
99.046326 -289.7981 -13.747726
92.710739 -289.54297 -9.1293907
93.015907 -289.41589 -9.2915478
94.560211 -289.51099 -9.8057823
94.35733 -289.38571 -9.7776499
99.789169 -289.3681 -11.919564
99.839706 -289.35236 -12.156331
96.542076 -289.24039 -12.311239
96.201218 -289.2674 -12.566166
97.210541 -289.22491 -12.672832
99.73983 -289.29398 -12.68582
97.59214 -289.34222 -13.064352
95.846901 -289.10785 -11.7974
93.496964 -288.96277 -9.1713009
93.928864 -288.96896 -9.1592274
95.3685 -288.95053 -11.412655
99.657654 -288.89374 -12.508627
98.092422 -288.97632 -13.00692
98.867966 -288.83301 -14.735609
93.211365 -288.69421 -10.081886
99.075569 -288.70724 -14.306729
99.081299 -288.78049 -14.664331
99.918289 -288.48474 -10.55773
98.915771 -288.48553 -12.393732
97.71006 -288.50732 -13.287786
99.811615 -288.4975 -13.831524
97.429428 -288.32568 -13.493538
99.818031 -288.11249 -12.53304
99.398636 -288.1799 -12.640793
96.184937 -288.181 -13.060473
94.495499 -287.94601 -11.339571
99.58255 -287.87686 -11.907709
97.669724 -287.91949 -13.63195
98.570496 -287.93756 -15.029036
98.508301 -287.62592 -15.27155
99.998871 -287.57214 -12.753311
99.763268 -287.55096 -13.573515
94.530876 -287.599 -14.972542
99.082748 -287.23663 -14.528146
95.027908 -286.96942 -15.919212
96.293411 -286.71899 -13.026604
98.182404 -286.65973 -14.088788
97.850311 -286.67944 -15.585063
99.057449 -286.3183 -14.548437
96.90242 -286.29266 -15.556003
98.204498 -285.86322 -13.62918
98.946693 -285.84122 -14.302918
98.665115 -285.88251 -14.550138
99.46698 -285.44485 -14.885234
99.32901 -285.30975 -13.368908
97.948723 -285.3851 -14.218292
99.447716 -285.1225 -13.050751
98.827728 -285.09174 -13.325132
98.335655 -285.14813 -14.687754
99.33387 -284.61349 -14.098676
98.984306 -284.52008 -13.989327
98.296593 -284.40179 -14.51965
98.333313 -284.00339 -14.002564
98.177124 -284.0434 -15.319632
97.902977 -283.87836 -15.325378
97.300522 -283.51703 -7.470912
99.899559 -282.59833 -6.664197
98.562233 -282.00211 -6.689836
95.855347 -295.72827 -11.348097
90.979431 -295.54773 -10.326637
96.54216 -294.82059 -13.012697
93.903214 -294.78568 -11.856227
95.714828 -294.37726 -10.450147
95.234406 -294.35754 -11.120035
94.976273 -294.2146 -12.067895
93.989792 -294.23578 -12.631517
90.511459 -294.35883 -13.032183
89.835403 -294.12982 -11.991725
90.046326 -293.56958 -12.503106
97.588509 -293.21445 -10.993125
95.99678 -293.37546 -11.951588
97.413132 -293.11353 -11.030052
92.418213 -292.81836 -12.102269
94.295616 -292.25858 -13.11133
92.481956 -292.18549 -11.474604
97.245651 -291.78314 -11.890845
99.112549 -291.46222 -15.315676
97.475761 -291.35776 -11.109492
99.632271 -291.28491 -13.912493
98.617065 -291.14301 -15.368694
93.822174 -290.97672 -10.758606
97.648415 -290.98926 -11.080286
99.310112 -290.87677 -14.12628
95.730988 -290.68686 -11.350754
95.716431 -290.60254 -12.751923
99.66423 -290.73267 -13.784618
97.37973 -290.64862 -14.497051
98.906975 -290.46143 -15.206206
96.069321 -290.23566 -11.701805
97.114906 -290.24884 -12.798527
97.983261 -290.05811 -15.867691
97.486206 -289.88113 -13.92559
97.976578 -289.74261 -11.971742
99.155457 -289.43903 -10.877781
93.612289 -289.26801 -9.3022842
97.805252 -289.31381 -11.926731
97.990326 -289.2218 -15.184849
93.81842 -289.06287 -9.4263144
94.52533 -289.12271 -9.7213516
94.344055 -289.11621 -10.215476
94.520126 -289.14105 -10.238276
95.259323 -289.09216 -11.071329
99.960274 -289.18109 -11.687935
97.104889 -289.10202 -12.73941
98.969055 -289.08417 -13.719137
96.941605 -288.8548 -14.816494
93.871872 -288.68497 -9.2617617
95.769203 -288.69919 -11.86672
99.784599 -288.67786 -11.825024
96.9804 -288.75665 -12.596292
96.788269 -288.74149 -13.099932
96.946854 -288.64499 -13.126055
97.720871 -288.78369 -13.168367
95.973038 -288.45761 -12.436675
99.645248 -288.58511 -14.539982
98.652016 -288.50668 -14.706549
99.659744 -288.19839 -12.984397
94.156105 -288.18109 -15.930676
99.559006 -287.88327 -12.137663
99.502357 -287.91876 -12.807995
99.894859 -287.92413 -12.833435
97.057739 -287.84244 -13.387932
96.792717 -287.7735 -12.946279
95.04232 -287.70157 -14.413954
92.114105 -287.55804 -11.801832
98.750122 -287.44196 -12.426645
99.520035 -287.32129 -11.661665
99.253098 -287.28796 -14.649636
97.056274 -287.15543 -13.014324
94.285461 -287.06143 -14.271885
98.999023 -286.7196 -13.225286
98.6297 -286.59967 -13.741718
98.591431 -286.30316 -15.151175
98.487785 -286.09131 -14.565994
99.470383 -285.92154 -6.7533731
97.539124 -285.91608 -14.240599
97.75415 -285.96597 -14.270548
98.59124 -285.65271 -13.978584
99.071266 -285.5871 -14.081736
99.621895 -285.46686 -14.972888
99.122482 -285.28693 -13.56382
96.88504 -285.38699 -13.894732
98.597298 -285.17947 -14.246785
97.894554 -284.99329 -15.067312
98.990822 -284.47076 -6.7253928
98.493225 -284.56638 -14.556984
98.42762 -284.2829 -14.545358
98.256042 -284.16837 -14.621109
97.116425 -283.53244 -8.1757565
99.003326 -282.63525 -6.7274251
94.575447 -280.26697 -13.084654
