# .PCD v0.7 - Point Cloud Data file format
VERSION 0.7
FIELDS x y z
SIZE 4 4 4
TYPE F F F
COUNT 1 1 1
WIDTH 1511
HEIGHT 1
VIEWPOINT 0 0 0 1 0 0 0
POINTS 1511
DATA ascii
91.031563 -264.86505 -16.533787
85.395668 -264.92163 -16.683994
84.614159 -264.92499 -17.610477
85.252029 -264.82489 -18.444939
85.160141 -264.83023 -18.722847
83.952362 -264.91962 -18.818499
84.495735 -264.86603 -19.036522
85.103287 -264.97501 -21.678955
88.169327 -264.61392 -6.162117
93.932304 -264.64203 -6.1728659
85.374054 -264.74658 -6.472518
93.413574 -264.69 -8.5129967
92.404633 -264.60318 -9.6940336
95.495819 -264.63727 -9.702425
85.436584 -264.71613 -10.534751
86.449646 -264.6825 -10.627326
80.150291 -264.79376 -10.950462
86.39006 -264.65134 -10.882181
86.45417 -264.73672 -10.88386
86.488434 -264.62701 -11.075752
85.695061 -264.66779 -11.247667
86.357368 -264.72763 -11.339997
85.672272 -264.70129 -11.476103
85.704971 -264.76663 -11.899987
80.074951 -264.76251 -12.087172
86.429398 -264.7645 -12.055976
86.87442 -264.69586 -12.049459
80.68364 -264.78384 -12.217358
80.862892 -264.76776 -12.212255
80.266891 -264.77246 -13.037714
80.925644 -264.77536 -13.691953
95.684608 -264.77832 -13.62631
90.913269 -264.6904 -13.93602
80.168777 -264.7381 -14.571181
80.204597 -264.71753 -14.900747
84.751053 -264.78006 -15.448139
85.559265 -264.71704 -15.484579
91.034325 -264.67734 -16.436817
91.700661 -264.7298 -17.078512
84.90905 -264.67883 -18.769936
92.293007 -264.76419 -19.065624
84.45713 -264.7207 -19.21122
84.639252 -264.69189 -20.04015
81.144859 -264.67151 -20.548481
85.552139 -264.67834 -21.379961
93.537247 -264.48035 -6.1121192
94.421494 -264.50693 -7.329936
93.38945 -264.52756 -8.328743
85.6474 -264.47858 -9.4993706
95.403854 -264.41766 -9.5507774
85.592957 -264.47845 -9.8702641
85.210777 -264.48132 -10.30163
85.950294 -264.49896 -10.33045
86.873917 -264.49921 -10.393486
86.268311 -264.53699 -10.474609
86.699417 -264.46219 -10.408453
86.869362 -264.50336 -10.448215
94.854416 -264.43311 -10.824081
96.244781 -264.50177 -12.568958
90.591866 -264.59039 -14.545225
91.460342 -264.5365 -14.895338
91.09816 -264.46973 -15.070065
91.828796 -264.49014 -15.519424
91.837929 -264.55148 -15.76003
90.86377 -264.59299 -15.874306
91.033073 -264.53876 -15.850362
84.976585 -264.51837 -16.653488
91.501129 -264.54507 -16.637253
84.636269 -264.4447 -17.465361
86.027466 -264.54883 -18.542583
84.856056 -264.49789 -19.253855
82.200241 -264.58798 -21.584637
89.360764 -264.35229 -6.183486
90.591827 -264.30222 -6.1532302
92.720001 -264.32355 -6.1182728
94.369034 -264.29889 -8.1256924
93.431854 -264.20709 -8.3217506
86.366936 -264.29898 -9.0101395
86.378777 -264.36188 -9.357254
86.809563 -264.2861 -9.4881506
95.146545 -264.34628 -9.8112125
92.95961 -264.20563 -10.549908
94.914108 -264.3208 -10.508448
94.520973 -264.2829 -11.420385
92.257004 -264.22296 -11.865212
96.522034 -264.27472 -12.609966
91.105042 -264.23093 -14.518619
91.352676 -264.21179 -14.620485
91.295288 -264.24249 -14.982221
85.034058 -264.2666 -16.13245
84.703438 -264.23987 -16.351189
85.883926 -264.20459 -16.440964
85.346535 -264.2229 -17.077728
85.401703 -264.32532 -17.291149
92.189804 -264.3132 -18.996262
87.006393 -264.08157 -6.145267
94.97644 -264.17322 -6.1621008
96.475815 -264.11749 -6.100028
81.743927 -264.10785 -6.2738628
85.559891 -264.06851 -6.8241019
92.27002 -264.12656 -7.6693559
93.917435 -264.18616 -7.7161741
86.323608 -264.08496 -7.8970842
85.119362 -264.16101 -8.1262856
85.796082 -264.11969 -8.0844326
86.341507 -264.10938 -8.0941429
86.569626 -264.06934 -8.0336561
86.594887 -264.17548 -8.8425322
95.33371 -264.06244 -8.9645748
95.13649 -264.06097 -9.0467625
94.72625 -264.10748 -10.797727
92.527626 -264.09021 -11.362123
90.838989 -264.08978 -13.880413
91.638397 -264.1579 -14.643646
91.418167 -264.1543 -15.362003
84.902344 -264.15753 -17.529968
90.517906 -264.17706 -17.461538
90.915009 -264.1795 -17.424065
84.775032 -264.11734 -17.745687
84.693573 -264.09296 -18.080202
91.001617 -264.12625 -18.270548
85.249817 -264.12003 -19.385799
84.575775 -264.08871 -19.833252
96.687912 -263.94617 -6.1047449
80.124619 -263.93365 -6.236516
81.448891 -263.90137 -6.2665629
85.516403 -263.88571 -6.659162
86.266998 -263.91653 -6.9799762
92.363335 -263.94189 -7.6917839
92.128067 -263.83136 -8.9133844
92.494247 -263.85828 -8.9998684
95.550613 -263.82892 -9.0867357
92.209579 -263.89041 -9.7931976
94.55246 -263.87726 -11.394655
92.194778 -263.83939 -12.433386
92.690186 -263.86264 -12.437317
91.33754 -263.81329 -14.606459
91.468513 -263.82214 -15.355585
85.620636 -263.9935 -16.34919
84.803162 -263.98203 -16.824301
92.587051 -263.978 -17.465515
89.975098 -263.80215 -17.917343
91.259247 -263.86951 -19.547638
88.054825 -263.74854 -6.1685281
80.937401 -263.72711 -6.226007
85.419258 -263.77014 -6.259438
88.923706 -263.68179 -6.2089739
94.079964 -263.77142 -6.522788
94.499786 -263.71707 -6.7180638
94.520401 -263.67163 -6.86799
94.109245 -263.77646 -7.4066091
94.383118 -263.69061 -7.8480339
94.384796 -263.67145 -8.1230583
93.917671 -263.702 -8.2632656
93.933929 -263.72217 -8.4884977
92.273987 -263.67252 -8.7080927
92.613686 -263.69214 -9.3988104
94.308167 -263.651 -9.3967028
91.850899 -263.64716 -9.4277515
92.753319 -263.79187 -9.897644
92.124481 -263.72653 -10.104096
92.740028 -263.75589 -10.216254
93.003197 -263.71063 -10.63869
93.083282 -263.75937 -10.911816
80.18428 -263.75732 -11.136944
92.344116 -263.72144 -11.353818
92.323456 -263.74683 -11.97333
93.420181 -263.7774 -11.883286
93.63131 -263.69855 -12.399644
92.701324 -263.79239 -12.432895
90.982834 -263.77957 -13.568647
93.16391 -263.61871 -14.218843
96.101791 -263.7287 -14.815101
91.641769 -263.61151 -15.551079
91.696472 -263.63831 -15.693366
91.395927 -263.79605 -15.960889
91.162621 -263.63818 -16.643669
90.282532 -263.74176 -17.595545
91.4133 -263.64075 -17.529144
85.162872 -263.62366 -17.601254
92.633064 -263.71927 -17.684906
85.288971 -263.7562 -18.280003
86.351837 -263.69308 -18.271646
93.840698 -263.63611 -18.46583
85.398865 -263.64178 -18.640656
84.237869 -263.70377 -19.890173
81.783951 -263.49896 -6.1804638
87.541412 -263.46451 -6.1303172
90.509293 -263.43918 -6.130908
83.407883 -263.4787 -6.2135072
94.064926 -263.48718 -6.6550999
93.985931 -263.55341 -6.8828688
94.079262 -263.47534 -6.8814378
93.97258 -263.51724 -7.3508339
94.107529 -263.45111 -7.325336
92.686935 -263.41177 -7.7090082
94.389359 -263.51965 -7.719882
94.445404 -263.53131 -7.7011271
94.428566 -263.54675 -7.8701568
93.85112 -263.58746 -8.2858572
93.898117 -263.48975 -8.5943861
94.343002 -263.46472 -8.4688129
94.32843 -263.43149 -8.7327099
93.847198 -263.48889 -8.9384937
92.336243 -263.43231 -9.0000181
92.312988 -263.47205 -11.400257
93.410522 -263.53949 -12.212891
96.352036 -263.40479 -12.773831
92.638039 -263.52545 -13.391573
94.056053 -263.41391 -13.847223
91.197479 -263.44543 -14.5193
93.535545 -263.45258 -14.400779
91.456512 -263.44092 -15.068388
94.006653 -263.44165 -15.828968
93.925095 -263.54755 -16.189369
91.071426 -263.5401 -16.761272
93.01506 -263.41437 -17.207123
93.427292 -263.48785 -17.519211
93.907852 -263.47723 -18.298969
80.385124 -263.3692 -6.1897378
89.222595 -263.32489 -6.1228299
89.429192 -263.31641 -6.170505
94.701401 -263.31366 -6.1575351
82.489906 -263.32819 -6.2405701
85.09523 -263.37677 -6.2171168
94.12915 -263.38269 -6.944417
94.154404 -263.35587 -7.045949
94.304352 -263.37109 -7.3268609
93.490189 -263.28558 -8.445055
92.539368 -263.37585 -8.7208881
94.069359 -263.36761 -9.3467751
94.219749 -263.36237 -9.4176378
94.160393 -263.35944 -9.6975441
92.630646 -263.29239 -9.8282709
94.922577 -263.30856 -10.543065
80.139763 -263.35864 -11.087729
94.088509 -263.34637 -11.138692
93.017578 -263.38263 -11.424561
92.214142 -263.39899 -12.457095
91.476997 -263.3251 -13.130289
91.065453 -263.34604 -13.290549
93.999344 -263.31082 -13.376595
91.277367 -263.31903 -13.441922
91.339615 -263.33752 -13.875654
93.108582 -263.25531 -13.929886
91.189598 -263.39584 -14.267846
91.345886 -263.25412 -14.545527
91.692368 -263.32056 -15.340445
85.077637 -263.3219 -16.905109
85.690735 -263.39285 -17.240122
85.185051 -263.22302 -17.481171
85.554245 -263.21957 -17.746229
86.636681 -263.32254 -18.048454
86.228745 -263.3576 -18.200317
85.148834 -263.28726 -18.551376
85.231735 -263.23096 -19.347183
84.999489 -263.27045 -19.444399
91.792892 -263.25446 -19.716372
84.168892 -263.36636 -20.057238
82.803734 -263.28156 -21.508965
81.376167 -263.03052 -6.174789
88.519104 -263.0744 -6.100697
89.581642 -263.02014 -6.0720382
91.44371 -263.17493 -6.1567278
94.317123 -263.06931 -6.1869788
95.91407 -263.09906 -6.1000171
80.515137 -263.07642 -6.2106528
81.027298 -263.08435 -6.2047191
94.239998 -263.10333 -7.7369761
93.004829 -263.05151 -8.17521
95.604424 -263.02826 -8.6982126
92.579742 -263.06329 -9.5004005
92.611732 -263.18768 -9.7469034
92.678177 -263.03607 -10.641025
94.992439 -263.06866 -10.645363
80.184479 -263.05832 -11.412427
95.565514 -263.08099 -11.670818
95.549667 -263.10208 -12.170584
94.201996 -263.08569 -13.035287
91.128479 -263.1796 -13.321938
91.360321 -263.11166 -13.250549
91.347588 -263.13669 -13.489863
91.289215 -263.04187 -13.832708
91.891327 -263.06747 -14.964348
91.82576 -263.06436 -16.288208
85.395157 -263.18463 -17.580181
91.745895 -263.03134 -19.519506
81.320618 -262.97382 -6.1968288
84.180573 -262.90366 -6.1723609
86.928528 -262.93094 -6.122674
87.25386 -262.80771 -6.142653
92.911003 -262.84631 -6.0898619
97.803955 -262.96039 -6.0431681
99.354317 -262.9697 -6.0336652
81.855659 -262.98517 -6.2081871
82.175156 -262.89447 -6.2616329
93.116837 -262.84354 -7.7792158
93.373367 -262.96634 -7.7293758
93.408852 -262.95059 -7.7507901
93.087746 -262.88339 -7.904418
92.948303 -262.86298 -8.1330853
92.349915 -262.84726 -8.7719078
92.512001 -262.89996 -8.7669315
92.555336 -262.87973 -9.100935
95.900948 -262.88165 -9.1506243
96.143379 -262.88794 -9.1575184
80.075462 -262.95111 -10.375217
92.401146 -262.89246 -10.294971
80.415527 -262.88483 -10.521299
94.665405 -262.86044 -10.474375
96.27578 -262.81244 -10.599605
96.247833 -262.83252 -10.647793
96.440666 -262.8241 -10.719751
96.190155 -262.89011 -10.94221
96.048576 -262.82635 -11.234108
92.460358 -262.94708 -11.468429
93.38504 -262.95923 -11.677114
94.074387 -262.8912 -11.638443
91.355095 -262.98401 -11.940036
91.41954 -262.93671 -12.150191
93.688889 -262.94012 -12.102554
95.731735 -262.92587 -12.157667
90.99527 -262.98926 -12.36867
91.799149 -262.95758 -12.224405
90.982986 -262.92776 -12.510914
91.207489 -262.95374 -12.45682
95.95079 -262.90152 -13.028189
91.733353 -262.95285 -13.652062
93.521301 -262.90991 -14.699187
92.057373 -262.89569 -19.729115
94.673584 -262.62302 -5.9671111
80.911362 -262.68604 -6.154067
84.913254 -262.64169 -6.1154709
85.304062 -262.6153 -6.1077018
86.564301 -262.62933 -6.1974192
89.159576 -262.73209 -6.032393
91.01001 -262.65173 -6.0396118
92.28157 -262.61768 -6.0166821
93.771072 -262.73468 -6.0319862
95.684143 -262.71442 -6.1039252
97.200829 -262.76279 -6.1007051
92.701218 -262.75461 -7.453588
92.228821 -262.61172 -8.0662441
92.97226 -262.63696 -8.5490627
95.847488 -262.64343 -8.7861729
96.123741 -262.68713 -8.9286699
92.628105 -262.7352 -9.1216307
95.079819 -262.63983 -9.7615147
80.531364 -262.75732 -10.028429
96.466141 -262.7522 -10.610458
91.954132 -262.61194 -10.811708
94.973869 -262.70444 -11.042824
95.726891 -262.71823 -11.33346
94.524384 -262.73453 -11.555607
96.436592 -262.6521 -11.499615
91.665268 -262.67108 -11.833813
90.86515 -262.60751 -12.665105
94.154922 -262.60809 -12.717427
95.466286 -262.65466 -12.874554
91.839539 -262.61395 -13.03003
91.411041 -262.62552 -14.142562
92.237267 -262.62479 -17.508703
85.118759 -262.6568 -19.155851
83.301064 -262.65497 -21.878111
89.280426 -262.4245 -5.997345
93.557709 -262.46127 -5.972158
94.476723 -262.48923 -5.9626708
87.246857 -262.44846 -6.107553
87.750015 -262.50247 -6.0720258
88.250542 -262.43793 -6.0907431
96.176079 -262.49832 -6.0815749
99.344238 -262.56445 -6.0114632
92.220581 -262.47577 -6.866612
92.094955 -262.57898 -8.1296349
92.436333 -262.52136 -8.1350813
92.104317 -262.46704 -8.2458448
80.154144 -262.4733 -9.8403797
96.171341 -262.51791 -9.8906536
96.286407 -262.41562 -9.9800282
91.5448 -262.45975 -10.639344
91.862823 -262.54047 -10.684721
95.432175 -262.46683 -10.626498
93.015511 -262.5907 -10.918468
93.353027 -262.52884 -11.30914
92.448441 -262.57452 -11.424548
93.951141 -262.42972 -12.108717
91.445648 -262.53839 -12.598831
92.443375 -262.52722 -13.399938
93.653931 -262.5517 -14.132984
93.427612 -262.58685 -14.200705
92.667038 -262.58865 -14.469124
92.930008 -262.50964 -14.693713
93.005531 -262.47446 -15.028183
90.621948 -262.52295 -17.904417
92.378395 -262.5412 -18.005394
90.719116 -262.5184 -18.271328
92.098366 -262.40323 -18.455093
97.283905 -262.23413 -6.0368629
99.300049 -262.29376 -6.0197501
85.948586 -262.33463 -6.2151752
94.941681 -262.30798 -8.5301809
95.471405 -262.3316 -8.5450478
92.813988 -262.28827 -8.7190685
94.891464 -262.20099 -8.6878929
95.290321 -262.28534 -8.7525349
92.626335 -262.20044 -8.9158669
95.545921 -262.30151 -8.9733667
95.68409 -262.24469 -8.9000292
96.038376 -262.25491 -8.9067755
95.439217 -262.36496 -9.3064766
95.318741 -262.29407 -9.7850351
80.431198 -262.30353 -10.38242
95.164658 -262.28046 -10.274649
95.82975 -262.24854 -10.215693
80.273117 -262.21371 -10.435003
93.399818 -262.36047 -10.944253
95.515457 -262.21674 -10.968678
94.965637 -262.32336 -11.056149
95.814278 -262.3028 -11.029426
96.144989 -262.35425 -11.071717
95.790146 -262.35938 -11.276785
92.465897 -262.32483 -11.861515
96.506714 -262.34689 -11.877371
93.969971 -262.36603 -12.056862
96.097298 -262.20139 -12.188552
91.40947 -262.302 -12.283825
94.573494 -262.26395 -12.444939
95.724129 -262.21564 -12.584221
92.123764 -262.24203 -12.921173
92.470428 -262.28143 -13.377514
92.15863 -262.22794 -13.669138
91.570175 -262.39011 -14.27743
91.717918 -262.30673 -14.490767
93.074463 -262.23871 -14.612131
92.916077 -262.23535 -15.955572
92.644821 -262.38034 -16.30797
92.018196 -262.25479 -17.760265
90.669388 -262.26794 -18.224648
90.958374 -262.29468 -18.516434
84.944305 -262.22217 -20.054276
91.492233 -262.30533 -21.010654
89.673927 -262.16037 -5.9840579
91.301346 -262.19241 -5.9827571
81.7957 -262.18164 -6.1047502
85.514191 -262.14044 -6.1254368
86.230202 -262.14014 -6.0611248
94.964508 -262.11649 -6.0495
95.125099 -262.05487 -8.680748
92.712036 -262.07715 -8.8011122
92.691704 -262.05603 -9.0929852
94.742249 -262.15057 -9.371192
93.073082 -262.15787 -9.5890646
93.447884 -262.00293 -9.5778818
91.781189 -262.11075 -10.27922
92.912125 -262.12939 -10.242672
95.750305 -262.12344 -10.348251
93.430138 -262.12488 -10.977845
80.057007 -262.0444 -11.105704
93.789284 -262.05869 -11.141161
80.016907 -262.00943 -11.311444
93.516884 -262.16919 -11.229004
94.134155 -262.19998 -12.20707
95.420074 -262.0932 -12.246908
92.677063 -262.11182 -13.739676
92.821915 -262.07306 -13.73189
94.813202 -262.01062 -13.629566
92.878693 -262.19839 -15.076671
92.084625 -262.12274 -18.418242
84.654968 -262.17786 -20.53841
88.291084 -261.80884 -5.992414
88.593208 -261.87915 -5.94414
92.242432 -261.80588 -5.9152279
83.44751 -261.80566 -6.1251149
85.334274 -261.87402 -6.1342139
96.832481 -261.94095 -6.0331302
92.762054 -261.89093 -6.228673
92.689873 -261.8609 -6.6213632
95.017776 -261.95792 -8.2925262
95.501297 -261.87009 -8.3675919
92.314629 -261.99597 -8.5097876
95.113281 -261.92679 -8.4700565
95.285789 -261.82681 -8.429553
92.707352 -261.84964 -8.8691072
80.145729 -261.83624 -9.1159792
93.426552 -261.92932 -9.0459538
80.809784 -261.86993 -9.5342407
92.986801 -261.95825 -9.4459515
93.354012 -261.92813 -9.4895859
93.3452 -261.82413 -9.7496281
95.453659 -261.8858 -10.295322
95.718857 -261.89407 -10.327545
93.008675 -261.94443 -10.434302
93.327309 -261.91327 -10.509666
91.548264 -261.91223 -10.711362
92.017357 -261.95187 -10.995345
93.580383 -261.94043 -10.916887
92.209427 -261.89624 -11.360099
94.140961 -261.86102 -11.458828
94.651489 -261.83618 -11.536227
93.946205 -261.80573 -11.634008
91.405952 -261.96841 -12.137644
91.789757 -261.84988 -12.275646
95.023483 -261.87775 -12.510834
94.419052 -261.96707 -13.333689
92.944321 -261.91498 -14.516074
93.276421 -261.97534 -14.751421
93.101883 -261.94693 -16.696957
92.252983 -261.82779 -19.503977
87.426682 -261.74612 -5.9863901
90.066429 -261.75876 -5.9401498
90.97599 -261.74875 -5.9452348
92.880737 -261.70065 -5.8930449
97.445465 -261.72968 -5.9829588
81.775528 -261.66843 -6.0587101
95.785019 -261.69879 -6.065794
80.342453 -261.77466 -8.924284
80.485016 -261.78458 -9.0763063
93.323914 -261.70151 -9.0625858
80.177505 -261.7562 -9.3706818
94.776138 -261.67896 -10.700525
91.257042 -261.70032 -10.946196
92.085136 -261.77008 -11.097178
94.732597 -261.75461 -11.8594
92.967468 -261.66058 -12.130546
93.771507 -261.76724 -12.239614
92.602234 -261.76031 -13.679132
88.222092 -261.40173 -5.9514089
96.513855 -261.46201 -5.9957762
82.039352 -261.55499 -6.0715342
82.600769 -261.55829 -6.0421071
99.935699 -261.42511 -6.848536
94.563225 -261.56451 -8.7087173
92.758652 -261.55762 -8.9382668
80.703217 -261.57272 -9.3098469
95.441788 -261.48312 -9.4565277
93.574524 -261.41583 -10.029026
95.315109 -261.5744 -10.504438
94.079773 -261.46674 -10.655579
94.500992 -261.43832 -10.659832
91.821037 -261.57159 -10.927431
91.842186 -261.56888 -11.140881
94.052414 -261.41196 -11.133882
95.353004 -261.42993 -11.052034
92.535736 -261.48547 -11.362125
95.133072 -261.42673 -11.27042
95.795609 -261.41791 -11.542713
92.277298 -261.53015 -11.713365
92.647903 -261.40512 -11.854774
96.26178 -261.4642 -12.528277
95.80069 -261.53452 -12.618402
92.647903 -261.42813 -13.352757
94.480072 -261.50269 -13.230708
92.33223 -261.539 -13.56424
92.808395 -261.54462 -13.602745
94.21769 -261.5741 -13.892395
92.170364 -261.42474 -19.511806
84.046097 -261.35272 -5.954556
89.904381 -261.35855 -5.905664
91.734192 -261.33514 -5.8983812
92.571312 -261.39026 -5.9009171
81.08564 -261.37915 -6.0566912
94.777092 -261.36569 -6.0241728
96.275253 -261.38287 -6.0175471
99.874443 -261.39404 -6.0469518
80.718529 -261.26819 -9.126811
80.812225 -261.37164 -9.4461174
95.050941 -261.36215 -9.5069962
93.486572 -261.30072 -9.7366638
95.145996 -261.26862 -9.7503815
80.605728 -261.27859 -9.8504915
94.180237 -261.2254 -10.290705
94.763023 -261.28717 -10.268609
94.482277 -261.38708 -10.56971
95.772408 -261.20724 -10.796188
95.171059 -261.30078 -11.230384
95.497437 -261.38647 -11.334639
93.626015 -261.21307 -11.849985
92.712189 -261.35034 -12.199609
92.900284 -261.30042 -12.192791
82.580154 -261.23419 -18.957874
82.29763 -261.25528 -19.107769
84.631119 -261.01413 -5.9669328
91.85614 -261.0983 -5.8951349
93.05986 -261.13605 -5.89573
99.854248 -261.03741 -5.985703
80.623375 -261.04956 -9.8147821
94.584915 -261.07343 -9.8917685
93.947922 -261.06412 -10.102604
92.214447 -261.16815 -11.19063
93.497299 -261.05338 -12.548617
94.085861 -261.09055 -12.711641
92.906525 -261.15802 -14.540119
84.966919 -260.97015 -5.9669452
87.741104 -260.92343 -5.9255018
89.204956 -260.96326 -5.9207592
91.485039 -260.9404 -5.9041162
94.115471 -260.90936 -5.905952
81.122292 -260.93457 -6.0215201
83.867317 -260.94348 -6.0329938
80.321991 -260.87436 -9.1079941
94.260826 -260.90295 -9.8879566
94.630753 -260.97519 -10.295288
95.615547 -260.98608 -10.75551
80.100967 -260.92157 -10.912125
95.713104 -260.86584 -10.957647
82.54863 -260.95032 -18.607872
83.924774 -260.9046 -20.445065
92.114693 -260.63348 -5.8810859
80.889053 -260.77728 -6.0302958
81.021317 -260.62781 -6.0195308
80.424599 -260.60913 -9.4600477
94.87542 -260.68045 -9.5904007
94.681587 -260.65927 -9.6678867
93.837654 -260.62213 -10.087374
80.338509 -260.75702 -10.51913
95.522339 -260.77936 -10.633284
95.614716 -260.73682 -10.740829
95.561729 -260.79865 -10.928683
95.904556 -260.72723 -11.125374
82.477257 -260.60318 -18.086895
85.205063 -260.74527 -19.115004
84.437485 -260.53836 -5.9724679
84.775452 -260.47403 -5.979394
87.007133 -260.58121 -5.931551
87.852737 -260.48624 -5.914104
94.725266 -260.50742 -5.855958
94.913506 -260.48016 -5.9260588
95.386719 -260.50537 -5.988615
96.313774 -260.49603 -5.986105
81.888573 -260.54691 -6.0026278
93.727203 -260.52621 -10.03599
80.092461 -260.58878 -10.271144
94.251076 -260.53107 -10.249168
95.554817 -260.56485 -11.243355
81.349472 -260.2482 -5.9868989
86.043121 -260.25137 -5.9481859
87.406616 -260.31506 -5.9211521
88.227264 -260.2905 -5.918911
92.941948 -260.21304 -5.8584199
98.072762 -260.25476 -5.9658961
80.847641 -260.28851 -6.0440378
80.274628 -260.35217 -9.3458529
94.949257 -260.2662 -9.7618303
95.038193 -260.21689 -9.9972763
83.862579 -260.05725 -5.9894509
85.380569 -260.11755 -5.974648
86.21756 -260.00485 -5.9365578
88.911484 -260.15149 -5.9009142
90.2341 -260.15387 -5.8865871
94.665451 -260.10083 -9.9800816
94.946991 -260.09131 -10.100954
83.943954 -260.19193 -19.070066
98.526932 -279.61383 -7.5893259
98.554199 -279.65094 -8.0941391
98.561768 -279.45618 -8.7071161
98.588455 -279.53754 -9.7303047
94.553085 -279.23557 -9.2456379
97.836678 -279.26096 -9.2839527
98.596329 -279.37772 -10.26665
98.604156 -279.33655 -10.677448
98.647545 -279.22769 -12.264185
97.387436 -279.14075 -13.09741
97.433792 -279.07822 -13.611025
98.648766 -278.90491 -6.6633511
99.128128 -278.82327 -6.6616411
98.63205 -278.7077 -9.890976
98.650925 -278.61334 -14.609682
98.595711 -278.50897 -7.1209521
98.634109 -278.5332 -9.0624428
98.603271 -278.3606 -6.6101012
98.662994 -278.20459 -12.600509
98.610039 -278.17087 -8.3276367
98.665215 -278.16684 -9.0167503
98.628906 -278.18481 -9.4260979
94.925941 -278.03192 -13.01743
96.175499 -277.866 -6.955689
96.974586 -277.88428 -6.939744
94.928963 -277.81427 -7.1431551
95.850594 -277.83408 -7.870626
97.301666 -277.82358 -8.544528
94.611397 -277.82397 -8.6384687
98.666061 -277.86792 -11.454224
95.779144 -277.75443 -8.1404285
94.669922 -277.66547 -9.348465
95.771523 -277.68542 -12.519979
95.730011 -277.67432 -12.890865
95.360649 -277.66461 -13.005735
98.689026 -277.64246 -13.292269
94.630295 -277.50232 -8.2227154
98.122742 -277.4809 -8.2277117
98.66526 -277.44186 -9.349081
98.243378 -277.41998 -12.179163
98.690147 -277.55804 -12.310827
98.716904 -277.44324 -12.606415
98.330276 -277.56006 -20.533457
99.96254 -277.26062 -6.5315032
97.308678 -277.31854 -8.1841831
98.679214 -277.32388 -10.248554
98.854584 -277.29504 -11.035627
98.647751 -277.04773 -6.6170149
98.648827 -277.00342 -6.9903488
94.672752 -277.06171 -9.3126717
94.657913 -276.99438 -7.3522568
94.641632 -276.95325 -7.7054539
97.717171 -276.86261 -7.9103689
96.613541 -276.89062 -8.8689585
98.827133 -276.91302 -9.4739838
98.688164 -276.90778 -10.110838
94.666306 -276.6449 -6.950747
98.685104 -276.62613 -8.9803276
98.262543 -276.61267 -9.0517197
98.721382 -276.63885 -11.498405
97.209488 -276.60104 -12.730139
94.682533 -276.57538 -8.1111059
94.693672 -276.55084 -8.7305298
96.10569 -276.5188 -9.1269083
98.739182 -276.55072 -11.905205
94.713638 -276.51947 -12.207512
98.768539 -276.42151 -12.657954
97.096565 -276.55698 -12.8099
99.338646 -276.58582 -20.448696
94.696915 -276.22388 -7.9386811
92.858971 -276.33044 -12.949871
98.741798 -276.246 -13.026041
98.277893 -276.17224 -9.0088224
98.846169 -276.19836 -9.7331848
98.320465 -276.19 -12.127295
98.754524 -276.11365 -12.710759
99.465332 -276.09314 -21.167784
98.704613 -275.84973 -7.8240762
94.706909 -275.84369 -9.1257505
94.736618 -275.95078 -9.2314243
94.764282 -275.90039 -12.614301
94.683853 -275.77032 -6.8813109
98.699173 -275.75931 -6.958921
98.285339 -275.75742 -8.2705421
98.291382 -275.77216 -8.9918108
98.730804 -275.76074 -9.4149485
98.744247 -275.78009 -10.36272
98.752396 -275.78601 -11.014338
98.34819 -275.7547 -11.947567
98.757278 -275.63861 -12.752937
98.760117 -275.7901 -12.86318
98.298714 -275.42328 -8.2479696
94.752205 -275.42072 -11.871765
98.707458 -275.38947 -6.6129899
97.240669 -275.29077 -7.4295139
98.694183 -275.26773 -12.155547
98.797394 -275.22073 -14.395542
98.77066 -275.37344 -14.515362
97.813255 -275.22107 -19.263664
97.773369 -275.14584 -6.7114301
98.169853 -275.1362 -6.70681
94.733101 -275.08929 -7.0275922
94.720718 -275.12372 -8.2388973
98.742035 -275.0863 -8.9740238
98.766418 -275.06064 -10.202029
98.374481 -275.18301 -11.823913
98.735168 -274.93719 -7.4381971
98.761749 -274.86426 -9.5143595
95.75882 -274.96161 -12.922216
96.9786 -274.93726 -12.864986
98.744812 -274.78815 -10.673077
94.797958 -274.6947 -12.060778
97.513725 -274.71655 -12.903639
97.159317 -274.55322 -6.6141429
98.354591 -274.58694 -7.4958849
89.449059 -274.55768 -8.258707
90.519569 -274.49164 -8.3443632
98.78389 -274.48407 -10.292089
98.777939 -274.59412 -11.491652
98.802933 -274.51953 -11.867438
94.817871 -274.46234 -12.061584
98.666534 -274.4686 -20.368755
87.858139 -274.3797 -8.0922737
88.814484 -274.29581 -8.2161341
94.7323 -274.38437 -8.7448864
98.770172 -274.24451 -8.7275705
87.906761 -274.34863 -8.8750496
87.79763 -274.33929 -9.3027687
94.720886 -274.35657 -11.856819
98.643555 -274.33096 -20.456934
94.75798 -274.17535 -6.7219939
98.781326 -274.18475 -7.8088412
98.77272 -274.1402 -8.3308372
98.785507 -274.13812 -10.47592
98.824112 -274.15253 -11.612019
98.832733 -274.13348 -14.12192
94.650742 -274.16626 -18.233757
94.742134 -273.81876 -7.1444268
82.514107 -273.89313 -8.9242239
91.548264 -273.81949 -9.3872414
95.829231 -273.9054 -12.852372
98.862411 -273.83459 -14.05815
98.412903 -273.98334 -20.304688
97.946503 -273.7175 -7.45365
98.766769 -273.76437 -7.527142
98.811249 -273.64429 -7.4174948
91.550903 -273.75241 -8.7301502
98.764236 -273.71906 -8.6225538
98.83976 -273.76373 -11.337148
99.493423 -273.79932 -14.132219
94.657196 -273.79074 -18.282364
98.392456 -273.75772 -20.328976
98.781837 -273.52167 -7.783154
98.84996 -273.5611 -9.1650887
98.912331 -273.53656 -9.6539688
98.848465 -273.43726 -11.420424
98.785515 -273.39017 -6.870429
98.831551 -273.31049 -7.1334472
94.986938 -273.29703 -7.8860679
98.753784 -273.36932 -8.6293831
85.744728 -273.24393 -8.974328
98.87587 -273.24655 -10.786357
98.86261 -273.31268 -13.867346
95.795052 -273.07321 -6.6197548
96.670998 -273.11075 -6.6741791
98.57917 -273.0368 -6.6972179
97.299362 -273.13681 -6.9741802
97.935059 -273.04239 -6.976963
95.84845 -273.07693 -7.2962651
96.374779 -273.12695 -7.200273
96.56102 -273.07755 -7.303731
97.935165 -273.03317 -7.4819441
95.899315 -273.07697 -7.7284479
97.931076 -273.04886 -7.9549842
98.113281 -273.05139 -8.1557035
98.231018 -273.02142 -8.1789064
97.699989 -273.12701 -8.6808891
95.162758 -273.02832 -8.9192877
97.997269 -273.03253 -8.9564199
97.362366 -273.04401 -9.0120831
98.824966 -273.02832 -9.4880486
98.855873 -273.02213 -10.413498
98.849594 -273.07663 -10.685574
97.642136 -273.12213 -11.492802
98.131882 -273.05542 -11.504643
94.672905 -273.15674 -18.201382
96.880447 -273.15512 -18.991051
98.283554 -272.91824 -6.741642
94.947983 -272.92221 -7.1123738
94.909164 -272.85477 -8.1146402
94.87104 -272.85251 -8.3865318
94.912079 -272.88992 -8.6546621
95.089088 -272.93182 -8.9133759
98.226242 -272.96741 -8.8659439
98.079147 -272.99179 -9.0521975
95.476974 -272.85419 -9.5306587
98.666107 -272.97992 -9.5384884
96.651794 -272.89343 -9.7535315
94.893066 -272.84625 -9.9086094
95.035568 -272.84836 -9.8145657
96.229675 -272.88477 -9.8859577
98.669998 -272.95471 -10.288326
95.403229 -272.8454 -10.531997
96.542755 -272.87949 -10.698748
97.254723 -272.90421 -10.735249
98.691704 -272.94351 -10.716348
96.640884 -272.88358 -10.944719
97.425354 -272.91599 -10.916899
98.682518 -272.97134 -10.988794
96.264114 -272.86432 -11.024208
95.316559 -272.82513 -11.274065
97.080719 -272.92807 -11.339815
98.246582 -272.93201 -11.394785
95.103287 -272.89008 -11.756414
98.841278 -272.95758 -11.679296
96.658768 -272.88623 -12.199633
96.22229 -272.91089 -12.710152
97.256416 -272.94363 -12.795247
95.40799 -272.96698 -12.846005
96.952911 -272.84155 -12.878444
98.148216 -272.83179 -12.816522
96.248016 -272.85352 -13.010241
98.591675 -272.8606 -13.212631
98.689743 -272.8916 -13.263687
97.553665 -272.83093 -13.413078
97.11235 -272.82263 -14.12726
98.305298 -272.85931 -14.323112
97.397247 -272.82965 -14.638326
97.824158 -272.84415 -15.013018
98.313858 -272.8371 -15.028404
94.681023 -272.97479 -18.115683
95.769455 -272.84631 -18.745703
99.717384 -272.67999 -6.348907
94.733673 -272.60043 -7.104115
94.878891 -272.69073 -7.4153399
94.770187 -272.61621 -7.7967291
94.871704 -272.73694 -10.954339
94.903114 -272.73462 -11.044596
96.598877 -272.77905 -11.377096
95.07869 -272.76135 -11.437099
94.883911 -272.69995 -11.722888
95.085609 -272.73938 -12.254457
95.164085 -272.78839 -12.505032
95.857719 -272.77151 -13.116107
96.180283 -272.77466 -13.06219
95.22937 -272.72351 -13.838833
95.509705 -272.76587 -13.955736
96.878265 -272.79575 -13.819794
99.473068 -272.74344 -13.976992
94.945618 -272.66675 -14.136067
96.255409 -272.78171 -14.124333
97.515381 -272.78906 -14.619693
95.704895 -272.73126 -14.912796
95.454308 -272.6629 -17.928705
97.679169 -272.75244 -17.836544
95.467224 -272.65326 -18.234478
94.827171 -272.44791 -7.4648428
94.815506 -272.4382 -7.8786759
94.875427 -272.44891 -8.9076939
97.405594 -272.52246 -9.0681705
94.894424 -272.56506 -11.01457
94.916061 -272.44025 -13.898867
98.916512 -272.21909 -6.2595038
94.935745 -272.34833 -10.518341
99.287804 -272.22943 -11.260593
86.170158 -272.23666 -12.942295
95.573509 -272.34579 -18.150164
96.618759 -272.34109 -19.050659
96.50621 -272.14633 -6.5391221
94.841141 -272.18658 -7.2795348
85.743294 -272.08963 -8.970521
94.861946 -272.19385 -9.7639275
94.8918 -272.11707 -11.568722
88.892914 -272.10831 -13.172998
94.915627 -272.14935 -13.813159
98.660637 -272.14752 -14.254585
96.515228 -272.02301 -18.627064
95.556061 -271.95837 -6.57482
97.37307 -271.96832 -6.4353309
98.208527 -271.98816 -6.415556
99.574806 -271.97601 -11.329197
94.924271 -271.88541 -11.907146
94.928802 -271.95895 -12.335785
99.606369 -271.81485 -14.717674
94.988754 -271.91153 -14.825682
98.596588 -271.75961 -6.35887
98.814003 -271.71661 -6.2509279
94.873032 -271.74518 -7.884409
84.878654 -271.79541 -9.0462408
94.766266 -271.74072 -11.107116
94.918976 -271.70526 -12.247665
98.870789 -271.61475 -12.55358
94.958206 -271.74988 -14.624564
96.170807 -271.71344 -18.193045
97.736137 -271.76602 -19.767008
97.527382 -271.55002 -6.3142781
85.703339 -271.47339 -8.1029692
96.548218 -271.41635 -9.2791634
97.019104 -271.48068 -9.3127031
98.867096 -271.509 -9.2490292
94.261658 -271.41476 -10.042982
94.914627 -271.41034 -10.123329
99.831535 -271.43512 -14.155762
96.329025 -271.50549 -18.197094
98.176651 -271.45868 -20.857056
98.318077 -271.25043 -6.2157159
94.878387 -271.3894 -7.7696509
95.754509 -271.37302 -9.2353077
88.91124 -271.24756 -10.117294
93.103233 -271.38913 -10.19573
82.534027 -271.26883 -10.25324
99.358231 -271.39627 -17.211809
97.129967 -271.10992 -6.2906389
94.791695 -271.18039 -8.2409592
85.798882 -271.0462 -8.79175
94.921524 -271.15448 -9.7202291
99.359558 -271.05463 -11.166193
94.957672 -271.09772 -11.709758
99.422447 -271.10669 -17.137995
95.058319 -270.94708 -6.3487191
94.934082 -270.90659 -10.305003
94.967331 -270.95996 -13.717825
97.73967 -270.93179 -17.580336
96.189484 -270.77844 -6.2636399
95.340843 -270.61725 -6.7497101
85.58532 -270.62015 -10.22448
94.911247 -270.67206 -12.736106
88.866066 -270.61923 -12.831554
95.537735 -270.68451 -17.359634
97.413139 -270.52502 -6.2449732
95.28231 -270.52188 -6.6936202
85.827042 -270.55273 -8.1735516
91.58432 -270.54465 -9.8909321
94.986694 -270.46039 -12.230474
99.290611 -270.29745 -6.2376351
94.954346 -270.28104 -6.620893
94.960968 -270.22327 -9.3330431
94.93354 -270.24957 -12.649307
94.779648 -270.29242 -13.169209
95.022781 -270.27917 -14.545028
95.929367 -270.21204 -17.28651
97.629135 -270.36176 -17.51713
94.943474 -270.10983 -7.29985
85.579308 -270.02246 -10.27355
99.879021 -270.11615 -10.935422
98.739197 -270.12555 -13.26335
94.999252 -270.17566 -13.505134
99.606018 -270.11609 -13.406919
99.123634 -270.16678 -13.953889
99.419983 -270.19055 -13.873945
91.694283 -269.91537 -7.9016509
94.941879 -269.80106 -8.2709627
85.724014 -269.82928 -8.5898628
94.658188 -269.82278 -10.083086
86.941582 -269.94699 -12.830206
99.053253 -269.95898 -13.454694
99.808914 -269.85266 -13.542961
99.894814 -269.8237 -13.835637
94.966232 -269.89127 -14.64838
99.169769 -269.65173 -6.1969552
85.857269 -269.67389 -9.2918549
99.403725 -269.77945 -10.719624
99.319321 -269.67346 -11.383493
99.758484 -269.76321 -11.336611
99.162964 -269.68323 -11.6283
95.020645 -269.6843 -12.085627
99.074112 -269.78552 -12.453185
80.317635 -269.64069 -13.178935
96.782349 -269.70871 -19.911884
96.204391 -269.54407 -6.2653971
98.075005 -269.44809 -6.2012191
91.691475 -269.44461 -8.4632902
85.864792 -269.49902 -9.2878265
91.632469 -269.45996 -9.8457022
94.987946 -269.582 -10.140631
98.702515 -269.43259 -10.531079
99.328461 -269.4957 -10.626589
99.335136 -269.46762 -11.090202
98.760002 -269.41449 -11.505033
99.114433 -269.43411 -11.452652
99.341331 -269.49088 -11.892136
91.68325 -269.51532 -12.22114
95.017136 -269.46823 -12.681049
94.933701 -269.29529 -6.3617949
98.870659 -269.35675 -10.651352
99.086807 -269.27527 -11.788218
95.028915 -269.33987 -11.889815
87.322433 -269.33105 -12.76687
94.404716 -269.20303 -12.92527
89.927261 -269.34097 -13.333166
97.797943 -269.08148 -6.1941142
95.792435 -269.03149 -6.2351789
93.024193 -269.15649 -7.789701
94.991676 -269.09537 -9.4202909
95.010971 -269.05872 -9.6993055
94.133881 -269.17294 -10.132019
95.036774 -269.08325 -10.694811
98.509277 -269.121 -10.947394
87.551521 -269.00702 -12.834963
88.413208 -269.06442 -12.800513
97.412666 -269.03708 -19.890791
94.987396 -268.91571 -7.7122779
91.766754 -268.86334 -8.0906372
95.035751 -268.99963 -11.061283
90.343094 -268.70178 -9.6819534
95.031189 -268.64905 -10.582063
99.593254 -268.74197 -11.501146
96.03598 -268.69724 -16.815487
95.008347 -268.58289 -7.3684568
91.732437 -268.59943 -7.8760948
95.017502 -268.5481 -8.7077665
82.960297 -268.49634 -9.8069592
94.101418 -268.44141 -10.142639
95.037094 -268.5202 -10.12563
99.757561 -268.47366 -12.579328
94.741898 -268.21695 -8.6156998
99.894363 -268.28076 -11.420563
91.209717 -268.24527 -13.283874
95.090424 -268.25967 -13.507393
95.024918 -268.15076 -7.2917461
91.77005 -268.10645 -8.134881
95.036491 -268.19733 -8.9102201
95.041245 -268.11334 -9.4385662
95.084091 -268.14514 -11.133256
95.065048 -268.17883 -11.317508
95.078461 -268.10886 -11.442449
95.066025 -268.12488 -12.196972
81.951523 -268.0354 -12.649266
88.563858 -268.13116 -12.81711
90.92556 -268.16534 -13.272249
98.971542 -267.88562 -6.1541109
95.101395 -267.83789 -7.2846928
85.763206 -267.86758 -8.7200689
99.726318 -267.85382 -11.551798
99.331444 -267.85095 -11.665916
89.04657 -267.84082 -12.776709
80.887581 -267.85495 -13.200708
97.378601 -267.69714 -6.1596651
95.452118 -267.6546 -7.5240731
95.044525 -267.69763 -8.6875715
92.465553 -267.60303 -10.046442
82.968018 -267.73911 -10.250757
99.150681 -267.70117 -11.535568
96.169724 -267.45746 -6.1796122
96.616402 -267.42719 -6.178659
95.027985 -267.492 -6.2989688
85.925613 -267.50894 -7.9228959
92.136215 -267.59479 -7.984283
91.803398 -267.40421 -8.8746252
81.102211 -267.5415 -9.2004805
89.020447 -267.48727 -9.7018604
82.676247 -267.43024 -9.8168325
95.072128 -267.5423 -9.8745556
84.288933 -267.58154 -10.228241
95.093788 -267.45145 -12.19259
91.639053 -267.56812 -16.421967
91.421364 -267.59259 -17.283838
95.043327 -267.35101 -8.1490993
82.883301 -267.34341 -8.3519888
92.108551 -267.39185 -9.4825745
83.028275 -267.23709 -9.9671803
95.208977 -267.29526 -9.8397913
91.983627 -267.24182 -12.585352
95.039032 -267.35489 -14.333862
95.239197 -267.27426 -14.367935
91.779892 -267.25305 -16.399654
96.514107 -267.04852 -6.1701722
95.204102 -267.09317 -7.2838502
95.086395 -267.02118 -9.2869043
82.76857 -267.00592 -9.8605595
95.101418 -267.03815 -10.423454
82.759209 -267.18607 -12.784149
91.984863 -267.13586 -12.664968
91.173676 -267.1434 -16.506119
85.863739 -266.90295 -8.1355333
95.224907 -266.93243 -8.2640972
94.761116 -266.99469 -9.5723066
95.110703 -266.95844 -10.301495
95.221939 -266.90479 -10.688354
92.866631 -266.81885 -11.540783
92.988922 -266.90927 -12.617865
95.13192 -266.96198 -13.013618
92.800484 -266.89709 -15.509928
91.070587 -266.91873 -17.140919
83.760628 -266.85239 -21.170246
95.084747 -266.70331 -7.7212729
95.213707 -266.63745 -8.9004087
91.753754 -266.64899 -9.4866457
95.214066 -266.61078 -11.458296
95.126106 -266.66028 -12.036585
92.221573 -266.65613 -15.406842
91.239433 -266.79187 -16.437298
91.725403 -266.73065 -16.556328
85.374008 -266.77606 -19.223181
97.021072 -266.54019 -6.159934
97.396957 -266.44861 -6.1535001
95.080368 -266.45499 -6.552783
95.072021 -266.56915 -7.0302238
95.097778 -266.53357 -8.5697985
89.065605 -266.50537 -9.5373192
91.702583 -266.42133 -9.8400421
95.139862 -266.55969 -11.395927
95.156509 -266.51639 -13.052694
91.370399 -266.59225 -16.941206
92.213112 -266.56879 -16.874199
92.974487 -266.54132 -16.987978
85.442329 -266.52322 -19.138536
96.953453 -266.3092 -6.1761322
95.209732 -266.33197 -6.265635
95.092041 -266.2778 -7.0369391
95.125183 -266.24542 -9.761302
95.132568 -266.24774 -10.650326
92.769371 -266.36417 -15.691872
91.146454 -266.3244 -16.661545
91.480865 -266.25305 -17.319012
85.567245 -266.22406 -19.033823
93.624725 -266.21326 -19.433796
95.080559 -266.14258 -6.540483
94.263222 -266.03302 -6.7421079
94.344604 -266.01141 -7.1213808
94.115936 -266.04041 -7.3602958
86.584351 -266.03024 -7.5989022
87.743996 -266.02457 -7.5309682
90.936272 -266.03854 -7.47682
90.071175 -266.04709 -7.8267841
95.21962 -266.09998 -7.8060341
92.415283 -266.03262 -8.2728138
91.148842 -266.00385 -8.5714893
90.169235 -266.05469 -8.6132536
91.73307 -266.15955 -8.7454376
80.021271 -266.04999 -8.9800777
91.696365 -266.13171 -8.8531189
93.80233 -266.05719 -8.9138584
90.951645 -266.00995 -9.5349674
92.51564 -266.03735 -9.4253979
93.645126 -266.12524 -9.4950638
82.690315 -266.0835 -9.6379032
88.669418 -266.11005 -9.6069412
92.575577 -266.04245 -9.7035685
92.948326 -266.05829 -9.698782
80.094055 -266.02533 -9.9318924
89.154221 -266.01553 -9.8290501
90.646843 -266.02014 -9.8841867
91.414612 -266.05142 -9.844099
95.08197 -266.07892 -12.322479
90.727386 -266.02652 -12.515486
93.73008 -266.19974 -15.540688
91.688126 -266.03784 -17.293722
91.774506 -266.047 -17.899429
93.450439 -266.10767 -19.085541
92.143211 -266.02756 -21.718952
92.351257 -266.15314 -22.023203
90.587082 -265.85278 -6.168437
96.307724 -265.81641 -6.163568
97.182434 -265.90967 -6.1148558
97.728981 -265.9147 -6.1251101
89.823959 -265.81808 -6.2019839
91.585022 -265.86337 -6.217649
92.087959 -265.88699 -6.2865062
91.371613 -265.85031 -6.6938801
92.492126 -265.89087 -6.7521219
94.257339 -265.97238 -6.7003341
93.477493 -265.94128 -6.9825568
94.562904 -265.99271 -6.8097639
92.4795 -265.9024 -7.0740628
93.128815 -265.923 -7.110538
92.337799 -265.84802 -7.3151422
93.027557 -265.90112 -7.2723541
93.852341 -265.94604 -7.2583981
94.53952 -265.98065 -7.356442
90.50499 -265.89291 -7.4990211
91.578186 -265.84436 -7.4463191
84.647293 -265.91211 -7.6739378
86.174187 -265.9426 -7.6242299
86.261658 -265.8288 -7.749814
87.408218 -265.84967 -7.6456289
91.380981 -265.98895 -7.7147651
84.010246 -265.86316 -7.8586078
92.33432 -265.86569 -7.8779602
84.581635 -265.87625 -8.1313238
89.980629 -265.9389 -8.1917152
92.37529 -265.84698 -8.0921078
93.125397 -265.88431 -8.0497684
93.938278 -265.97525 -8.1371098
83.988426 -265.88251 -8.3325691
86.787796 -265.81512 -8.2657356
94.626099 -265.92249 -8.241066
84.007393 -265.88828 -8.4828291
89.999283 -265.81729 -8.4427891
93.090042 -265.87918 -8.5084448
94.243622 -265.91373 -8.5133028
94.573875 -265.96481 -8.4788418
84.221558 -265.82391 -8.6989641
84.626335 -265.81747 -8.707058
87.492958 -265.86923 -8.6564016
90.340927 -265.96014 -8.7674026
91.310745 -265.98737 -8.7171745
92.30349 -265.81006 -8.7443981
94.270515 -265.92371 -8.7498512
95.11985 -265.93744 -8.6471062
93.288589 -265.89984 -8.9590034
84.488503 -265.82629 -9.0063534
82.665848 -265.9436 -9.5328217
88.300018 -265.94547 -9.554121
90.088448 -265.93762 -9.5363445
90.275146 -265.95621 -9.5869312
90.432449 -265.95004 -9.4652576
88.66394 -265.91901 -9.7328033
91.27549 -265.89603 -9.9052896
92.597153 -265.95685 -9.8619423
83.12455 -265.82419 -10.012346
93.112381 -265.84424 -10.151365
94.158821 -265.86884 -10.709745
88.575005 -265.80939 -11.455362
88.340363 -265.81982 -11.79941
88.770142 -265.81403 -11.708898
93.853333 -265.93753 -11.811165
90.576897 -265.84821 -12.137299
93.034515 -265.89978 -12.147436
90.671509 -265.87561 -12.241467
93.230614 -265.96036 -12.369145
93.117874 -265.91934 -12.577059
94.226067 -265.80139 -13.142608
94.594246 -265.83411 -13.386671
82.526718 -265.83954 -15.313993
83.028091 -265.83704 -15.382015
91.51989 -265.89267 -15.539289
93.833878 -265.84824 -16.095381
86.917496 -265.68979 -6.1984472
91.806015 -265.74271 -6.1814981
95.949585 -265.711 -6.1375761
96.45253 -265.76117 -6.1155181
98.67823 -265.78793 -6.1123772
99.43441 -265.78891 -6.1175361
85.269966 -265.63071 -6.2934742
87.813522 -265.73688 -6.3211312
88.207153 -265.71613 -6.2428279
88.950745 -265.70169 -6.2710562
95.042732 -265.74432 -6.2299118
87.710602 -265.72525 -6.5255399
88.56778 -265.63055 -6.41716
95.043304 -265.71719 -6.4867392
80.29631 -265.63885 -6.621788
85.273468 -265.63336 -6.6467218
85.529976 -265.62906 -6.792707
85.604218 -265.61813 -6.7848349
91.737656 -265.72778 -6.7659988
80.643539 -265.61407 -6.8883362
86.300934 -265.66638 -6.8662248
95.032669 -265.73236 -6.933579
87.841858 -265.68951 -7.105783
91.807236 -265.70352 -7.0132852
87.440399 -265.71936 -7.2541389
87.8675 -265.70331 -7.296103
89.96553 -265.76984 -7.317687
85.043724 -265.63928 -7.4447231
92.093826 -265.61246 -7.4109001
80.851807 -265.67773 -7.7577009
89.96151 -265.64066 -7.667964
94.958969 -265.63654 -7.6424689
83.976601 -265.66827 -7.8697972
84.961884 -265.75366 -7.8780541
85.016884 -265.74973 -7.9616418
81.780952 -265.74719 -8.0295849
85.341652 -265.79315 -8.1793985
86.802849 -265.73517 -8.1635914
94.774094 -265.69754 -8.1007309
81.297844 -265.70825 -8.3259163
86.815262 -265.68375 -8.2064199
89.966408 -265.73126 -8.2765169
93.263939 -265.75867 -8.3035593
91.829002 -265.7384 -8.5097809
94.925751 -265.65414 -8.5145493
85.072617 -265.79227 -8.7102718
95.064285 -265.69824 -8.7220116
80.404839 -265.63516 -8.8636169
80.634445 -265.64709 -8.9805746
80.994431 -265.60275 -8.9129391
84.22422 -265.79163 -8.9462109
84.438446 -265.71054 -8.9587545
84.69175 -265.7879 -8.8931122
90.311005 -265.67557 -8.9847088
81.861649 -265.72589 -9.0066042
85.739059 -265.72717 -9.011879
95.129349 -265.78256 -9.0257158
81.452576 -265.61304 -9.5024118
88.918625 -265.63922 -9.5192661
81.536133 -265.63525 -9.797019
83.426926 -265.69952 -9.7650404
92.129349 -265.73715 -9.6665373
82.100449 -265.66241 -9.9618835
85.103699 -265.68781 -9.9682178
88.192513 -265.71149 -9.9353409
89.523972 -265.7926 -9.8884697
82.282257 -265.64996 -10.02639
82.532883 -265.62042 -10.040762
83.792358 -265.64853 -10.018486
88.308907 -265.69678 -10.134169
90.633347 -265.74326 -10.120163
95.026451 -265.66965 -10.166689
87.547302 -265.62735 -10.238453
90.549423 -265.74536 -10.230732
90.682419 -265.72427 -10.315409
90.832947 -265.70203 -10.325276
87.145279 -265.61154 -10.559881
88.631607 -265.6778 -10.514261
88.670502 -265.66943 -10.700223
90.559654 -265.73129 -10.716866
87.145142 -265.61456 -10.90563
89.187767 -265.67621 -10.930031
87.502289 -265.61935 -11.007976
87.784668 -265.63858 -11.007778
90.144531 -265.6908 -11.11812
87.483398 -265.67145 -11.381521
89.380875 -265.66489 -11.208577
87.831947 -265.78546 -11.443889
90.930359 -265.72266 -11.427645
83.193459 -265.62347 -11.641752
83.282692 -265.71393 -11.704932
83.469742 -265.6532 -11.748457
83.654533 -265.61713 -11.632861
94.929657 -265.70386 -11.64376
94.915741 -265.79483 -12.175164
83.197388 -265.62079 -12.279114
94.96479 -265.70621 -12.48342
87.40654 -265.78296 -12.632874
87.802002 -265.75568 -12.689627
81.833466 -265.72107 -12.861736
83.306229 -265.6062 -12.803936
87.198982 -265.62479 -12.802654
94.557915 -265.78253 -13.15434
94.968758 -265.71887 -13.424332
89.865219 -265.62268 -13.768381
90.211807 -265.63229 -13.7369
90.929199 -265.65674 -13.748789
94.93396 -265.74667 -13.722856
88.300087 -265.62656 -13.915091
88.667381 -265.61612 -13.874728
87.803833 -265.75504 -14.044069
90.593964 -265.64908 -14.218292
90.90976 -265.61029 -14.496323
89.845642 -265.60809 -14.920904
90.613052 -265.71753 -15.894132
93.422928 -265.72168 -16.132334
91.655869 -265.72601 -17.176947
91.957092 -265.77625 -18.454573
92.652863 -265.72675 -20.738819
81.431732 -265.72925 -21.041199
80.596436 -265.61194 -21.429501
93.593719 -265.5679 -6.1901431
97.044556 -265.50027 -6.1128569
80.161133 -265.44064 -6.2747369
80.225235 -265.42813 -6.2903252
80.522446 -265.43423 -6.2958512
84.101677 -265.57452 -6.2302232
86.072205 -265.43884 -6.298182
86.47319 -265.5874 -6.2468929
91.891525 -265.50354 -6.227304
81.393524 -265.50723 -6.4931521
81.809273 -265.49207 -6.4886718
84.498039 -265.59222 -6.5926442
91.943695 -265.58215 -6.53651
80.15831 -265.43787 -6.7107649
81.680695 -265.48654 -6.7364278
86.054352 -265.42395 -6.6548638
92.020004 -265.58578 -6.7294788
84.06176 -265.58823 -6.8781161
84.867798 -265.58459 -6.8978429
80.966805 -265.46704 -7.3310299
86.461243 -265.55936 -7.2671251
86.865906 -265.59171 -7.2560139
92.028366 -265.58612 -7.365365
94.891144 -265.5676 -7.2355452
80.320892 -265.42981 -7.4748831
81.875992 -265.47757 -7.4918642
83.975464 -265.50696 -7.4478688
84.594925 -265.58545 -7.506196
84.874146 -265.58569 -7.4214768
94.989838 -265.59528 -7.4064331
80.744064 -265.48111 -7.7487559
87.873306 -265.50064 -7.6507082
91.885971 -265.52069 -7.887044
95.032524 -265.57776 -7.9716692
80.847908 -265.51025 -8.0658951
91.871223 -265.45972 -8.263649
94.951515 -265.57294 -8.3301888
91.909241 -265.51974 -8.4998903
92.063324 -265.51553 -8.5098763
95.029404 -265.55527 -8.5004282
80.641022 -265.58685 -8.7453766
91.759781 -265.56363 -8.7767601
83.990234 -265.40387 -8.9309196
95.054398 -265.57721 -8.8498459
80.581268 -265.55008 -9.0579786
87.379555 -265.46545 -9.0141258
84.82431 -265.41476 -9.3949738
94.989838 -265.5484 -9.3882532
80.964661 -265.57431 -9.4937305
82.780029 -265.40894 -9.524374
84.320221 -265.46347 -9.4095898
88.753128 -265.47437 -9.7760258
88.940155 -265.44098 -9.7194843
85.046715 -265.52832 -9.9741945
94.689285 -265.59802 -10.103909
84.852844 -265.47391 -10.203796
88.935837 -265.45215 -10.302113
82.730301 -265.43158 -10.523582
88.749741 -265.48901 -10.576302
87.063911 -265.5 -10.696066
89.02298 -265.46213 -10.630833
81.604393 -265.41415 -10.981738
82.193527 -265.42001 -11.081117
83.280029 -265.43457 -11.046021
83.484947 -265.45297 -11.035899
84.804619 -265.48529 -11.054602
87.115807 -265.56958 -11.093355
81.927574 -265.43854 -11.37536
84.664909 -265.50415 -11.285514
87.771927 -265.59476 -11.243299
81.435883 -265.47723 -11.442859
83.773705 -265.59195 -12.358079
94.957863 -265.50967 -12.523563
89.337189 -265.41101 -12.615393
87.518005 -265.47821 -12.80103
82.134499 -265.44501 -13.598049
95.097382 -265.52966 -13.451003
83.864685 -265.40332 -13.814674
84.578377 -265.40912 -14.09945
93.272385 -265.49557 -14.05943
88.957054 -265.4617 -14.277127
91.009338 -265.4549 -14.217596
88.623795 -265.54462 -14.657132
88.971001 -265.44678 -14.828704
90.039703 -265.59521 -14.945885
90.750885 -265.47314 -15.910046
85.00563 -265.43018 -16.253086
91.05484 -265.4368 -16.351788
93.515144 -265.51343 -16.879105
93.714783 -265.41632 -17.027443
82.035355 -265.59158 -19.968132
83.436531 -265.41678 -20.059273
82.597351 -265.5372 -20.600502
82.300331 -265.40042 -21.306334
90.414421 -265.24658 -6.1094089
89.382515 -265.32059 -6.340239
89.843781 -265.34204 -6.340157
82.932526 -265.31592 -6.4294329
89.782784 -265.28296 -6.5862451
80.178726 -265.31024 -6.6332369
80.216736 -265.3624 -6.9083171
86.030975 -265.38412 -6.81247
82.72757 -265.28085 -7.2394729
83.086075 -265.28448 -7.2382541
86.071579 -265.37744 -7.2731271
87.929062 -265.22217 -7.3116212
89.860825 -265.26349 -7.288002
87.949356 -265.21124 -7.473712
88.927483 -265.22406 -7.4364872
82.689438 -265.20157 -7.6959028
