# .PCD v0.7 - Point Cloud Data file format
VERSION 0.7
FIELDS x y z
SIZE 4 4 4
TYPE F F F
COUNT 1 1 1
WIDTH 413
HEIGHT 1
VIEWPOINT 0 0 0 1 0 0 0
POINTS 413
DATA ascii
95.74054 -311.08801 -9.2274027
89.886024 -310.89529 -12.922932
96.212494 -310.3075 -12.952032
83.580429 -318.91251 -17.60553
92.183533 -314.04034 -16.132624
91.780998 -313.68738 -14.866203
91.880028 -313.08511 -16.647236
90.929504 -312.94806 -12.00104
91.312592 -312.49713 -15.625641
90.969719 -312.05502 -15.858089
97.193138 -311.81171 -17.069767
89.488663 -311.82083 -17.623474
97.043915 -311.7467 -16.39922
96.135849 -311.46375 -10.12256
96.727341 -311.58008 -11.226564
89.06498 -311.55472 -15.519077
97.116989 -311.47293 -15.769608
95.612221 -311.56418 -20.767254
95.959839 -311.20667 -10.63435
96.193245 -311.20541 -10.640948
90.548904 -311.30316 -13.763362
96.293411 -311.29248 -14.508239
90.680573 -311.20532 -15.740822
96.318176 -311.34827 -16.34697
96.394684 -311.26627 -16.93746
95.300659 -311.29572 -22.276695
95.74321 -311.02216 -9.9399281
95.766197 -311.15378 -11.172234
96.937103 -311.14694 -15.137293
90.674973 -311.13611 -16.383205
90.881439 -311.14517 -16.333485
96.250183 -311.15265 -17.432226
89.833969 -310.94 -12.63311
96.386475 -310.82233 -13.664127
89.527695 -310.62921 -12.147991
89.555969 -310.63013 -13.302284
95.596039 -310.54169 -11.118773
96.154404 -310.27771 -12.876058
97.649467 -310.32028 -13.492696
98.508743 -310.20032 -14.486599
97.063095 -310.21289 -16.174299
88.911392 -310.16653 -12.291807
95.737526 -310.04123 -12.775208
95.796768 -310.03741 -12.938146
96.190216 -310.19501 -13.476072
95.989845 -310.16397 -13.904391
96.316826 -310.07309 -14.468048
96.704399 -310.16516 -15.006987
98.987534 -309.901 -15.104153
98.989876 -309.81897 -15.235983
89.426041 -309.80554 -16.819357
97.783836 -309.92114 -16.823668
95.654991 -309.6879 -15.517035
99.43338 -309.66183 -15.517155
95.71846 -309.67337 -16.108364
95.818909 -309.60495 -17.184458
95.628632 -309.50391 -13.822268
95.655273 -309.37628 -18.522526
95.52549 -309.03677 -15.425524
95.880287 -309.13269 -19.418024
95.248444 -308.50153 -15.888139
94.892929 -308.33685 -15.92358
95.226318 -308.3186 -15.916994
96.550278 -308.0816 -20.929241
94.640594 -307.93121 -16.609549
94.466431 -307.70419 -16.892204
96.700684 -307.48227 -21.794128
90.917816 -306.60455 -13.979471
85.209595 -319.3746 -14.746369
99.143326 -314.63071 -23.667725
92.18586 -314.07956 -16.51936
91.123329 -313.04694 -12.576301
91.145744 -313.11768 -12.896021
91.652771 -312.64432 -15.938303
95.673561 -312.37506 -21.411537
90.816689 -311.87238 -15.975969
96.679855 -311.50693 -11.147127
89.006584 -311.58716 -14.670848
97.126366 -311.53284 -15.767962
95.893829 -311.20688 -10.843281
86.715378 -311.23593 -11.387184
96.114319 -311.32855 -11.336191
86.758598 -311.31622 -11.65394
96.167076 -311.26904 -14.608415
95.80941 -311.1059 -9.3506184
95.823914 -311.08136 -9.9231024
90.899521 -311.06354 -17.480991
96.197411 -311.18631 -17.527267
96.047867 -311.10455 -17.825111
95.441048 -310.92123 -9.7835054
89.832336 -310.94293 -12.696963
96.520462 -310.82553 -14.266384
96.643349 -310.95566 -14.619667
95.433746 -310.62683 -10.627842
95.784805 -310.61066 -11.363497
95.499268 -310.56268 -11.080927
96.284271 -310.47339 -12.201639
96.574257 -310.42801 -12.601295
97.069244 -310.42993 -12.927879
98.963615 -310.57806 -14.633669
87.969292 -310.35928 -10.92013
98.27269 -310.28162 -14.233538
96.323547 -310.05899 -14.48435
96.40052 -310.04608 -14.687336
95.580284 -309.8374 -14.759387
98.48465 -309.98907 -17.554453
95.801086 -309.6756 -14.942581
95.690575 -309.65997 -15.491102
99.507431 -309.63678 -15.689975
88.484833 -309.53055 -13.064528
95.6353 -309.45282 -13.877353
95.717148 -309.16376 -19.055288
95.03698 -308.53683 -15.78682
92.342941 -307.71384 -17.043287
97.498726 -307.52536 -23.605993
91.325027 -313.38995 -14.282699
91.877609 -313.12018 -16.584724
90.753113 -312.13568 -15.581594
97.471344 -312.00021 -17.952274
90.769028 -311.61942 -14.366524
96.081612 -311.79486 -20.530157
89.198326 -311.48669 -13.497385
95.625877 -311.56744 -20.767487
95.463142 -311.49689 -20.904297
95.810532 -311.20782 -10.652749
95.955826 -311.241 -11.434522
90.606346 -311.21152 -15.775221
96.275238 -311.24231 -15.885737
95.737442 -311.12808 -11.018213
95.893326 -311.03412 -11.388125
96.002998 -311.15506 -14.53813
87.612656 -310.87756 -10.233212
87.493309 -310.67062 -10.454359
96.710159 -310.41141 -12.823246
97.774307 -310.431 -13.577423
96.687973 -310.38211 -12.829649
97.649994 -310.33801 -13.492342
95.946075 -310.21521 -13.823601
96.856735 -310.17438 -15.076952
98.411781 -310.04031 -17.856718
96.223083 -309.98215 -14.499809
88.816452 -309.96841 -15.169175
98.23175 -309.85254 -17.623138
95.596123 -309.69141 -16.148354
95.713608 -309.71057 -16.065538
95.698212 -309.63303 -16.790985
99.816711 -309.5817 -16.132729
95.624832 -309.586 -17.120974
95.523178 -309.49933 -17.54488
99.588486 -309.27063 -17.437643
99.674301 -309.29297 -17.41024
95.607925 -309.13705 -14.351834
95.95256 -308.76324 -20.245394
95.977005 -308.68057 -20.413639
94.470711 -307.72711 -16.854031
96.426903 -307.00827 -23.08812
96.17289 -301.80283 -7.5786209
99.025955 -301.97964 -7.4663229
98.113647 -301.85806 -8.0993977
95.836578 -301.7963 -7.560925
93.061951 -301.69543 -8.2175541
92.900291 -301.64978 -8.5043831
99.912621 -313.93524 -20.035515
91.208847 -313.02896 -12.411222
91.222527 -313.10748 -12.97599
99.100769 -313.12396 -19.622478
91.759949 -312.88007 -17.741688
91.490341 -312.68555 -16.033796
91.281708 -312.49072 -15.708977
97.041458 -311.92889 -11.48884
90.59536 -311.43539 -14.105722
99.255386 -311.48285 -17.955486
96.119385 -311.23993 -10.665552
96.147888 -311.22382 -11.79934
86.553963 -311.34088 -12.727137
90.541031 -311.29272 -13.769475
95.121986 -311.24817 -14.53244
96.234818 -311.28577 -16.283636
95.957024 -311.16125 -14.201332
96.582314 -311.04456 -14.89853
90.769257 -311.07251 -17.496634
87.533302 -310.86725 -10.106604
96.176926 -310.83411 -12.912491
99.67717 -310.81659 -15.396484
96.182732 -310.70306 -13.000015
96.514565 -310.79657 -13.985098
99.292839 -310.68161 -14.664284
87.820679 -310.54779 -10.457672
95.529724 -310.55469 -10.997847
96.123825 -310.54077 -11.786874
96.261261 -310.48886 -12.196532
96.429138 -310.44495 -12.256367
96.618332 -310.43341 -12.679129
98.45816 -310.4054 -14.141552
96.046478 -310.20007 -13.830318
97.905121 -310.25958 -13.934256
98.17556 -310.35403 -13.951788
88.020889 -310.04987 -12.506214
95.957947 -310.05872 -14.226089
96.318619 -310.03003 -14.456507
89.04866 -310.01944 -15.015917
88.414917 -309.83871 -16.234798
98.50386 -309.91223 -17.707041
95.636269 -309.61911 -13.691509
99.723358 -309.59186 -15.998706
95.652771 -309.57684 -17.435179
95.635506 -309.54141 -17.752481
88.526527 -309.23895 -14.920168
95.596237 -309.35159 -18.624205
99.548111 -309.1926 -17.715021
95.5411 -309.03076 -22.358829
94.925888 -308.32712 -15.920914
94.248566 -307.71716 -16.952255
96.709793 -307.65305 -21.651573
96.59549 -307.48547 -21.868149
96.507721 -307.45923 -22.233665
94.753372 -301.76395 -9.0119925
99.375259 -312.83099 -19.827213
91.303886 -312.35815 -15.344359
90.967247 -312.2861 -15.442183
90.89505 -312.07376 -15.840103
90.773537 -311.8212 -16.116011
97.286575 -311.88394 -17.968628
97.268784 -311.71069 -16.964754
89.404663 -311.72198 -17.721842
89.001892 -311.53525 -15.829638
96.07457 -311.32022 -11.408506
97.005554 -311.32123 -15.335936
96.201645 -311.29193 -16.499893
99.173233 -311.35217 -17.852587
95.173782 -311.34082 -21.193081
95.475266 -311.06451 -9.4999828
90.608986 -311.19183 -15.783484
90.645645 -311.14752 -16.19994
96.152786 -311.19229 -16.325659
96.069695 -311.08551 -18.739948
87.537407 -310.93973 -9.7919579
95.406654 -310.63263 -10.624825
95.547531 -310.50394 -11.446899
95.880142 -310.45575 -11.821934
96.392036 -310.42157 -12.441174
96.196609 -310.2962 -12.537661
89.11351 -309.68817 -12.660533
89.149879 -309.67209 -12.852034
95.480881 -309.42499 -13.969715
95.631599 -309.48447 -15.149433
95.571617 -309.47211 -17.838541
95.592361 -309.06357 -14.541041
95.360985 -309.00214 -15.49773
95.561081 -309.0762 -19.427515
95.391266 -308.64441 -15.523535
98.61409 -308.76358 -17.022625
94.968361 -308.51828 -17.57
96.536316 -307.58527 -21.559835
91.497162 -306.17105 -13.817662
96.261307 -301.81015 -8.902319
96.932747 -301.85046 -8.9039392
95.063362 -301.77063 -7.4357252
94.996628 -301.76678 -7.6706781
90.493546 -301.58771 -7.7793322
92.142975 -314.06342 -16.141939
92.018372 -313.90234 -15.583233
91.964294 -313.95221 -15.907484
91.74292 -313.72083 -14.979773
91.353004 -313.46204 -14.421484
90.680756 -312.94388 -11.995546
90.799957 -312.91919 -12.064349
91.840851 -312.8869 -17.515877
98.522652 -312.57141 -19.514626
97.010864 -312.30945 -13.326393
88.315109 -311.82587 -10.606932
89.498772 -311.86475 -14.162214
97.428177 -311.97168 -18.133682
87.90258 -311.61526 -10.054371
96.73143 -311.55139 -11.274092
88.950867 -311.4845 -16.459641
96.841599 -311.51764 -19.377167
86.370361 -311.25333 -12.497791
96.013435 -311.1449 -14.175342
90.788849 -311.08704 -17.065315
95.215485 -311.19974 -22.430592
95.506027 -310.8446 -10.144938
89.599091 -310.86237 -12.531663
96.444077 -310.84335 -13.470897
98.571388 -310.90631 -16.241001
95.489075 -310.86835 -19.752701
95.862556 -310.57629 -13.254391
89.056427 -310.27264 -11.890727
96.192734 -310.22842 -12.911164
95.802597 -310.07986 -12.894124
97.872955 -309.87134 -16.995405
89.388641 -309.77039 -12.518308
95.548729 -309.6561 -15.848188
99.793213 -309.60739 -15.97471
99.266808 -309.77756 -16.01955
95.613434 -309.37982 -15.303094
95.899414 -308.87256 -20.120333
95.416092 -308.9389 -23.781158
95.287041 -308.45734 -15.846153
94.2565 -307.26202 -17.113567
99.570396 -302.00842 -7.4799829
96.179413 -301.80777 -7.7331572
96.605782 -301.81396 -8.8867702
93.436195 -301.74155 -7.3629088
95.400024 -301.78308 -7.403861
92.283539 -301.67462 -8.1728725
93.77195 -301.75269 -8.7464409
95.170273 -301.77655 -9.0328903
88.046661 -319.98514 -13.607233
93.716812 -315.98645 -16.766058
91.400055 -313.34802 -13.774283
90.930031 -312.98523 -12.17877
99.750824 -312.95233 -19.853426
97.009628 -312.23474 -12.643805
97.026321 -312.21967 -13.025844
89.084023 -311.52554 -13.739441
95.984146 -311.22437 -14.611306
96.417206 -311.38266 -17.357933
95.615082 -311.36465 -24.062128
96.349411 -311.17877 -10.859659
95.925804 -311.13684 -14.40275
96.905876 -311.13525 -15.151218
96.03862 -311.12646 -18.13261
90.006485 -310.94641 -13.210356
96.368729 -310.8157 -13.759598
89.455383 -310.71255 -12.263544
89.326065 -310.74466 -12.505848
95.888397 -310.64896 -12.94689
96.290916 -310.75476 -13.595602
95.755875 -310.57013 -11.354897
88.716705 -310.45172 -11.435761
95.740738 -310.4024 -12.183575
97.32309 -310.44281 -13.129766
97.496704 -310.51575 -13.289298
88.211487 -310.25821 -11.60066
96.116646 -310.3703 -12.243055
98.316963 -310.26312 -14.276759
96.897873 -310.26508 -15.748693
97.11319 -310.27216 -16.160255
95.801834 -310.1778 -12.673273
96.159576 -310.02887 -14.331614
88.892715 -310.07288 -14.487033
96.608902 -310.14825 -14.9708
95.851181 -309.84668 -14.25223
97.763725 -309.98984 -16.725512
98.224312 -309.86252 -17.439577
99.092651 -309.7518 -15.37594
99.408714 -309.69592 -15.521161
95.60257 -309.6835 -15.624529
99.547165 -309.62964 -15.75872
89.331955 -309.44843 -13.047699
99.582916 -309.59189 -15.882757
95.458916 -309.21735 -15.277344
99.711693 -309.27786 -17.610685
95.598129 -309.3559 -18.897648
95.109138 -308.76025 -15.539162
94.875862 -308.21155 -16.011345
94.859253 -308.04834 -16.445333
94.623489 -307.90735 -16.655319
98.994881 -301.91943 -7.9662251
98.569885 -301.88391 -8.1198683
95.932465 -301.80835 -8.9185476
93.84948 -301.73846 -7.385572
96.777962 -301.79907 -7.7634048
91.916122 -301.67407 -8.1550732
93.91748 -316.62637 -20.000359
97.147614 -312.23117 -18.068008
96.836731 -312.30151 -19.315723
90.989471 -311.89264 -14.546928
97.104248 -311.76642 -16.357445
97.073914 -311.76212 -16.476707
96.607201 -311.41385 -10.995488
89.054001 -311.54944 -15.523243
96.600601 -311.43915 -18.795597
95.874023 -311.23386 -10.986081
86.330383 -311.207 -12.36261
86.549965 -311.33514 -12.371098
95.812515 -311.0314 -10.084162
86.297752 -311.18881 -12.642519
89.791595 -310.89423 -12.902217
96.446793 -310.81888 -13.97233
85.427383 -310.94794 -17.653526
89.499336 -310.4585 -13.889198
95.931076 -310.36261 -12.179289
97.006577 -310.38794 -12.97715
97.359009 -310.27921 -13.367845
98.534904 -310.35834 -14.249781
98.548698 -310.24915 -14.558095
96.889679 -310.21625 -15.442503
89.023483 -310.08469 -12.219274
96.178589 -310.19598 -13.348668
88.143219 -309.81107 -12.692047
95.64949 -309.91406 -13.085485
95.759514 -309.86505 -14.4736
98.920364 -309.91602 -15.078804
95.716148 -309.77484 -13.387867
99.824837 -309.60876 -16.096348
95.706245 -309.39099 -18.350266
95.639488 -309.34338 -18.639784
95.778961 -309.2374 -18.868963
95.703842 -309.08093 -19.38855
96.106827 -308.53876 -20.477072
99.917351 -302.00003 -8.8332596
97.946304 -301.88605 -7.9560342
98.368484 -301.90833 -7.9534512
98.733177 -301.9176 -7.9610109
99.111855 -301.97437 -8.8126354
99.455002 -301.97217 -8.8210297
94.61898 -301.75992 -7.4616642
95.53289 -301.77444 -7.8400159
92.689476 -301.69238 -8.1931868
92.666832 -301.66144 -8.5180941
93.442307 -301.7446 -8.7296896
