# .PCD v0.7 - Point Cloud Data file format
VERSION 0.7
FIELDS x y z
SIZE 4 4 4
TYPE F F F
COUNT 1 1 1
WIDTH 382
HEIGHT 1
VIEWPOINT 0 0 0 1 0 0 0
POINTS 382
DATA ascii
84.719826 -68.57962 -0.908997
82.505058 -68.463737 -2.6668119
81.999527 -65.508209 0.210227
83.85434 -62.108475 -3.527246
83.359215 -68.506554 -2.6158559
84.994568 -67.815559 -2.337965
84.105034 -62.104095 -3.511199
94.524048 -77.963028 -2.1213951
94.0476 -77.8339 -3.3264611
84.303535 -77.516327 -1.08801
84.526695 -77.497208 -1.073724
82.989998 -68.484741 -2.63765
83.722626 -68.519379 -2.6945901
84.907883 -67.858398 -0.87880898
92.78627 -77.863068 -0.26336899
91.441505 -77.768036 -1.147023
95.932732 -75.974655 -0.417761
98.959152 -71.839737 -7.3946648
85.070145 -63.378658 -0.68378699
89.59494 -78.193329 -3.0126581
93.949738 -77.941925 -0.69517398
84.339836 -77.492012 -1.242252
91.986504 -77.530609 -3.7660601
89.482994 -76.962471 -2.102334
88.934921 -76.851532 -3.2031169
88.736595 -76.656517 -0.268659
87.826141 -76.618607 -3.2386799
87.838448 -76.590134 -3.055728
87.735481 -74.663811 -2.167017
89.896362 -74.617027 -3.345721
87.797165 -74.378578 -0.37709701
89.910751 -73.892334 -3.4232271
99.084984 -73.464317 -3.0991111
89.893608 -72.209335 -3.1898861
97.478775 -71.857796 -7.3930531
86.571594 -71.639091 -1.513792
87.833069 -71.63855 -1.500591
87.861542 -71.773788 -1.826287
89.94899 -71.700073 -3.384927
87.839981 -71.555077 -0.59435898
87.791901 -71.473984 -2.5983391
89.960098 -71.305878 -3.3988309
87.792137 -71.075745 -2.611171
88.074348 -70.965477 -0.919155
87.849731 -70.99736 -1.8475471
89.938522 -70.720634 -3.2425251
89.982231 -69.967949 -3.522794
88.087112 -69.610397 -1.8020591
88.094009 -69.635986 -2.7282791
95.693535 -68.956581 -7.299459
96.838882 -68.850334 -7.3568649
96.181488 -68.815598 -7.454216
82.05423 -68.480049 -1.344314
84.727501 -68.572891 -2.391336
84.239502 -68.541779 -2.491704
82.635437 -68.487213 -2.863101
83.409874 -68.517647 -2.8149321
81.978172 -66.928177 -1.304823
98.327644 -63.736626 -1.6512851
98.303711 -63.226131 -0.369398
98.330757 -63.177681 -0.21782599
89.58754 -78.302307 -2.102942
93.96859 -77.921417 -1.915406
90.204102 -77.668274 -1.110617
91.506348 -77.734833 -2.8972631
90.19577 -77.512878 -2.9964199
89.772781 -77.017479 -3.8530099
89.301483 -76.975739 -1.15467
88.647537 -76.937302 -3.0438709
89.313492 -76.915787 -3.0773661
89.758179 -76.569191 -3.8229711
87.757736 -76.293938 -1.178694
89.623154 -75.873138 -0.16058899
87.576797 -75.842346 -2.1244769
87.590179 -75.870193 -3.0418539
87.52446 -75.577148 -2.1198249
98.756882 -75.273758 -7.3899331
89.849152 -74.948769 -3.7805171
88.781197 -74.634132 -0.382276
87.842949 -74.492523 -0.375967
86.326569 -74.502014 -1.205754
87.805389 -74.21685 -3.225034
98.638306 -74.024345 -3.0386319
89.875793 -73.828232 -3.8301699
98.639816 -73.772476 -3.1350551
87.854034 -71.899117 -3.187242
90.048439 -71.84359 -3.7369449
87.814987 -71.668869 -1.399397
86.566788 -71.640228 -1.40693
90.050339 -71.428123 -3.748626
87.844391 -71.331665 -0.90926898
88.000519 -71.209023 -3.010313
87.847694 -71.080338 -1.733183
89.484283 -70.852005 -2.871558
88.190247 -70.604546 -1.030349
89.970413 -70.718445 -3.497772
90.000092 -70.603523 -3.5348361
87.839645 -70.271881 -2.9248121
90.032501 -70.158051 -2.884079
87.873077 -69.999809 -1.916168
88.082092 -69.810989 -1.832441
90.039078 -69.897911 -3.0282011
89.492661 -69.708488 -0.47547001
88.115646 -69.754517 -0.97322702
89.017395 -69.721771 -1.542647
89.75618 -69.79528 -1.4738359
89.918854 -69.693771 -1.529846
89.776733 -69.621765 -1.966414
89.000298 -69.699615 -2.607152
88.237373 -69.453392 -0.90171498
88.23436 -69.44799 -1.354282
88.881973 -69.41732 -1.354841
88.135071 -69.45723 -2.3050201
90.033081 -69.411469 -2.327847
88.079552 -69.540123 -2.943686
90.051361 -69.543228 -3.041594
90.16095 -69.329102 -0.464524
90.491379 -69.275757 -0.43801501
90.463959 -69.276649 -2.521271
90.066147 -69.076073 -0.50173301
90.201942 -69.001617 -2.2730141
90.067062 -69.126747 -2.401613
90.127403 -69.117455 -3.1881499
91.406906 -69.103134 -3.303962
91.808243 -69.146172 -3.3123119
90.531319 -68.632271 -1.53773
90.528015 -67.504265 -0.62739801
98.306908 -63.770393 -1.521899
99.296021 -63.354115 -1.119729
98.335022 -63.341175 -1.794584
98.634102 -63.17392 -0.228003
99.951729 -79.933632 -1.86622
96.416992 -77.960197 -2.4264879
91.50473 -77.723511 -3.2283549
90.108658 -77.497704 -1.108013
89.761986 -77.286339 -3.8902271
88.214165 -76.820328 -3.2229891
87.721321 -76.559341 -0.25858
88.274536 -76.268883 -1.102616
96.342102 -76.064644 -0.32595399
96.231293 -75.981201 -0.132719
87.699852 -75.696533 -1.156078
88.283356 -75.718285 -1.1127141
89.802406 -75.411423 -3.7951739
87.79277 -75.316925 -1.217198
98.762733 -75.128181 -7.4646502
87.704376 -74.935257 -2.2068861
86.447105 -74.595123 -1.204113
89.904572 -74.343407 -3.3488319
89.867859 -74.195061 -3.816108
97.550644 -72.459366 -7.4398732
89.961929 -72.046547 -3.55145
89.960564 -71.790848 -3.465662
88.603973 -71.552544 -3.301384
88.880989 -71.445015 -3.2928729
87.828796 -71.342529 -2.376653
98.950348 -71.399612 -7.4017291
88.008423 -71.188065 -2.110147
89.973969 -71.034698 -3.5363901
88.068893 -70.258911 -1.512162
88.821152 -69.804115 -0.398523
88.111069 -69.840828 -1.482901
89.82843 -69.699127 -2.578547
89.973282 -69.411865 -0.44487399
89.136459 -69.442909 -0.91608799
88.667305 -69.484329 -1.958092
89.741386 -69.442688 -1.9227509
89.617332 -69.431152 -2.2723949
89.961792 -69.593758 -2.868119
90.05793 -69.287926 -1.5442899
88.666702 -69.376053 -2.295578
96.074272 -69.323135 -3.009088
90.056877 -69.394287 -3.4476869
90.235474 -69.101425 -3.329658
90.788956 -69.068703 -3.3058569
91.181564 -69.085327 -3.2872519
92.157822 -69.150543 -3.296736
95.852676 -69.050056 -6.5419831
90.53891 -68.981339 -2.3957839
97.381821 -68.747223 -7.2023311
82.15136 -68.564751 0.203201
90.532074 -68.520813 -1.687429
81.952934 -68.462189 -2.9059911
90.527657 -67.8237 -1.733434
90.544983 -67.769524 -2.869364
98.530548 -67.690498 -7.225997
92.544388 -66.71434 -1.152366
90.972008 -66.644875 -2.8810689
91.489975 -66.742706 -2.8648
90.863373 -66.271584 -1.353213
92.612793 -66.13887 -1.319297
92.609932 -65.887619 -2.8959041
92.596062 -65.000397 -2.963887
98.304482 -63.646561 -0.111239
99.317749 -63.345245 -0.39634901
98.31308 -63.379364 -1.028066
99.936874 -79.197624 -10.177011
91.485901 -77.740326 -2.187037
93.79657 -77.687073 -3.425276
91.501282 -77.493279 -3.803005
89.653389 -77.07576 -1.135986
89.710167 -77.083038 -2.081759
88.24382 -76.946472 -1.153185
88.518188 -76.987297 -1.179427
87.80394 -76.874161 -2.1197679
88.161659 -76.84005 -2.1844311
88.058601 -76.774536 -1.1828099
87.784393 -76.55706 -1.154004
88.704025 -76.498947 -1.111563
89.575592 -76.517563 -1.0948189
87.567635 -76.235123 -1.168997
95.135788 -75.875229 -0.200414
89.786957 -75.80748 -3.798774
89.357513 -75.733063 -1.1615421
87.675766 -75.713387 -3.1348841
87.695435 -74.655312 -1.1880831
88.112289 -74.766747 -1.2869591
87.725998 -74.625404 -3.0947919
89.885918 -74.623611 -3.842927
87.713028 -74.571388 -1.294951
86.478516 -74.593407 -2.1700571
87.77993 -74.455421 -3.219703
87.845688 -74.386475 -1.295123
87.749893 -74.228714 -1.6893671
87.839676 -74.398888 -2.2066669
86.55703 -74.149673 -1.7180361
89.939819 -73.591476 -3.35741
98.662865 -73.107544 -3.0730939
89.865952 -73.151886 -3.6208079
98.857323 -72.831726 -3.073118
87.830238 -72.166855 -3.1788759
97.458481 -72.040337 -7.397696
98.689819 -71.902328 -3.068444
88.219078 -71.604118 -0.457919
87.866776 -71.638641 -0.90249598
87.702744 -71.700836 -2.2454889
87.861992 -71.417404 -1.835916
89.953415 -71.330795 -3.479249
87.802917 -71.059212 -2.3870659
87.845779 -70.633987 -2.9107909
89.942337 -70.787125 -2.861506
90.001793 -70.448967 -2.8733101
88.011063 -70.262604 -2.5705571
89.992371 -70.371155 -3.535171
88.116776 -70.14006 -0.108297
88.865128 -70.028107 -0.132008
88.08551 -70.04261 -1.044922
88.06424 -70.064041 -1.980038
88.60965 -69.679947 -0.45933399
89.151596 -69.693794 -0.46925801
89.900116 -69.723274 -0.46106601
88.944817 -69.609901 -1.061764
89.480965 -69.627434 -1.064497
89.381592 -69.732635 -1.529195
89.325111 -69.708275 -2.5918231
90.016235 -69.743088 -3.5585909
89.360329 -69.445374 -1.353986
88.986977 -69.411469 -1.92813
89.297348 -69.505234 -1.951022
89.98143 -69.425148 -2.5262749
88.971214 -69.540985 -2.9088249
89.480148 -69.566216 -2.887979
90.467316 -69.269867 -1.5064681
90.148415 -69.087242 -1.43849
90.493057 -69.031113 -1.5289381
97.403748 -68.800621 -7.1861401
90.504692 -68.658997 -0.52570498
95.350258 -68.793457 -7.340766
84.803047 -68.561577 -2.5300541
82.248558 -68.465096 -2.8869629
90.517532 -68.321075 -0.56998301
90.535248 -68.349953 -1.682114
90.584656 -68.008286 -2.7949829
91.69265 -66.784164 -1.360272
92.173706 -66.746277 -2.6837211
92.558731 -66.627777 -2.914377
92.569275 -66.244514 -2.8925581
92.612869 -65.525909 -1.311749
92.578041 -65.129089 -1.405744
92.58876 -64.656052 -1.507181
82.289757 -64.178932 0.235107
92.642929 -63.433556 -1.66162
98.658798 -63.069481 -1.770806
99.997238 -79.992554 -10.082836
90.198334 -77.703354 -2.1198061
90.208824 -77.763298 -3.0616341
90.171295 -77.497108 -2.064081
89.678902 -77.33812 -1.129649
88.914871 -76.999527 -1.153674
89.064812 -76.913994 -3.0609479
89.630951 -76.886192 -3.1662171
89.621857 -76.623863 -1.151971
88.689262 -76.791267 -3.1920991
88.223282 -76.739548 -3.217931
87.750008 -76.554283 -2.1168921
89.735184 -76.342125 -0.12742899
87.715698 -76.230751 -2.207058
87.771729 -76.261856 -3.234452
89.171539 -75.790665 -0.28062901
89.454605 -75.535782 -0.159033
87.637024 -75.555206 -1.194337
87.607941 -75.359512 -2.208262
87.991638 -74.954308 -1.286664
87.723618 -74.944893 -3.123055
87.832375 -74.356102 -3.120605
89.885391 -73.385338 -3.783345
88.927002 -72.052368 0.00088499999
86.618141 -71.61898 -0.57734603
87.814148 -71.669075 -0.59100401
87.751236 -71.66024 -2.7688761
88.911285 -71.556061 -0.47344401
87.869263 -71.037033 -0.91609901
87.818329 -71.123398 -2.6165221
98.960869 -71.004936 -7.3681998
87.825249 -70.608147 -1.806967
88.917145 -70.363831 -0.46568
87.866302 -70.258926 -1.862824
87.849365 -70.204918 -2.6788599
88.593979 -70.087448 -0.123024
88.414352 -70.057854 -0.65417498
87.797836 -70.145393 -1.0404201
90.003731 -70.025581 -3.5481069
88.090797 -69.833824 -2.5745101
88.07093 -69.848526 -2.9320309
88.496231 -69.794495 -0.39104
89.974464 -69.650574 -1.0668221
88.608948 -69.698624 -1.530066
88.714554 -69.742462 -2.5576129
88.589157 -69.499191 -0.98508102
89.507187 -69.455505 -0.92161298
89.944817 -69.403679 -1.418391
88.125618 -69.5336 -1.962854
89.152771 -69.405525 -2.283679
88.43309 -69.525322 -2.930449
90.140633 -69.316704 -2.6094041
90.415459 -69.274742 -3.5607159
90.868759 -69.272591 -3.5424509
90.546265 -69.053734 -2.6005659
90.480072 -68.999084 -0.546579
95.923515 -68.935272 -6.292418
98.463486 -68.711044 -7.0451798
84.520042 -68.546776 -2.5465541
90.562439 -68.515976 -2.690048
83.017441 -68.493736 -2.838846
98.454926 -68.418961 -7.2082582
90.597885 -66.857956 -1.222911
92.238564 -66.784805 -1.147624
92.494583 -66.678085 -1.368174
92.565224 -66.613907 -2.68558
92.380493 -66.745186 -2.9119501
92.617844 -65.564896 -2.913224
92.64415 -64.31366 -1.430185
92.658829 -63.793053 -1.851776
98.992409 -63.326164 -0.38745701
98.933266 -63.278469 -1.0359581
98.483009 -63.123051 -0.95144498
84.580124 -62.133949 -3.4837401
93.991364 -77.94397 -2.144011
91.45166 -77.761383 -1.120744
81.713943 -77.385551 -1.619953
90.104561 -77.386841 -3.8670189
88.97641 -76.98645 -2.0906651
89.855072 -76.651672 -2.059859
87.65416 -76.271622 -3.0547709
89.769852 -76.245575 -3.803359
87.605255 -75.913635 -3.2373991
89.43129 -75.763512 -0.141706
89.336685 -75.528343 -1.125482
87.656372 -75.427071 -3.116374
98.771484 -75.248047 -7.3468361
91.528488 -77.851692 -1.99564
89.784782 -77.424286 -2.9926839
90.463806 -77.416679 -3.8389289
89.703918 -77.319534 -2.056083
91.002884 -77.376556 -3.8023739
89.698906 -77.111694 -2.968796
87.770584 -76.914803 -1.174919
88.474396 -76.940063 -2.1238141
87.835251 -76.847809 -3.041193
88.216797 -76.945 -3.031405
88.578735 -76.8424 -3.222307
87.554588 -76.183029 -2.118715
