# .PCD v0.7 - Point Cloud Data file format
VERSION 0.7
FIELDS x y z
SIZE 4 4 4
TYPE F F F
COUNT 1 1 1
WIDTH 561
HEIGHT 1
VIEWPOINT 0 0 0 1 0 0 0
POINTS 561
DATA ascii
99.99128 -80.416649 -1.99217
99.56031 -96.805229 -6.5483532
99.985855 -80.509842 -1.9449559
94.405548 -99.954948 -1.8863291
97.785278 -97.601471 -1.84868
96.355362 -97.157043 -1.834798
97.920471 -97.182465 -2.066694
99.530716 -97.060303 -6.657618
99.688522 -97.082779 -7.443398
97.144058 -96.858322 -6.785603
98.727097 -96.951675 -6.6942301
95.408493 -96.864136 -7.3292642
96.310928 -96.879204 -8.3319998
95.815437 -96.620621 -8.1043911
95.400482 -96.244431 -7.4461322
95.408981 -96.290428 -8.3014574
84.056236 -96.17543 -2.941221
99.695564 -96.126236 -6.7490482
99.689713 -96.196785 -6.8553028
99.465393 -95.889008 -6.2261319
99.708755 -95.812378 -6.3458452
99.626038 -95.963455 -6.7240338
99.491821 -95.85614 -6.9813919
99.698914 -95.804039 -7.0392718
95.417305 -95.823883 -8.2888088
99.626114 -95.792923 -6.7068
99.647629 -95.738663 -7.2063408
99.644447 -95.471474 -6.7131209
98.008873 -95.415611 -6.9935842
99.634583 -95.46917 -7.2904291
99.632202 -95.299622 -6.953126
99.673546 -94.992485 -6.688158
99.647003 -94.929657 -6.938767
99.661263 -94.850822 -7.2967381
99.67083 -94.69973 -6.7719688
99.66391 -94.665619 -6.916266
99.696609 -94.79129 -7.382194
99.364151 -94.723068 -7.688509
95.465073 -94.762123 -8.3574581
99.118301 -94.590729 -2.3343911
97.752769 -94.525467 -7.2761779
98.044022 -94.136757 -3.1398339
98.033218 -94.09404 -7.4713178
84.098175 -93.710442 -3.067786
98.012703 -93.642715 -6.6357398
98.977554 -93.762314 -6.690722
97.980461 -92.784492 -6.770123
97.968796 -92.634201 -7.272079
97.972885 -92.594635 -7.0544038
97.980835 -92.221832 -7.2781119
99.9832 -80.493958 -1.8290941
83.866539 -99.42086 -3.027153
98.023117 -97.928795 -1.836158
99.919525 -97.203018 -6.8274179
97.811417 -97.343857 -7.093821
98.306694 -97.356422 -7.0069399
92.485992 -97.027359 -2.2053211
99.363487 -97.056465 -7.4082131
83.969627 -96.981209 -3.547945
97.037308 -96.965324 -7.0655708
95.3974 -96.536354 -7.3992939
84.001732 -96.337318 -2.764205
84.022049 -96.228516 -3.568074
83.990906 -96.127304 -3.605674
99.613823 -96.016975 -6.2947192
99.656326 -96.120575 -6.587728
97.899338 -96.037659 -6.9848871
99.667046 -96.113022 -6.9743028
95.427216 -96.145813 -7.3687758
99.635796 -95.885941 -6.7352948
95.433655 -95.897018 -8.3084488
83.718857 -95.603806 -2.228982
99.653267 -95.690224 -6.8870549
99.650116 -95.499634 -6.754457
99.649719 -95.461121 -6.886683
99.640533 -95.037827 -6.5865369
83.774757 -94.419746 -1.85551
97.879883 -94.291161 -2.1993439
97.885292 -94.288391 -2.692853
99.018074 -94.387238 -2.6602831
84.074364 -94.274284 -3.7642031
98.012558 -94.161949 -1.641076
84.110641 -94.150429 -1.821972
98.483658 -94.130264 -7.0627632
84.108337 -93.819176 -1.803483
99.684128 -93.966789 -6.5678272
99.383698 -93.850037 -6.9583888
97.94574 -93.457733 -7.3846302
84.124794 -93.383636 -1.812041
84.152969 -93.386292 -3.1516919
98.021042 -92.573158 -6.8539009
97.962677 -92.256752 -6.359632
98.002327 -92.28775 -7.1236558
99.500229 -91.652817 -6.6460061
99.560532 -91.574051 -6.3099751
98.730499 -91.499435 -7.2588568
93.947464 -91.237923 -12.161712
95.871559 -91.291321 -12.086401
98.190872 -91.311195 -12.016146
98.792206 -91.026756 -11.149949
99.318611 -91.095543 -11.151827
98.912338 -91.081123 -11.218826
99.621323 -91.116547 -11.257643
99.967453 -91.029633 -11.452916
99.803238 -91.043236 -11.793624
99.412033 -91.026588 -11.857574
94.078995 -91.009842 -12.16605
96.995209 -90.948082 -11.500837
97.264656 -90.866699 -11.465979
96.347878 -90.96434 -11.648045
96.598015 -90.964005 -11.684008
98.853088 -90.967064 -11.639631
96.911331 -90.91983 -11.89834
97.248749 -90.882874 -11.848341
99.130966 -90.996407 -11.905962
95.295959 -90.828857 -12.543137
97.322388 -90.659042 -11.480632
97.67215 -90.647919 -11.424545
97.770355 -90.61541 -11.79712
94.862244 -90.685074 -11.923158
97.315895 -90.664055 -11.864054
93.30838 -90.669464 -12.583537
92.141533 -90.647102 -12.780656
92.654739 -90.660995 -12.693351
93.01709 -90.695358 -12.629001
94.216766 -90.771225 -12.726221
94.525223 -90.790123 -12.673496
94.846489 -90.797089 -12.620199
92.615875 -90.690102 -12.999098
92.935013 -90.717552 -12.943207
93.261978 -90.729347 -12.887945
93.741516 -90.760765 -12.805397
91.581894 -90.651848 -13.174778
91.930969 -90.657585 -13.116209
92.269531 -90.681679 -13.057339
90.57872 -90.616379 -13.345837
90.995178 -90.678497 -13.269268
91.250809 -90.647621 -13.230286
95.340775 -90.576797 -11.857158
95.299446 -90.465538 -12.029896
89.031036 -90.512474 -13.319369
89.423996 -90.528046 -13.400076
89.85054 -90.571938 -13.472605
90.202225 -90.591614 -13.411541
88.953011 -90.533096 -13.627552
83.846039 -99.543617 -3.3048179
95.257507 -99.547928 -7.2529559
94.537003 -98.642723 -2.625823
95.316269 -98.438095 -7.3129148
99.435326 -97.135132 -6.896378
97.139832 -97.003891 -7.302515
98.18354 -97.014542 -7.7647491
92.487839 -96.868523 -2.4945731
84.100983 -96.822479 -2.938024
96.533264 -96.946198 -7.1809759
95.903992 -96.903175 -7.248929
84.026108 -96.797699 -3.6417389
95.421463 -96.672028 -7.0738182
96.085785 -96.725868 -7.0059628
83.984802 -96.540573 -3.649431
83.98925 -95.91523 -3.5777271
84.035248 -95.827568 -4.147583
99.636429 -95.824509 -6.5844669
99.556206 -95.72435 -6.632762
95.421471 -95.79464 -7.7102151
99.625191 -95.531494 -6.674603
95.438934 -95.425636 -8.1687584
99.632172 -95.299004 -6.2413011
99.675049 -94.864853 -7.0306511
99.703316 -94.697479 -7.3313832
99.375511 -94.699661 -7.709455
98.012321 -94.477127 -1.589455
99.903046 -94.40744 -3.257988
97.971542 -94.472435 -7.1557012
98.154312 -94.551239 -7.4723501
98.0224 -94.231712 -1.59723
99.782364 -94.208984 -6.889513
99.704361 -93.848724 -6.8980422
98.024193 -93.61795 -2.7107649
98.065933 -93.518852 -2.597697
98.006317 -93.534302 -6.6382871
84.15818 -93.031876 -3.087703
97.944153 -93.011971 -7.3834362
97.950539 -92.586449 -6.5477071
97.969559 -92.546173 -7.420013
97.980667 -92.163254 -6.5305128
98.041939 -92.15377 -7.472887
84.204987 -91.836746 -4.0602412
99.898651 -91.62944 -5.996244
98.027229 -91.679382 -7.001657
98.732513 -91.610397 -7.1790509
99.094147 -91.618149 -7.139637
97.011337 -91.666077 -12.162487
97.280754 -91.684113 -12.1166
97.569168 -91.684708 -12.069851
98.500626 -91.684013 -12.165994
98.94809 -91.68576 -12.159786
98.155594 -91.658928 -12.229187
98.463867 -91.68914 -12.228346
99.838295 -91.597649 -6.5780172
99.424942 -91.592651 -6.6124868
99.104706 -91.50573 -7.257483
95.412262 -91.564636 -12.130127
97.888947 -91.551079 -12.03475
96.763351 -91.365105 -11.987837
98.891434 -91.267563 -11.995158
99.337158 -91.102028 -11.304596
99.438377 -91.026855 -11.368312
99.232758 -91.031151 -11.574352
99.893227 -91.036469 -11.443493
99.505051 -91.015808 -11.886971
98.423302 -91.051529 -12.011532
99.536606 -91.001312 -12.191183
99.80336 -91.01033 -12.192674
99.34153 -90.96756 -11.961644
96.251228 -90.830154 -12.567679
97.410416 -90.894325 -12.93432
95.73262 -90.813057 -13.045421
98.234879 -90.923164 -13.04029
99.013123 -90.936623 -13.03531
94.437096 -90.876053 -13.293629
95.059906 -90.800217 -13.436214
97.482567 -90.870735 -13.7869
98.6101 -90.918495 -13.728501
96.330246 -90.817665 -13.976083
94.676231 -90.824631 -14.190454
95.037766 -90.823822 -14.139654
95.510643 -90.855698 -14.069637
97.869781 -90.614265 -11.445515
97.310623 -90.678238 -11.83814
98.205795 -90.639885 -11.896376
94.884537 -90.65358 -12.075359
93.39621 -90.683189 -12.543339
94.624825 -90.761307 -12.760938
93.001381 -90.688499 -12.997604
91.824478 -90.620438 -13.154774
94.926682 -90.790863 -13.131149
95.106911 -90.762207 -13.198635
91.423386 -90.622856 -13.23632
91.94455 -90.616905 -13.203165
94.170349 -90.762283 -13.254889
94.810646 -90.752235 -13.248249
95.84021 -90.776215 -13.52572
92.201996 -90.648743 -13.798772
94.562309 -90.723633 -13.724835
94.994514 -90.727737 -13.659229
95.309448 -90.524437 -12.075391
88.983154 -90.496292 -13.505795
91.43956 -90.599777 -13.768772
90.591949 -90.552444 -14.266275
89.491562 -90.471985 -14.997356
99.980675 -80.611008 -2.0969751
83.842651 -99.817116 -3.8764751
83.918427 -98.967888 -3.5023
95.30732 -98.345818 -7.3761058
97.93573 -97.404602 -2.5098829
97.91291 -97.269409 -1.905532
99.918076 -97.265335 -6.311183
99.468292 -97.33284 -6.592802
99.759613 -97.361008 -6.7551122
98.608307 -97.298935 -6.9559922
99.456818 -97.248199 -6.9948049
99.134537 -97.213448 -7.2400718
98.512634 -97.000015 -7.005888
98.458466 -96.887825 -7.4580178
98.936493 -96.973877 -7.4148879
97.538376 -96.968552 -7.922245
83.974709 -96.652023 -4.2086778
99.541107 -95.906921 -7.0353379
95.472137 -95.468842 -7.8470998
99.62262 -95.016518 -6.3230572
95.465271 -95.026169 -8.199667
99.660217 -94.85347 -7.4952741
98.049759 -94.497742 -2.3561411
84.084473 -94.533295 -3.8953099
99.650627 -94.549408 -6.6709161
98.985199 -94.350365 -2.9486389
99.712051 -94.34359 -7.2922101
88.816772 -94.117157 -4.1101861
99.003189 -94.056747 -6.5003061
98.54393 -94.065048 -7.4006381
98.027069 -93.939346 -1.647368
98.04229 -93.718384 -7.6043501
98.869186 -93.56575 -6.8173828
98.116791 -93.454346 -7.5427308
98.024368 -93.3423 -3.507437
84.152283 -92.990433 -1.809579
98.012817 -92.995514 -2.8207901
98.004227 -92.656021 -2.8686781
97.988266 -92.127029 -7.440774
97.970665 -91.856918 -6.5142188
97.778214 -91.646729 -12.126454
98.064804 -91.662148 -12.078405
98.346069 -91.675674 -12.031526
98.673508 -91.687874 -12.166468
99.874557 -91.58316 -6.8993001
96.243698 -91.562759 -12.030449
99.12014 -91.449677 -12.20006
84.314835 -91.081551 -2.4005101
98.237717 -91.10936 -6.663137
99.906693 -91.133591 -11.210264
99.814964 -91.023636 -11.718373
97.020966 -91.029305 -11.882847
99.092651 -91.001892 -12.210436
96.31958 -90.900192 -11.681468
99.216858 -90.982468 -11.722879
99.472794 -90.983261 -11.690446
94.986305 -90.82576 -12.109598
96.728104 -90.85041 -12.559807
97.057159 -90.87516 -12.538177
98.679695 -90.970139 -12.558928
97.889549 -90.926208 -12.688806
98.612015 -90.944336 -12.98105
99.891998 -90.987488 -12.900744
96.992561 -90.875046 -13.002576
94.616165 -90.841583 -13.38418
99.517426 -90.977348 -13.492599
97.091293 -90.843628 -13.845735
94.32254 -90.817245 -14.22632
97.373718 -90.695404 -11.500229
97.81601 -90.631187 -11.855498
94.177986 -90.738892 -12.590689
92.213326 -90.642944 -12.72537
92.626808 -90.657837 -12.659769
95.039658 -90.77478 -12.726145
95.486366 -90.794571 -12.649162
94.253212 -90.740128 -12.836715
91.485886 -90.617645 -13.133444
91.136902 -90.614822 -13.247828
93.915909 -90.72908 -13.397743
92.787193 -90.696083 -13.484373
93.031998 -90.689789 -13.497228
95.419899 -90.754944 -13.591563
96.222931 -90.793335 -13.93611
92.594147 -90.684647 -14.029196
92.813927 -90.645187 -14.001062
95.521385 -90.785477 -14.073887
94.104446 -90.732559 -14.29155
94.47287 -90.738602 -14.209958
92.496849 -90.618568 -14.529935
90.208908 -90.543747 -12.961361
90.689163 -90.556061 -12.894838
89.062836 -90.500549 -13.122489
89.870583 -90.554039 -13.974213
90.216187 -90.545029 -14.136497
91.40918 -90.584023 -14.163971
92.181656 -90.596611 -14.104501
90.919708 -90.565735 -14.21284
88.936813 -90.485153 -14.53754
90.271362 -90.512939 -14.410639
91.38475 -90.578201 -14.702765
89.018356 -90.463135 -15.071217
83.9021 -99.940468 -3.27597
83.92189 -98.872238 -4.4695578
95.284073 -98.163307 -7.1518049
99.086548 -97.299561 -6.8726039
97.821846 -97.036346 -7.064465
99.861855 -97.129173 -7.1874652
96.564934 -97.096123 -8.1688766
96.20787 -96.807137 -6.924407
96.098892 -96.911171 -7.2853651
97.721741 -96.93499 -7.4067092
84.007904 -96.653175 -3.5563159
96.826141 -96.790108 -7.7387428
96.562454 -96.733894 -7.8605542
84.001328 -96.496933 -2.7596371
95.471016 -96.480309 -8.1677837
95.381493 -96.452438 -8.4354963
92.429276 -96.314156 -1.6960551
99.588707 -96.062012 -6.7992878
99.661728 -95.827728 -6.323524
97.986633 -95.636162 -7.004118
99.629555 -95.454567 -7.0246072
99.648499 -95.389877 -7.2625132
99.621552 -95.072716 -6.6319761
97.880157 -94.875061 -7.068058
95.455788 -94.609436 -8.37605
98.021255 -94.507935 -2.4086919
98.041847 -94.236298 -3.057713
84.129395 -94.134178 -3.086226
99.717476 -94.160126 -6.286305
99.699905 -94.166931 -6.6130509
98.018661 -93.972443 -7.1474891
99.041618 -93.838242 -7.022604
84.088081 -93.787827 -3.917655
84.140518 -93.434853 -2.763016
97.952171 -93.433701 -7.059052
80.696884 -93.25602 -3.793905
97.959442 -93.396881 -6.751842
98.005295 -93.041656 -6.8388519
97.956085 -93.06768 -7.0761929
97.983475 -92.627388 -7.0810642
84.198654 -92.214676 -4.0505042
97.941704 -92.296555 -6.9828582
98.002739 -92.135284 -6.7237749
98.003883 -91.904251 -6.5858202
97.811501 -91.667007 -12.032896
97.954926 -91.580994 -6.5308518
98.539673 -91.522896 -7.135314
98.935341 -91.543076 -7.0897789
93.420609 -91.484352 -12.246483
94.437607 -91.432762 -13.448242
84.355148 -91.109718 -2.347909
98.999695 -91.000404 -10.939739
99.327347 -91.022957 -10.942216
99.905807 -91.049667 -11.144039
98.920929 -91.017174 -11.456532
99.471588 -91.030304 -11.534509
99.726364 -91.044815 -11.492109
99.863403 -91.007889 -11.874185
95.371346 -91.054672 -12.192198
99.823944 -91.016846 -12.542631
96.41449 -90.903519 -11.59481
97.23291 -90.888367 -11.47621
98.907562 -90.963501 -11.69888
96.572144 -90.904991 -11.816434
97.37075 -90.869827 -11.903758
98.86203 -90.997406 -11.948528
99.123047 -90.996193 -11.949912
94.642654 -90.872627 -12.089443
96.294388 -90.947891 -12.056536
96.552475 -90.877853 -12.023988
99.322258 -90.993294 -12.185152
99.03466 -90.99131 -12.296764
95.875938 -90.822807 -12.626169
98.287033 -90.936974 -12.624921
97.826202 -90.938133 -12.989925
99.518097 -90.961533 -12.958519
96.640015 -90.868164 -13.037844
95.481934 -90.814178 -13.368542
96.21489 -90.830444 -13.357492
97.867149 -90.877838 -13.211128
98.697189 -90.919495 -13.559488
99.874161 -90.998253 -13.440947
98.801743 -90.947578 -13.631037
95.831238 -90.82106 -14.064211
93.431656 -90.870789 -14.36356
93.884415 -90.858482 -14.307588
93.785278 -90.735855 -12.458351
93.407692 -90.704582 -12.938174
93.84317 -90.725258 -12.887083
92.268524 -90.65448 -13.096052
92.672028 -90.664169 -13.043156
93.569832 -90.734207 -13.354219
92.665306 -90.663361 -13.721728
94.283493 -90.697052 -13.770649
93.826958 -90.687759 -13.841038
95.003265 -90.791565 -14.120604
92.757477 -90.5298 -1.9948961
95.343369 -90.527832 -11.829927
91.034279 -90.584717 -12.84475
89.743073 -90.519562 -13.027519
90.256813 -90.562057 -13.368697
90.676735 -90.579948 -13.312054
89.436829 -90.516891 -13.473587
89.890709 -90.528069 -13.420069
88.979904 -90.481323 -13.64206
89.491226 -90.490211 -13.626617
90.693512 -90.54277 -13.955078
91.022987 -90.585838 -13.820119
88.990906 -90.498383 -14.165442
89.419479 -90.511963 -14.241953
89.277626 -90.450806 -14.573706
89.774231 -90.479698 -14.492414
91.05629 -90.560577 -14.752552
89.826332 -90.490738 -14.94496
92.56884 -90.399391 -14.59413
94.392502 -99.731941 -1.906824
94.449799 -98.318619 -2.7443609
99.918091 -97.101761 -6.5578952
99.09201 -97.036423 -6.6758041
98.115448 -97.058075 -7
99.048851 -97.039993 -6.9508739
97.508514 -97.078194 -7.0705781
97.418991 -97.099594 -7.2718229
99.195755 -97.068405 -7.6152391
97.956909 -96.900414 -6.6651711
98.726898 -96.999557 -7.7941618
95.938934 -96.868134 -8.4073429
92.51696 -96.651047 -2.2159231
92.521347 -96.677635 -2.4990411
97.031845 -96.799049 -6.8661251
97.290833 -96.747528 -7.4123869
96.073837 -96.743126 -7.8682222
83.99749 -96.528885 -3.593529
95.414726 -96.25264 -8.3127785
95.395004 -96.180473 -8.444067
84.043808 -95.867905 -3.5778649
99.514122 -95.876457 -6.3051128
99.656631 -95.868515 -7.301908
95.417847 -95.986671 -7.4973412
99.053238 -94.5121 -2.303324
99.033875 -94.410019 -2.9519999
99.672325 -94.568123 -7.0993981
99.018295 -94.136192 -6.911397
84.117928 -93.845284 -3.063946
99.699791 -93.971489 -6.5356059
97.981728 -93.828613 -7.4821658
97.923569 -93.640953 -7.0522418
98.005569 -93.385864 -1.961337
97.967407 -93.380753 -2.0198519
84.1138 -93.129494 -2.730444
97.952072 -93.093224 -6.6590171
84.184837 -92.490662 -4.0438032
99.828293 -91.648468 -6.6197629
99.440712 -91.621826 -7.10218
98.021271 -91.691589 -7.3180799
99.097427 -91.697464 -12.222122
84.217697 -91.424171 -4.070703
99.318459 -91.552673 -7.0463619
98.284988 -91.539284 -7.2714291
98.702736 -91.495193 -11.996785
95.844162 -91.419319 -12.087405
95.068901 -91.41404 -12.20208
98.165123 -91.322014 -6.585196
93.843048 -91.371033 -12.180815
99.066978 -91.088203 -11.349312
98.953537 -91.006905 -11.62166
99.061172 -91.127869 -11.985749
84.164734 -90.915787 -3.6766591
96.913559 -90.929817 -11.518766
99.154823 -90.99276 -11.587857
98.599281 -90.993805 -11.990782
95.705383 -90.822151 -12.165339
97.450226 -90.896729 -12.539608
95.392151 -90.821564 -12.627131
99.097755 -90.984085 -12.641053
99.432579 -90.998169 -12.605547
96.220497 -90.850319 -12.94839
95.208298 -90.804718 -13.084814
95.792282 -90.831627 -13.317924
96.656494 -90.822586 -13.397661
97.073776 -90.852402 -13.331599
97.464081 -90.864433 -13.272315
99.124542 -90.955223 -13.549594
97.865654 -90.889099 -13.733521
98.278923 -90.912521 -13.671906
99.603821 -90.977943 -13.635293
96.697189 -90.820564 -13.904629
92.474564 -90.811714 -14.547579
95.808014 -90.695732 -12.163754
93.029182 -90.687759 -12.596535
91.800728 -90.608795 -12.738688
94.63398 -90.769676 -13.002242
95.393478 -90.790169 -13.148375
92.330032 -90.673271 -13.560745
91.832184 -90.626938 -13.834925
93.112007 -90.67263 -13.855588
93.376617 -90.649307 -13.914753
95.855743 -90.77993 -14.011418
92.096954 -90.626015 -14.574303
94.899353 -90.570297 -11.89077
89.432953 -90.523315 -13.069283
90.353439 -90.573235 -13.893169
91.860367 -90.590546 -14.154648
89.797699 -90.516525 -14.209212
90.744522 -90.53788 -14.78336
91.811897 -90.583397 -14.643322
90.22538 -90.514099 -14.882832
90.59446 -90.537476 -14.850802
99.979301 -82.50042 -6.4141698
