# .PCD v0.7 - Point Cloud Data file format
VERSION 0.7
FIELDS x y z
SIZE 4 4 4
TYPE F F F
COUNT 1 1 1
WIDTH 219
HEIGHT 1
VIEWPOINT 0 0 0 1 0 0 0
POINTS 219
DATA ascii
90.961548 60.023846 -2.2363341
90.956383 60.596169 -2.269336
91.05217 61.296921 -0.30974999
91.286118 62.506935 -2.2826011
91.031624 61.155602 -2.2470629
91.036461 61.38562 -0.335336
91.015137 61.508205 -2.2140779
80.537132 62.649467 3.463099
85.791183 62.795563 -1.291641
87.372658 62.745422 -2.454849
87.628784 62.724583 -2.448884
85.729103 62.787529 -2.6975989
86.381203 62.820332 -2.998733
90.999573 60.114826 -2.2417431
90.88018 60.730606 1.598176
90.938553 61.37426 4.197618
84.237633 62.336639 3.406898
87.744164 62.340862 3.00474
87.301003 62.506943 4.5074782
80.43943 62.595356 3.8511529
84.101738 62.409462 3.7842121
84.212425 62.467113 3.5403321
89.471916 62.484692 2.7815061
87.660934 62.486252 1.493136
87.910789 62.464142 -1.046563
89.38559 62.578541 -1.235957
86.650414 62.66291 2.949461
86.931076 62.624779 2.9648521
81.852257 62.776184 1.675987
87.37989 62.634895 1.477946
87.121597 62.767502 -2.369611
85.739212 62.784248 -2.6307991
82.059448 62.801662 3.431149
80.393799 62.837383 1.777264
82.848701 62.922852 -2.8518159
82.704994 62.897865 -4.5722728
90.985458 60.166565 -0.303994
88.615898 62.098022 -1.4735759
87.746826 62.320435 4.0583711
84.121948 62.429153 3.8716559
80.483971 62.594124 3.1359711
90.929352 62.583229 -2.2445109
80.345734 62.647102 3.373029
86.967468 62.649216 2.900424
86.116608 62.623283 2.6450729
86.250153 62.617832 2.790468
86.505661 62.651024 2.615844
81.737961 62.675831 2.349931
82.749001 62.774105 1.92249
83.062065 62.7798 0.18593501
86.944443 62.726849 -1.908314
84.038254 62.780483 -2.3636379
90.189232 62.602444 -2.2415969
81.802399 62.804443 2.3852651
81.349792 62.814369 1.739305
81.891457 62.865273 0.87044698
82.130592 62.845184 0.98639703
83.798477 62.841652 0.31994799
81.760918 62.811928 0.107347
82.606628 62.859352 -0.61740398
81.368622 62.931725 -2.027189
90.863434 60.262516 -3.80215
91.045784 60.89753 -0.29456201
88.011971 62.295944 3.183676
87.535515 62.394878 2.8594949
86.935509 62.543808 4.4870839
86.856392 62.582378 4.13516
83.938965 62.510353 3.4843781
87.940727 62.522434 2.8868029
84.119499 62.55732 0.34657201
91.269157 62.520409 -2.2754869
80.565567 62.640656 3.8141439
86.277039 62.60289 2.925909
85.430794 62.693611 2.635479
85.762573 62.63443 2.6237481
86.951721 62.636036 2.6189771
82.08857 62.786697 2.4018381
86.289413 62.605839 2.5769529
83.736481 62.739941 1.880376
85.962135 62.72617 -0.24682599
89.307709 62.65173 -0.589333
85.85817 62.763561 -1.952188
89.45546 62.636539 -2.162179
85.434265 62.790424 -2.5774219
84.179794 62.693932 -2.8370399
88.085396 62.766567 -3.176775
85.298973 62.707672 -3.4914701
80.662582 62.781075 -4.6443329
80.023476 62.838184 3.9320159
82.280495 62.817257 2.3863521
82.473549 62.816097 2.3979731
83.226929 62.817619 1.876586
87.005608 62.93977 -0.19268601
82.867653 62.839828 -1.410054
81.06385 62.928284 -1.9490941
80.725487 62.923801 -2.1677401
81.750885 62.917252 -2.0010009
84.592834 62.816471 -2.011636
83.849968 62.87809 -2.8056171
82.426994 62.881268 -3.5783019
80.037788 63.311127 -5.1436791
87.693993 67.181404 3.0000889
80.920029 67.467171 2.8281579
91.01181 60.555717 -0.28250399
90.911362 60.71043 4.253511
90.920174 61.099411 4.260067
87.722244 62.297985 3.8059859
91.50325 62.382423 -2.271832
84.082924 62.458153 5.101027
80.542633 62.582581 4.121295
87.837723 62.405693 2.6368871
88.030533 62.487976 1.514097
89.838745 62.59996 -0.550928
87.623688 62.431171 -1.66808
90.599754 62.548454 -2.4082091
83.770729 62.61805 5.0411139
82.565285 62.75119 3.4289711
82.264198 62.730713 3.303592
86.590286 62.667686 2.878875
84.66227 62.76585 2.7025001
80.33886 62.661694 2.4032159
81.359787 62.640858 2.3262889
82.277298 62.783222 2.334748
84.342361 62.630047 1.919993
87.423485 62.630562 1.4140019
85.592422 62.682621 1.243422
85.874786 62.678333 1.259505
86.992584 62.64249 1.3230799
80.505417 62.690727 1.103068
85.265198 62.767616 0.38045001
87.437996 62.684315 -1.688791
85.36042 62.786884 -1.924629
86.29496 62.752258 -1.972108
87.378937 62.777969 -2.976305
89.431641 62.652763 -3.9917281
81.072556 62.83736 1.81916
80.208687 62.841019 1.0874439
81.044098 62.890663 0.81862801
81.503281 62.869495 0.152417
82.269463 62.875259 -0.62774497
82.901489 62.868465 -2.0165601
82.441505 62.971443 -3.1141419
80.076714 63.197842 3.3072441
82.827339 63.159786 -0.62071002
80.155472 63.005493 -3.558614
80.082932 63.276104 -0.67211002
86.165825 61.386196 -0.209985
86.437042 61.3629 -1.687053
86.147667 62.178066 4.1193662
87.903961 62.257046 4.697679
87.60009 62.378063 2.6530759
87.695168 62.440731 1.406482
84.180145 62.562813 1.009266
90.502983 62.597141 -2.2197299
80.308678 62.628052 3.8241589
81.62571 62.695736 3.8719511
84.522202 62.665279 3.9930291
81.990646 62.792328 3.354599
85.75386 62.611954 2.895617
84.366409 62.731255 2.523936
84.547714 62.73597 1.03264
84.994644 62.733772 0.98747301
80.569473 62.703377 0.206531
80.510498 62.725407 -0.58511502
85.64106 62.726826 -0.485203
86.474045 62.714394 -0.60628903
85.079498 62.797657 -2.047648
89.980682 62.618584 -2.152535
87.297867 62.738571 -2.220129
88.480927 62.679722 -2.3344641
89.620529 62.618587 -2.4254749
86.452026 62.647289 -3.4500451
82.049835 62.803482 2.618206
82.514557 62.837738 0.89603698
80.980179 62.855457 0.26876199
85.271683 62.959408 -0.51273102
81.883347 62.928619 -0.65303701
83.391594 62.834915 -2.9590709
85.033295 62.866096 -2.8106871
85.66011 62.833187 -3.0142219
80.486801 62.861206 -3.5272541
80.82724 62.91045 -3.5535691
82.143692 62.839371 -3.5043271
87.18486 63.304466 2.9988971
80.747719 63.228333 -0.52595198
82.028839 67.370781 3.5428469
85.290474 67.310326 2.8636661
91.00061 60.68853 -2.2743061
87.7285 62.345234 2.9367039
89.960526 62.439392 3.2730031
88.087265 62.555168 -2.3356659
81.918343 62.748756 4.932765
85.768379 62.613705 4.1176829
82.099724 62.740566 3.902144
80.533279 62.629448 3.3930349
85.053078 62.735722 2.6141191
87.335258 62.614025 2.6423941
80.529099 62.641628 2.561909
82.917694 62.756851 1.894821
80.64785 62.710003 1.792641
83.448654 62.69976 1.782528
86.339073 62.691608 1.286032
86.152542 62.716534 -0.45387
80.292641 62.754417 -0.75058198
84.155373 62.632133 -1.248443
88.774681 62.728218 -2.641098
85.844749 62.654057 -3.479553
86.863792 62.628223 -3.4477811
84.105415 62.72887 -4.0820971
81.424156 62.869038 0.98247999
83.492401 62.807022 0.30224699
86.578903 62.978909 -0.21718401
80.39312 62.860832 -1.990941
80.771324 62.862465 -1.966069
80.220047 62.95665 -2.105808
82.374809 62.900288 -2.1759009
85.081696 62.817867 -2.4158361
84.536774 62.831352 -2.8304689
81.387489 62.926849 -3.49983
