# .PCD v0.7 - Point Cloud Data file format
VERSION 0.7
FIELDS x y z
SIZE 4 4 4
TYPE F F F
COUNT 1 1 1
WIDTH 974
HEIGHT 1
VIEWPOINT 0 0 0 1 0 0 0
POINTS 974
DATA ascii
109.76517 -288.87491 -6.850431
111.08772 -281.6748 -6.688889
105.0196 -281.62311 -14.715448
105.72784 -280.62643 -15.344269
103.38543 -280.41483 -14.229496
106.25727 -280.47668 -15.249252
106.43579 -280.57684 -15.330117
103.37018 -280.38177 -14.147391
106.4448 -280.2121 -15.422865
106.39111 -280.28067 -15.776118
105.71642 -280.1886 -15.269142
100.13289 -290.87 -13.880242
100.24285 -290.76379 -14.137909
111.1268 -289.47623 -7.03297
111.09389 -289.29065 -7.2271671
100.29329 -289.26065 -12.304781
100.09583 -289.14948 -12.464455
100.146 -288.61349 -13.458568
101.00156 -287.88123 -11.706703
100.26662 -287.93182 -12.469612
100.01501 -287.87723 -13.878731
100.37527 -287.62595 -13.341509
100.70321 -287.51953 -12.848274
100.83241 -287.56418 -12.810596
100.6376 -287.47174 -13.246408
100.83006 -287.04019 -12.787344
119.90379 -283.32263 -9.0274172
119.97777 -283.2356 -9.8510742
119.74357 -282.06195 -11.906929
119.75819 -281.61154 -11.843129
105.08736 -281.67825 -14.58501
105.33621 -281.629 -14.523136
105.07709 -281.56503 -14.522681
105.41846 -281.5383 -14.475694
105.36131 -281.44498 -14.98609
105.99146 -281.09253 -14.704091
118.89237 -280.94901 -8.8712234
106.26559 -280.81827 -14.768644
106.1264 -280.8739 -14.891777
106.42352 -280.82928 -14.971191
105.88413 -280.61981 -15.114905
106.17487 -280.66312 -15.045839
106.48309 -280.72192 -15.020512
106.6755 -280.68323 -15.864584
106.91017 -280.66391 -16.01207
104.22551 -280.65353 -16.42057
114.89233 -280.58264 -8.1894617
103.47296 -280.46909 -14.166508
105.79095 -280.59158 -15.304863
106.17143 -280.49438 -15.254543
106.54669 -280.53964 -15.254421
104.32907 -280.48636 -16.121799
106.68605 -280.5835 -16.007156
117.92782 -280.35828 -8.7511883
118.27267 -280.2207 -8.7521229
114.87626 -280.3465 -8.8649578
117.13947 -280.20035 -8.8686638
103.12326 -280.27606 -14.200839
103.44153 -280.3096 -14.321195
105.80328 -280.3696 -15.033416
106.33063 -280.26309 -15.91062
104.66959 -280.2514 -16.157658
103.3255 -280.13901 -14.49157
104.82289 -280.05942 -14.815493
103.64044 -280.08032 -15.063948
106.32111 -280.04257 -15.598477
105.1796 -280.09152 -15.685701
106.47863 -280.14117 -16.150618
114.42931 -299.80237 -12.395052
114.24768 -299.61877 -11.302551
114.75467 -299.74561 -12.976644
114.6046 -299.62592 -13.663935
114.70635 -299.60925 -14.197381
114.84948 -299.55182 -11.539789
114.29321 -299.55835 -11.651134
114.60758 -299.41586 -12.569974
114.22478 -299.41086 -12.670782
114.33713 -299.54364 -12.939205
114.32262 -299.55719 -13.64539
114.52828 -299.52734 -13.823275
114.52491 -299.41864 -14.096176
113.83015 -299.21078 -10.330922
114.66679 -299.21481 -11.633139
114.87346 -299.30566 -12.571287
114.57076 -299.38623 -12.929809
114.94605 -299.03241 -9.0772982
114.46135 -299.01782 -12.751627
114.61934 -298.99408 -11.378592
113.5211 -296.60458 -8.4004164
119.6639 -296.48877 -9.8298302
115.73595 -295.29083 -11.320475
115.01472 -295.26315 -12.138464
115.1388 -295.0838 -12.123003
115.01376 -295.00116 -13.404535
115.35873 -295.07788 -13.427043
115.20833 -295.05771 -13.667227
115.66625 -294.9212 -11.17489
115.55508 -294.93616 -11.282923
115.44183 -294.82938 -12.318636
115.85921 -294.98688 -12.368393
114.83954 -294.97845 -13.08448
115.77491 -294.91531 -13.421455
115.57607 -294.60349 -8.9835167
116.28918 -294.60962 -9.1557817
114.51197 -294.74915 -11.231388
114.88101 -294.68958 -12.177839
115.09178 -294.76089 -13.27135
115.42138 -294.72659 -13.419606
115.35853 -294.72467 -14.248377
116.57866 -294.58673 -9.0706577
116.9642 -294.51306 -9.184104
115.50519 -294.50171 -12.293138
116.81627 -294.39828 -8.2289791
115.28201 -294.09717 -11.073763
100.15332 -290.84473 -13.895102
100.27995 -290.84286 -14.110949
100.13048 -290.74481 -14.110693
110.96078 -289.4538 -8.2541199
110.99078 -289.4505 -8.4426022
111.00365 -289.44434 -9.0312853
110.97122 -289.45963 -9.5998306
114.134 -289.29742 -8.1427975
100.2039 -289.37363 -11.78508
100.89954 -289.07513 -9.3902092
100.89234 -289.03149 -9.7636127
100.21559 -289.13489 -12.310131
111.00258 -288.44803 -10.05842
100.13827 -288.29193 -11.34458
100.69748 -288.09283 -12.895134
100.06898 -287.9176 -11.366119
100.68533 -287.91684 -11.93878
100.17763 -287.95917 -12.498085
100.14325 -287.93759 -13.829291
119.38184 -287.99265 -14.594846
100.96191 -287.79077 -11.874228
100.97298 -287.62836 -12.867529
100.64642 -287.57132 -12.739929
119.60722 -287.37518 -14.507639
119.78339 -287.18268 -14.590899
119.73625 -286.83105 -15.17518
119.83885 -286.85034 -15.252115
119.69551 -286.72931 -15.220716
119.81474 -286.50671 -16.394686
119.94432 -286.53232 -16.417543
110.64112 -286.28741 -6.810637
114.49239 -284.90979 -8.1715279
114.61844 -283.50336 -7.97082
111.44173 -283.35269 -6.6931729
112.73793 -283.24213 -6.630744
113.70206 -283.11102 -7.1886568
114.22044 -283.09433 -7.0423698
119.76561 -282.82126 -8.4452801
115.9137 -282.55872 -8.4439507
119.91413 -282.40082 -8.7029591
119.7551 -282.59003 -11.484688
115.4687 -282.49933 -11.752243
114.95142 -282.55185 -11.848676
115.23419 -282.46643 -12.547508
116.73445 -282.22046 -9.1432581
114.6869 -282.35889 -10.020264
115.00977 -282.26746 -10.139688
114.89825 -282.34601 -10.716393
115.32449 -282.2482 -11.817575
115.40248 -282.38403 -12.529116
114.76995 -282.07559 -7.9249878
114.98069 -282.02914 -11.411175
115.11349 -282.09882 -11.789421
115.81893 -282.1076 -11.822094
114.62824 -281.81686 -6.5219412
115.93037 -281.82962 -11.575048
110.99747 -281.75717 -7.0058441
114.67812 -281.74237 -7.0411692
114.70259 -281.48944 -7.1972198
119.11593 -281.435 -9.3587856
105.32776 -281.53345 -14.555777
104.98383 -281.40045 -14.976013
105.16153 -281.37943 -15.689906
105.92818 -281.00293 -14.661637
106.16554 -280.98364 -14.613658
106.20668 -280.85052 -14.902444
114.84183 -280.6283 -6.5334582
115.99106 -280.72797 -8.1959858
116.9386 -280.7038 -8.3551111
118.24281 -280.65305 -8.2776937
118.57197 -280.64902 -9.0976839
119.81627 -280.67505 -14.588671
106.17703 -280.72501 -15.079733
106.25778 -280.74268 -15.068874
106.43848 -280.63132 -15.116414
105.58481 -280.64197 -15.289299
106.84337 -280.63464 -16.074551
114.88564 -280.52969 -8.1989498
117.63686 -280.45831 -8.0982351
117.59457 -280.55536 -8.3977728
118.54946 -280.4978 -9.813509
103.49528 -280.51202 -13.924588
103.50393 -280.45465 -14.22628
105.86124 -280.54184 -15.076751
105.89284 -280.5047 -15.324404
106.14628 -280.47241 -15.279673
106.44922 -280.44141 -15.300417
106.34563 -280.45642 -15.690387
106.56555 -280.57269 -15.927433
114.48526 -280.2041 -7.9196429
114.31626 -280.20612 -8.0277872
116.43583 -280.37744 -8.3382816
117.84673 -280.33078 -8.7144089
103.47803 -280.2381 -14.622253
105.5154 -280.28473 -15.095633
105.75737 -280.30286 -15.078764
104.65895 -280.20468 -16.107605
115.16541 -280.17914 -8.1317244
117.33505 -280.06683 -8.2970715
114.46304 -280.1842 -8.8268204
118.6583 -280.1355 -10.147976
119.4001 -280.14206 -11.131302
117.08842 -280.05396 -11.20873
103.67204 -280.1904 -14.729674
103.75182 -280.09024 -15.122749
105.56896 -280.07208 -15.283158
106.27859 -280.18954 -15.916711
113.8923 -299.89755 -10.807924
114.26952 -299.81055 -12.615364
114.04712 -299.6235 -9.8075352
114.20707 -299.70728 -10.956731
114.45988 -299.62656 -11.786877
114.46075 -299.7937 -12.375899
114.53125 -299.65433 -13.462744
114.22487 -299.40109 -9.5232601
114.85119 -299.56723 -10.531395
114.17061 -299.50549 -10.889121
113.99123 -299.5723 -11.008415
115.06783 -299.48364 -11.303421
114.51854 -299.52048 -13.884925
114.00635 -299.27332 -9.6966934
114.22186 -299.28772 -10.670141
115.47433 -299.37195 -10.8888
115.45303 -299.39261 -11.384178
114.99704 -299.28448 -12.274956
115.46949 -299.04895 -9.55758
114.52773 -299.17847 -9.7051868
114.51258 -299.04724 -10.906121
115.09758 -299.06229 -10.985906
115.70039 -298.85342 -9.7187004
115.21024 -298.82861 -9.9161797
114.50771 -298.99084 -10.766858
115.0333 -298.84866 -10.775856
114.37162 -298.9158 -10.975166
114.71783 -298.92819 -11.757168
114.56383 -298.79922 -9.6897659
115.1877 -298.70239 -10.845391
113.34985 -298.41626 -8.0924654
113.39821 -298.17023 -8.0805931
100.67977 -296.72919 -7.4464078
101.02282 -296.76184 -7.454495
119.43431 -296.79349 -10.406652
115.76819 -295.71576 -10.92097
114.84932 -295.63464 -11.184587
114.73399 -295.51364 -10.703182
114.98085 -295.52151 -10.667283
101.39413 -295.21484 -7.4451089
116.13353 -295.24207 -9.3707581
116.22969 -295.20032 -11.849024
114.99908 -295.07068 -9.5385876
114.96799 -295.03436 -9.7545433
116.40546 -295.19879 -11.234289
115.05179 -295.021 -13.158173
115.00407 -294.98694 -8.2073383
115.97001 -294.95724 -11.41706
115.71961 -294.95615 -11.835586
115.33736 -294.8653 -12.23935
115.7852 -294.94608 -13.466747
101.40567 -294.72983 -7.3080468
116.16772 -294.6962 -10.639172
115.70589 -294.68787 -12.937553
115.4857 -294.7218 -13.40998
115.04264 -294.4646 -9.3169918
116.8148 -294.50879 -9.3401184
114.64893 -294.55103 -10.67084
115.01389 -294.5285 -10.663428
115.38375 -294.52249 -12.185727
114.97741 -294.23492 -9.341711
115.33436 -294.26105 -9.3242149
114.71031 -294.38641 -10.73117
116.40879 -294.28619 -11.418102
115.74933 -294.12006 -8.9412231
114.73651 -294.16388 -9.2591343
116.01074 -294.0766 -9.2784567
115.9825 -294.11035 -9.8653736
115.16321 -294.03842 -11.190081
115.92339 -294.0419 -11.646379
119.9644 -294.047 -12.19214
115.14391 -293.98773 -11.075731
119.9406 -293.83963 -12.182676
115.62293 -293.75821 -8.1682987
116.08051 -293.73782 -9.3116617
113.82561 -292.59619 -8.0124474
111.01333 -289.44485 -7.9193411
111.05542 -289.32022 -7.3290739
119.82564 -289.28778 -15.644633
100.93809 -289.08881 -8.3093109
101.03262 -289.06262 -9.084341
110.36561 -288.79916 -6.7918239
100.13547 -288.59238 -13.50094
102.10839 -288.27957 -6.8929338
119.4418 -288.30887 -12.080286
100.2767 -288.11172 -12.708402
100.06175 -287.92584 -11.397314
100.92059 -287.74802 -11.935284
100.80819 -287.55289 -12.738542
100.93137 -287.57037 -12.852855
119.71814 -287.39697 -13.117712
119.82185 -287.12646 -11.732898
100.88542 -287.05917 -12.815104
119.73248 -286.93884 -14.991253
101.50604 -284.88477 -6.6876612
114.37099 -284.50464 -7.8509498
111.12189 -283.67023 -6.7255168
114.44815 -283.63535 -7.8319688
114.60045 -283.4895 -7.9430552
100.60362 -283.27701 -6.6904421
114.52683 -283.33365 -7.070539
119.63512 -283.22021 -12.308271
116.10618 -282.77536 -8.7645121
114.99844 -282.43997 -11.075127
115.45605 -282.50458 -11.799118
116.10577 -282.55139 -11.888567
115.23721 -282.49985 -12.370249
115.27258 -282.48651 -12.517354
115.84011 -282.50104 -12.514199
119.90004 -282.20926 -9.2878399
114.73368 -282.24005 -9.8724747
115.70927 -282.23917 -9.9912043
114.91214 -282.28894 -10.170404
115.88951 -282.23517 -10.188315
115.46202 -282.28241 -10.998652
116.01761 -282.31125 -10.897595
115.69138 -282.27036 -11.843241
115.36378 -282.26044 -12.248837
119.85101 -282.24847 -14.053212
110.98735 -282.06522 -6.7045379
116.58041 -282.15134 -8.9757071
114.6634 -282.19788 -10.277474
115.03104 -282.15851 -11.112658
115.39716 -282.16437 -11.37652
115.67783 -282.16925 -11.330042
115.10037 -282.06409 -11.797913
115.69424 -281.97565 -7.8370428
116.52141 -281.99463 -8.8065901
114.99429 -281.87042 -9.3791208
116.11842 -281.83423 -10.327538
114.9145 -281.85089 -10.514132
115.83723 -281.87384 -11.456377
116.01901 -281.80057 -11.505535
115.7039 -281.86816 -12.119415
119.26454 -281.63602 -9.1946354
114.88724 -281.73581 -9.7813892
115.66227 -281.73267 -9.9512234
115.31675 -281.69043 -10.670597
119.57758 -281.66745 -11.206172
119.83789 -281.77994 -11.423831
110.88965 -281.5257 -6.6285081
114.70935 -281.56476 -7.0638561
114.77058 -281.53226 -9.907341
114.8768 -281.48529 -9.9072151
115.80405 -281.52582 -9.9657326
117.29732 -281.23782 -8.1241531
116.11261 -281.32733 -9.9859581
111.89511 -281.07379 -6.5325699
106.66013 -280.83026 -15.82583
117.48973 -280.62906 -8.3716297
118.17305 -280.57349 -8.4706841
118.34948 -280.41812 -9.8907871
104.43716 -280.45663 -15.092451
105.59731 -280.54459 -15.180817
105.93764 -280.59717 -15.853737
106.63752 -280.5943 -15.924587
114.36316 -280.26755 -7.785748
118.45607 -280.21472 -8.6940327
119.45036 -280.22595 -11.730435
102.71822 -280.22467 -14.162683
105.42361 -280.22681 -15.252078
115.13703 -280.18979 -8.1024027
117.16283 -280.18805 -8.2389746
117.38238 -280.08243 -8.2938728
117.03457 -280.14578 -9.0863953
118.35442 -280.1839 -9.2087593
115.80227 -280.11432 -10.044694
103.00584 -280.05484 -14.452971
106.28027 -280.10934 -16.139355
115.93375 -299.93274 -9.5546207
113.98746 -299.82474 -11.862725
114.19865 -299.66226 -10.997257
114.12645 -299.66678 -11.337446
113.90267 -299.65869 -11.524282
114.6397 -299.48672 -10.542326
114.2462 -299.40143 -12.707533
114.21578 -299.47501 -13.11094
114.61035 -299.45621 -13.086545
114.3409 -299.46509 -14.103842
114.95859 -299.30399 -10.839035
116.04961 -299.10953 -8.2741756
114.64956 -299.04724 -11.319613
115.10355 -299.16187 -12.155236
114.3928 -299.14841 -13.528634
115.70071 -298.8678 -9.6827364
114.26654 -298.89517 -9.8563919
115.17263 -298.93289 -9.8896456
114.64574 -298.75507 -11.462861
100.34244 -296.71637 -7.438539
119.72569 -296.49039 -9.7276077
119.88361 -296.20111 -9.5298004
115.81245 -295.74771 -10.754731
115.8169 -295.67505 -10.923784
115.0835 -295.4502 -10.665083
115.80678 -295.32861 -11.385668
115.00096 -295.23816 -12.113146
115.131 -295.2348 -13.019876
102.58406 -295.10992 -7.3867388
115.05015 -295.04623 -11.911525
115.35812 -295.00861 -12.533515
115.4715 -295.00305 -12.978615
115.04707 -295.09088 -13.450923
114.91492 -294.95538 -9.3270893
115.37191 -294.97345 -9.5148544
115.50404 -294.95554 -11.395017
115.3364 -294.82303 -14.104792
116.1712 -294.60181 -9.1739922
115.14377 -294.76593 -13.271118
115.69753 -294.5209 -11.415385
115.24631 -294.39157 -8.1733685
115.33209 -294.25873 -9.3745813
115.34537 -294.28366 -11.217958
115.09663 -294.0665 -9.023571
115.85023 -294.15356 -9.0305939
116.17198 -293.85425 -9.301445
115.20277 -293.94452 -11.091436
115.1543 -293.92224 -11.318815
116.30334 -293.72589 -8.2452049
113.83872 -292.63361 -8.0183201
111.0026 -289.44165 -8.6403599
110.99924 -289.45044 -9.5260544
119.65038 -289.59305 -14.980556
109.47415 -289.2576 -6.9512768
108.9898 -289.09839 -6.9242311
114.19937 -289.09204 -7.9087558
100.89188 -289.03931 -9.6868677
100.10318 -287.93161 -12.480827
100.51228 -287.85226 -12.829217
100.57718 -287.58051 -12.765429
119.68224 -287.43457 -13.02146
119.24219 -286.9126 -12.381778
119.76788 -286.88385 -15.001167
119.79613 -286.74258 -12.953061
114.39592 -286.39468 -7.842536
114.50066 -284.90033 -8.0979891
114.46132 -284.62286 -7.0699482
114.45164 -284.41122 -7.2333722
114.56245 -284.0455 -7.6750708
119.94906 -284.17227 -9.3033428
119.89959 -283.38232 -8.9946861
114.15985 -283.12509 -7.2137232
119.82726 -283.16333 -8.1818504
115.33075 -282.93274 -8.9996405
110.87611 -282.78421 -7.0052209
114.82547 -282.61334 -11.48148
118.69899 -282.74213 -11.783301
115.12708 -282.42514 -7.8794689
119.94181 -282.43091 -8.5653152
116.40028 -282.48486 -10.986353
115.46761 -282.46423 -11.677494
114.74026 -282.30423 -9.9320307
115.44294 -282.30994 -12.559269
114.69836 -282.10519 -7.861937
116.88213 -282.12445 -9.1631489
115.31368 -282.03714 -9.7901058
115.10931 -282.17523 -10.590126
115.70462 -282.12106 -11.417265
115.14737 -282.1712 -11.7419
119.58389 -282.14313 -14.494022
119.61735 -282.13956 -14.453276
117.0035 -281.90088 -7.9692712
114.90582 -281.99826 -11.383673
116.21393 -281.76685 -10.332996
119.82822 -281.74228 -13.970801
113.34693 -281.4881 -6.5063572
115.30828 -281.45898 -10.19366
105.09998 -281.57571 -14.307007
117.39363 -281.32016 -8.5153065
116.08984 -281.35333 -9.9843178
105.11533 -281.14606 -15.230267
118.76705 -280.91122 -8.8694715
118.99251 -280.8667 -9.2912016
116.9327 -280.66095 -8.3473167
106.19036 -280.60541 -14.72894
104.2786 -280.45984 -14.768887
105.90491 -280.59113 -14.976478
106.19572 -280.51825 -15.841619
118.40318 -280.26117 -9.1388769
103.45424 -280.35535 -14.325151
105.4984 -280.25778 -15.701242
115.63022 -280.10809 -7.7566791
116.18514 -280.05878 -10.245054
103.35059 -280.04367 -15.80626
113.93608 -299.89166 -10.91897
114.81604 -299.63818 -11.043476
114.1806 -299.4032 -9.5520039
114.52135 -299.51358 -11.525534
115.17352 -299.5127 -11.676554
114.52538 -299.48773 -13.939806
115.96076 -299.31946 -8.2776203
114.09892 -299.31665 -10.233049
114.23259 -299.34216 -11.747095
114.16042 -299.37292 -12.112928
114.22414 -299.21353 -13.355383
115.08124 -299.07758 -10.972311
114.93471 -298.81192 -8.3167028
115.00855 -298.99503 -10.759645
100.10451 -296.729 -7.433146
114.91649 -295.68726 -11.045452
115.74805 -295.7236 -11.235823
116.20863 -295.51642 -9.9366875
115.74374 -295.26813 -10.811826
114.75196 -295.20923 -11.445869
113.63349 -295.06415 -8.0560331
115.14986 -295.11581 -12.150681
115.58258 -294.87836 -10.642926
115.02392 -294.83545 -10.840002
116.34595 -294.8356 -11.655281
114.77318 -294.98004 -12.974327
102.21851 -294.78198 -7.3616638
116.65811 -294.61044 -9.434454
115.39209 -294.73169 -13.441847
115.31379 -294.64771 -14.461058
115.46177 -294.43735 -9.6783361
115.1721 -294.5614 -13.038815
115.39328 -294.25842 -9.0198984
116.61299 -294.36649 -9.1555595
115.05086 -294.21973 -9.4113722
116.17264 -294.25043 -9.714076
114.66189 -294.36087 -10.809601
115.65613 -294.30472 -12.41047
116.08885 -294.11578 -9.3265963
115.66096 -294.03546 -10.670007
115.22556 -293.9118 -10.558849
115.27732 -293.96692 -11.303185
113.72607 -293.72391 -8.2769604
113.70615 -293.67944 -8.4816294
111.18552 -289.72961 -7.0139222
100.16685 -289.61865 -11.899401
111.02304 -289.47406 -7.9274268
110.98701 -289.4364 -9.6986027
101.87305 -289.29456 -6.8773069
102.13835 -289.29498 -6.8893189
100.2156 -289.2897 -12.207441
100.89119 -289.06543 -9.4619226
100.04954 -288.54901 -13.611324
100.88381 -288.31161 -12.910082
119.36893 -288.02679 -14.553453
119.35953 -287.98471 -14.646403
100.15348 -287.54816 -11.754264
119.66869 -287.29779 -14.477083
100.83402 -287.05908 -12.767183
119.41904 -287.01035 -12.666646
119.2774 -286.97754 -11.933706
119.77383 -286.85046 -12.649872
119.82805 -286.95996 -15.253893
119.49509 -286.70074 -11.903757
110.46273 -286.30115 -6.6837239
114.42265 -286.38809 -8.0377436
114.43708 -286.16895 -7.8367138
114.54575 -284.04404 -6.911634
114.65172 -283.41779 -7.7680998
119.75726 -283.40717 -13.243687
110.81947 -283.29517 -6.6746912
119.78699 -283.18903 -8.941535
119.89294 -283.06116 -9.9156332
115.30231 -282.99167 -10.593266
115.68473 -282.81781 -11.908137
119.66309 -282.87274 -13.240765
100.20879 -282.75854 -6.6733971
115.54504 -282.7301 -9.0540009
115.01997 -282.60516 -12.157128
116.26801 -282.5105 -10.55548
114.85191 -282.4743 -10.626705
115.48036 -282.41412 -11.55131
115.68193 -282.46619 -12.397985
119.50935 -282.59039 -13.177505
119.82149 -282.29309 -8.6433372
116.59722 -282.26813 -9.038269
119.90276 -282.22482 -9.1137543
115.79083 -282.22128 -10.104677
115.33811 -282.2384 -10.222789
116.16792 -282.37561 -10.770454
115.93147 -282.1879 -11.092231
119.74568 -282.00696 -13.163189
114.79971 -281.89456 -8.0423651
116.03617 -281.802 -10.453505
115.88642 -281.8996 -11.47858
118.5865 -281.76257 -11.816059
119.98553 -281.65875 -14.434603
104.93622 -281.63153 -14.616974
115.47926 -281.57886 -7.891614
115.40327 -281.48953 -10.837374
104.73988 -281.52676 -14.805492
105.08281 -281.2016 -15.240513
114.81401 -281.15347 -7.047049
105.94807 -281.03687 -14.723026
118.58495 -280.87259 -9.4648848
114.86091 -280.64902 -7.1128392
119.48151 -280.65271 -12.17387
105.95465 -280.77985 -14.776998
106.43649 -280.6301 -15.08434
106.68835 -280.60538 -16.073065
103.70843 -280.43143 -14.466365
119.86513 -280.5636 -14.631811
114.88591 -280.35278 -7.1111078
115.14553 -280.35916 -7.9712868
114.64829 -280.30112 -8.0493374
116.28387 -280.39731 -8.1881628
118.14513 -280.32581 -8.6614952
117.60841 -280.20584 -9.2697163
105.77105 -280.31763 -15.10746
104.31059 -280.34131 -15.802051
106.28266 -280.28641 -15.844082
115.70142 -280.14151 -9.7346554
115.38809 -299.94324 -11.494299
114.32086 -299.83823 -12.209935
114.93188 -299.80951 -13.143993
115.01783 -299.7001 -9.2273188
114.13953 -299.7305 -11.785078
114.6088 -299.50446 -12.306736
114.64932 -299.53564 -13.52803
114.19395 -299.55157 -13.756529
114.53457 -299.05515 -10.747868
114.49743 -299.08331 -10.984283
113.35478 -298.47711 -8.1110506
113.32217 -298.13705 -8.4335938
119.49097 -296.75381 -10.300393
114.74519 -295.53632 -10.682778
116.24793 -295.2608 -9.4159279
116.17685 -295.38446 -10.454916
115.28539 -295.32928 -10.64251
115.67966 -295.28262 -14.233637
114.74974 -295.10443 -9.511487
116.58871 -295.05905 -10.565616
114.90244 -295.1261 -11.707059
114.99054 -295.01123 -14.114763
116.23296 -294.80988 -10.535671
115.38148 -294.9332 -11.797247
115.32337 -294.96045 -12.163608
115.84644 -294.91602 -12.274292
115.77084 -294.69485 -9.0698109
115.02213 -294.60687 -9.2934914
115.76105 -294.75574 -9.3532867
114.53194 -294.74002 -11.342555
114.85433 -294.6969 -12.207268
114.98984 -294.69775 -12.563982
115.38539 -294.61279 -13.113853
115.96001 -294.51794 -10.103528
116.09724 -294.45804 -10.849506
114.964 -294.58292 -11.396275
116.80989 -294.38312 -8.2213154
115.59975 -294.23749 -10.369761
115.69656 -294.35934 -12.275158
116.13032 -294.03122 -8.1882353
115.43884 -294.12738 -10.888773
119.93362 -294.09512 -12.279265
116.18918 -293.8754 -9.1668043
119.95642 -293.86118 -12.236881
100.12097 -290.8656 -13.923307
100.30757 -290.86761 -14.115672
114.01414 -290.78915 -8.2100592
111.66405 -289.86359 -7.0069389
111.00285 -289.43896 -9.0531855
100.13827 -289.42572 -11.854522
114.13465 -289.30768 -8.0821581
110.0771 -289.05878 -6.8321218
119.65831 -288.16681 -13.87388
114.28242 -287.83588 -8.1139221
119.80656 -287.92957 -13.480165
119.47468 -287.96155 -14.33147
119.73483 -287.84686 -14.349323
100.17276 -287.78714 -12.807482
114.15575 -287.4751 -7.2700028
100.78064 -287.04373 -12.954565
119.81163 -287.16565 -14.516415
111.71234 -285.9234 -6.7410269
101.11576 -284.87479 -6.7102661
101.66134 -284.70584 -6.6923208
114.38898 -284.4545 -7.2495041
114.59663 -283.80713 -7.7485318
113.81791 -283.32434 -7.030941
110.78492 -283.08438 -6.7247581
114.20268 -283.07928 -6.9723659
119.78894 -282.88159 -8.4860964
100.95638 -282.62164 -6.6470108
115.36792 -282.41901 -8.6981096
116.53551 -282.51849 -9.0800915
116.19254 -282.5318 -10.220432
115.36267 -282.42825 -10.926403
115.75255 -282.24371 -9.9226789
115.10274 -282.23499 -11.111858
115.40515 -282.30386 -12.25297
116.02106 -282.11871 -10.360598
119.53534 -282.15247 -11.537403
118.65376 -282.14581 -11.774201
118.81703 -282.12265 -11.785781
100.35866 -281.93954 -6.6955142
111.22146 -281.87347 -6.6568398
115.07147 -281.77649 -9.1302919
119.84361 -281.6073 -13.559349
115.30539 -281.42944 -8.6608276
115.82523 -281.52206 -9.1425838
119.94627 -281.44354 -12.121418
105.30893 -281.44476 -15.72316
114.7623 -281.3363 -7.2916121
105.0394 -281.3031 -15.663246
103.97327 -281.05295 -15.066412
117.15253 -280.94104 -8.4758167
106.18589 -280.89407 -14.965129
106.46552 -280.82028 -14.942489
118.15356 -280.66776 -8.2509747
106.24866 -280.7475 -15.080606
116.28046 -280.47086 -8.158432
117.77403 -280.58289 -8.6140099
118.86166 -280.59149 -9.111661
103.50415 -280.49506 -13.886381
103.47647 -280.44208 -14.129786
103.01038 -280.41187 -14.257515
104.42894 -280.42865 -15.68044
104.26218 -280.55316 -16.17757
113.93183 -280.2381 -7.9846678
114.51219 -280.24579 -8.8284359
103.07308 -280.27225 -14.251396
103.77617 -280.28262 -14.729984
104.15023 -280.3186 -17.374552
114.90067 -280.18527 -6.558207
116.79604 -280.18958 -8.4493046
117.50481 -280.03516 -8.7149696
119.38559 -280.14069 -11.445852
105.05209 -280.10321 -16.104012
114.31023 -299.83649 -12.558435
114.29806 -299.78171 -10.755625
114.67505 -299.61041 -14.199511
114.18616 -299.5462 -10.883827
114.53529 -299.42322 -11.80249
114.59427 -299.49014 -14.104663
114.87045 -299.54642 -14.021538
114.48758 -299.30774 -9.2373428
114.04865 -299.30933 -9.6567192
115.68063 -299.37491 -10.891959
114.57335 -299.37665 -12.598768
113.94396 -299.07639 -10.752408
114.07588 -299.15942 -11.830276
114.47656 -299.04337 -12.754997
114.73042 -298.88751 -9.5227032
115.18704 -298.70441 -10.851727
115.23154 -298.70593 -10.827156
110.05869 -297.16962 -7.0995679
113.50717 -296.60699 -8.3728638
119.98692 -296.66052 -9.3736
115.03948 -295.61456 -9.8922577
116.04532 -295.09586 -12.648703
115.64272 -294.90042 -11.048178
116.13084 -294.81412 -12.358907
115.81207 -294.86688 -13.139235
116.18649 -294.66949 -10.716499
114.56406 -294.7388 -10.858366
115.80006 -294.70273 -11.930724
115.33983 -294.73019 -14.218156
116.67789 -294.54407 -8.3363123
115.07174 -294.54575 -10.674999
115.60033 -294.53247 -13.265801
116.23808 -294.39566 -11.173022
116.33522 -294.35239 -11.37509
114.83934 -294.32565 -11.583961
115.93386 -293.93475 -9.3372383
109.54207 -293.35266 -7.005054
113.84972 -292.22559 -8.4307232
114.10285 -289.64178 -7.9259419
111.03598 -289.38083 -6.9431572
109.21445 -289.09381 -6.9346638
110.89346 -289.05746 -6.8687968
100.86946 -289.09497 -8.7611637
100.11887 -289.15112 -12.466011
101.09978 -288.51047 -6.8455429
101.85329 -288.36124 -6.8810449
119.53563 -288.30142 -14.377365
119.60991 -288.34406 -14.416109
100.03224 -287.94626 -14.079973
100.68828 -287.54736 -12.829144
119.15723 -287.22302 -12.62111
119.71099 -287.07974 -11.714933
119.15269 -287.17633 -12.616655
119.67074 -286.97076 -12.968494
119.86046 -286.48398 -16.365072
114.36111 -286.36078 -8.0252485
114.51894 -284.89496 -7.925107
119.96684 -284.44098 -8.8983927
110.78915 -283.62787 -7.0291219
114.32042 -283.21411 -7.062089
119.82449 -283.34808 -9.8314762
119.56602 -283.16568 -8.8932638
115.4709 -282.94586 -10.059917
115.90488 -282.60373 -10.525034
115.46649 -282.42896 -10.566755
115.39972 -282.47574 -12.275181
110.96376 -282.30096 -7.058001
115.14497 -282.35669 -9.2518597
114.69138 -282.28748 -10.171629
114.75579 -282.32901 -10.895036
115.27879 -282.34488 -11.800577
115.63284 -282.2486 -12.048973
116.03144 -282.36868 -12.0825
115.44514 -282.17654 -8.6903009
116.5096 -282.16959 -10.043396
114.99026 -282.12299 -10.260414
115.53069 -282.19604 -11.065693
115.0311 -282.03979 -11.404358
115.19919 -282.15076 -12.01717
100.43346 -281.87573 -6.6415071
116.12913 -281.95419 -8.5295572
111.01155 -281.72095 -6.677999
114.63692 -281.6088 -7.2141919
115.43469 -281.73596 -9.0003576
115.22726 -281.69873 -9.3313847
115.65454 -281.48337 -10.509544
104.77333 -281.56613 -14.664431
105.02895 -281.38416 -15.034256
105.29421 -281.37735 -15.028946
106.1454 -281.01642 -14.637953
105.5217 -280.88895 -15.356125
114.9219 -280.62842 -7.6852531
104.52136 -280.60696 -16.105293
117.58027 -280.43292 -7.9300919
116.54034 -280.54526 -8.164587
106.18361 -280.53122 -15.374268
116.48204 -280.34998 -8.3319454
116.80843 -280.26678 -8.4200468
118.64265 -280.26971 -9.4056301
104.21658 -280.3399 -14.786438
104.28933 -280.22476 -15.004993
104.53027 -280.26099 -15.007576
106.43504 -280.28729 -15.322498
115.27195 -280.16833 -8.1352987
118.26486 -280.04077 -9.8489532
115.50073 -280.17273 -10.826344
117.07193 -280.12839 -11.308845
102.91199 -280.06067 -13.879831
103.98807 -280.1268 -15.255777
103.89809 -280.10895 -15.718775
103.70216 -280.03394 -16.085297
114.63494 -299.82486 -11.302537
113.9588 -299.61914 -9.9230366
114.67329 -299.63617 -13.820129
114.31281 -299.69714 -14.202864
114.52365 -299.53461 -14.46262
114.5025 -299.33548 -9.1955719
114.2571 -299.31354 -10.701064
114.94818 -299.3605 -12.630542
115.09678 -299.23859 -12.808943
114.80035 -299.30554 -13.576775
115.50226 -299.03745 -9.5764999
114.54849 -299.12122 -12.120619
115.22118 -299.1076 -12.13064
114.56737 -298.99899 -9.6565285
115.34541 -298.91995 -9.7759972
114.34755 -298.97205 -10.999981
114.61643 -298.74365 -9.6744976
115.427 -298.63721 -9.9474583
114.8671 -298.49677 -10.316969
113.39549 -298.164 -8.1018648
119.86329 -296.16397 -9.673666
114.91631 -295.53326 -11.195778
115.08076 -295.30084 -11.299424
114.71746 -295.22626 -11.937708
114.93785 -295.24637 -12.598667
113.57098 -295.18878 -8.5349331
115.38391 -295.02957 -13.452785
115.63599 -294.86169 -10.623532
114.97192 -294.95306 -11.38176
116.04512 -294.8952 -11.461016
115.65121 -294.93073 -12.464931
115.41763 -294.99133 -13.770145
115.75096 -294.98358 -13.813241
101.88644 -294.6095 -7.3392611
115.23199 -294.66971 -10.576156
115.43484 -294.66376 -11.767046
115.50152 -294.51892 -9.0251751
116.5386 -294.57852 -9.0772371
116.37238 -294.59113 -9.428668
116.87218 -294.4841 -9.4468813
114.7038 -294.48071 -10.703222
116.53535 -294.52716 -10.796679
116.51036 -294.49896 -10.90554
115.62794 -294.52289 -12.575789
115.85189 -294.24524 -11.593061
115.28372 -294.24823 -11.887094
116.06679 -294.37906 -11.972004
115.59145 -294.39969 -12.293758
114.73112 -294.04483 -9.1971779
116.04749 -294.11383 -9.1741714
114.70695 -294.10049 -9.3074322
115.60553 -294.14484 -10.113087
115.52016 -294.15057 -10.593979
114.93153 -293.86407 -9.0100555
115.19072 -293.96277 -10.476995
115.65453 -293.88406 -10.798131
103.1238 -290.56021 -7.7880969
111.22839 -289.55157 -6.8893561
110.99066 -289.46228 -8.1373215
110.72868 -289.35837 -6.8654771
114.12939 -289.38611 -7.8426089
119.44695 -289.24524 -15.152411
100.89565 -289.03833 -7.364151
101.59896 -288.83722 -6.8670592
109.82137 -288.95508 -6.8526101
119.73215 -288.33252 -14.354515
119.48624 -288.19366 -12.167034
100.60582 -288.1748 -12.887245
100.90228 -287.90045 -12.710405
100.13438 -287.87805 -13.852023
100.73997 -287.76669 -12.70031
100.62222 -287.60883 -13.264271
119.79948 -287.7998 -14.936075
119.47765 -287.54752 -14.637158
119.75252 -286.75385 -15.217278
110.80877 -286.42548 -6.7032561
119.92046 -286.5206 -16.452671
114.50214 -284.36743 -7.2513289
119.51105 -283.51959 -8.9093189
119.63334 -283.18939 -13.129515
116.2181 -282.66086 -7.7740488
115.91104 -282.63254 -9.8786659
115.21986 -282.57181 -10.380245
114.93593 -282.50851 -11.131117
115.00822 -282.55276 -11.759438
114.69711 -282.27075 -8.9293423
114.98343 -282.2236 -8.886878
115.24808 -282.35916 -8.9756956
115.76242 -282.30786 -10.709358
115.69365 -282.31 -11.756362
114.60011 -282.01013 -6.9620051
115.83579 -282.03772 -8.2199926
116.0471 -282.03119 -11.26373
114.80009 -281.95157 -8.1035261
114.88987 -281.80911 -9.7979031
116.6245 -281.99329 -10.206578
115.63919 -281.7901 -8.9404669
115.59357 -281.72668 -9.9887333
115.74046 -281.6676 -9.8851452
115.45134 -281.77438 -10.659962
105.27562 -281.61612 -14.572219
114.78312 -281.54919 -9.9317093
115.78086 -281.52899 -9.9790211
119.93536 -281.44324 -14.34838
104.96652 -281.57556 -14.620564
116.57078 -281.24808 -8.4575844
114.68446 -281.05182 -6.5272331
115.87375 -280.90817 -8.7368135
115.54917 -280.7482 -8.1799145
116.84497 -280.6987 -8.7417402
119.70312 -280.70911 -12.995838
117.63004 -280.45294 -8.145812
118.30676 -280.448 -9.5182724
114.47087 -280.20624 -7.880496
114.84058 -280.34778 -8.9007864
105.38814 -280.28778 -15.128881
114.28323 -280.14777 -8.1886759
103.82634 -280.19006 -14.900875
105.77005 -280.18195 -15.221311
106.28114 -280.12402 -15.447207
106.46358 -280.17807 -16.149023
