# .PCD v0.7 - Point Cloud Data file format
VERSION 0.7
FIELDS x y z
SIZE 4 4 4
TYPE F F F
COUNT 1 1 1
WIDTH 1511
HEIGHT 1
VIEWPOINT 0 0 0 1 0 0 0
POINTS 1511
DATA ascii
109.10902 -267.15698 -6.7584462
111.59917 -267.08859 -6.7064991
111.66333 -267.13062 -6.7014618
119.84882 -267.03156 -6.6457858
104.94666 -267.08173 -6.8772321
109.11461 -267.1149 -6.9301529
109.45062 -267.14575 -6.954752
109.10101 -267.13171 -7.1153612
110.3118 -267.17746 -7.1542802
111.8983 -267.01724 -7.0734382
119.54299 -267.13971 -7.0147271
119.73866 -267.08853 -7.094192
110.15673 -267.06833 -7.3234272
104.61062 -267.02289 -7.4211378
105.82293 -267.02106 -7.437397
109.45858 -267.12335 -7.4434099
109.67094 -267.10516 -7.4240198
106.91733 -267.05225 -7.679502
109.76953 -267.11502 -7.7084179
104.82804 -267.09256 -7.832468
106.70319 -267.01599 -7.856432
106.97696 -267.03854 -7.9091249
105.32301 -267.0578 -8.1080608
109.55968 -267.01498 -8.0326519
105.91107 -267.10211 -8.6777439
105.35283 -267.13321 -8.9165497
105.88467 -267.08212 -8.9863663
106.14687 -267.06824 -8.9304714
105.14086 -267.07166 -9.1000576
108.19854 -267.18735 -9.1657581
105.4511 -267.03455 -9.3692379
105.84351 -267.14224 -9.3657665
108.13039 -267.03159 -9.3374043
106.19686 -267.12198 -9.4024563
107.96704 -267.08331 -9.4751244
104.73784 -267.13416 -9.9494324
104.84021 -267.17667 -9.9908571
105.12326 -267.11078 -9.8462181
105.23351 -267.00366 -9.884922
105.47287 -267.12323 -9.9098654
104.70186 -267.1543 -10.026227
105.36127 -267.09558 -10.128716
106.62247 -267.0412 -10.039997
108.22956 -267.11194 -10.215491
105.35545 -267.00131 -10.589054
107.5074 -267.10181 -11.869433
108.64565 -267.04681 -11.901145
109.47388 -267.09158 -12.0574
106.71289 -267.1543 -12.343511
107.32723 -267.00421 -12.317739
106.18044 -267.05365 -12.722243
106.53906 -267.02023 -12.646625
106.20337 -267.05084 -12.920327
107.92887 -267.16721 -13.202986
100.26537 -267.07138 -13.466805
103.77555 -267.00995 -13.463569
104.23058 -267.17908 -13.561304
106.68001 -267.19351 -13.589653
107.45378 -267.04071 -13.582862
104.22566 -267.13586 -13.792765
101.15292 -267.19485 -14.022108
105.45705 -267.18155 -14.178728
107.42628 -267.12863 -14.608574
107.36095 -267.11896 -14.859636
109.93248 -266.97705 -6.100266
110.03542 -266.91199 -6.146585
101.40204 -266.87384 -6.2163548
101.36424 -266.90289 -6.5565262
112.24318 -266.91312 -6.6852169
119.68906 -266.99054 -6.6449871
109.06479 -266.96008 -6.9977641
111.96611 -266.9119 -6.9285169
112.12952 -266.96753 -7.1321959
112.9902 -266.879 -7.1986451
104.84384 -266.95764 -7.3666792
112.05648 -266.96243 -7.2205882
104.7429 -266.95581 -7.4416361
105.53381 -266.94775 -7.5120091
106.19337 -266.98322 -7.900743
106.91115 -266.92273 -7.9020162
107.17982 -266.88733 -7.9449849
105.07294 -266.85114 -8.0666771
105.86493 -266.90918 -8.1539516
106.28982 -266.95541 -8.0828362
106.66898 -266.9422 -8.115715
106.93746 -266.91272 -8.1514359
109.61968 -266.98724 -8.0670042
106.82269 -266.86664 -8.5157509
106.11513 -266.93744 -8.695507
106.61824 -266.82568 -8.604208
106.69063 -266.86957 -8.8839626
105.051 -266.99402 -9.0847826
108.62637 -266.85388 -9.2078419
105.58769 -266.96387 -9.7737284
105.19727 -266.95148 -9.8419399
105.75575 -266.94418 -9.9414234
106.15494 -266.89545 -9.9608717
106.64278 -266.94995 -9.8455229
106.13756 -266.88092 -10.075002
107.00539 -266.85596 -10.090527
107.42664 -266.90479 -10.060127
105.14202 -266.99023 -10.319245
105.72511 -266.92142 -10.299794
107.67357 -266.97302 -10.204904
106.44737 -266.85767 -10.775215
108.66215 -266.93118 -10.793556
107.22487 -266.94031 -10.861859
108.63278 -266.85468 -10.80504
108.78996 -266.92084 -11.51413
109.00558 -266.91632 -11.923759
108.97787 -266.98093 -12.044705
106.87971 -266.95782 -12.513288
108.68523 -266.99939 -12.595045
102.51119 -266.99164 -12.697845
102.69104 -266.83679 -12.687938
107.92772 -266.81097 -12.652007
103.23157 -266.82678 -12.996586
104.1199 -266.98639 -12.907705
107.43773 -266.91049 -12.997978
106.4742 -266.87555 -13.004288
103.90925 -266.98969 -13.897696
106.96887 -266.96204 -14.206602
110.30484 -266.87732 -14.314851
100.01582 -266.7077 -6.133018
104.88101 -266.76205 -6.1634512
114.68677 -266.6221 -6.0927019
102.58698 -266.60199 -6.7177358
109.34144 -266.71899 -7.5532098
112.56415 -266.67444 -7.7768288
104.67613 -266.73718 -7.9456258
104.88845 -266.65701 -7.942173
105.43829 -266.66794 -7.9996009
105.74239 -266.72192 -7.8867459
107.0132 -266.75616 -7.9596481
107.28696 -266.75702 -7.857368
104.99794 -266.728 -8.0832691
105.45886 -266.68298 -8.1023073
105.72589 -266.68146 -8.0977573
106.57163 -266.67749 -8.1624031
107.0295 -266.62659 -8.1632328
112.7404 -266.60587 -8.1391373
106.271 -266.71759 -8.2014742
106.31618 -266.70288 -8.7496166
106.50786 -266.60352 -8.6870346
106.34296 -266.66962 -8.8693752
109.02647 -266.64789 -9.1447296
105.36038 -266.74115 -9.2966709
105.84328 -266.67465 -9.4997368
108.1588 -266.60699 -9.5238619
105.76588 -266.71783 -9.8244762
106.09096 -266.61597 -9.8546028
105.80222 -266.69608 -10.140818
106.70673 -266.7066 -10.156627
106.91828 -266.73846 -10.130016
106.12921 -266.74078 -10.258949
107.37343 -266.72144 -10.220861
105.17046 -266.73468 -10.566372
105.78056 -266.66254 -10.574904
105.33749 -266.62271 -10.676693
106.09834 -266.6987 -10.756914
107.93671 -266.73349 -10.73652
108.81823 -266.77548 -10.797821
106.25605 -266.61011 -10.872412
107.95003 -266.65826 -10.824209
109.66042 -266.63531 -11.884738
108.27882 -266.71283 -12.183051
109.4062 -266.61011 -12.098
109.7271 -266.73615 -12.025576
102.84883 -266.73486 -12.548973
103.10574 -266.66116 -12.618033
103.29195 -266.6134 -12.691127
104.15239 -266.64877 -12.683945
106.67228 -266.65515 -12.663768
107.39355 -266.73932 -12.727749
108.19497 -266.60318 -12.72811
106.81567 -266.77094 -13.174019
104.82748 -266.64291 -13.200558
106.1973 -266.61493 -13.477179
103.74651 -266.6149 -13.793965
104.24811 -266.72473 -13.754335
106.21161 -266.63708 -13.969862
106.42233 -266.72696 -13.900842
103.8678 -266.70972 -14.031334
106.23504 -266.60858 -14.25177
107.48064 -266.7731 -14.840362
111.85797 -266.7905 -15.553379
101.02753 -266.57831 -6.1510301
101.5211 -266.59631 -6.1392579
113.65804 -266.51181 -6.1494751
101.79478 -266.52295 -6.2830291
102.17097 -266.48071 -6.2624249
102.57959 -266.54871 -6.2660918
103.16952 -266.48697 -6.2318468
113.29811 -266.59796 -6.2196298
101.51434 -266.47198 -6.5063758
103.05312 -266.54352 -6.5891299
101.7303 -266.50543 -6.6669879
102.04006 -266.52649 -6.7625432
112.69928 -266.50427 -8.1475906
112.92206 -266.41052 -8.1882629
107.28028 -266.51831 -8.3126478
112.59465 -266.47302 -8.3005276
113.0052 -266.41699 -8.3475962
106.89066 -266.52155 -8.6568871
106.4938 -266.48279 -8.8321571
108.18336 -266.5387 -8.9602318
105.95381 -266.58282 -9.0684662
106.53481 -266.54669 -9.1129208
106.10732 -266.55807 -9.3095512
108.59615 -266.58191 -9.322773
107.78011 -266.59787 -10.338097
110.50721 -266.49301 -10.90339
105.16652 -266.51349 -11.551836
108.76154 -266.47827 -11.874226
105.28339 -266.53986 -12.183475
103.93741 -266.49243 -12.347203
104.10687 -266.40466 -12.282328
103.83136 -266.51862 -12.4828
105.26614 -266.40527 -12.446745
106.05634 -266.52054 -12.543681
108.56518 -266.49097 -12.510763
106.95016 -266.52167 -12.620377
103.77906 -266.53076 -12.958256
104.11541 -266.53497 -12.951396
105.60387 -266.41983 -12.985153
106.12554 -266.54407 -12.91983
108.14297 -266.50412 -12.944572
109.34549 -266.51614 -13.150334
106.83962 -266.50772 -13.273149
109.04533 -266.48627 -13.393203
105.52932 -266.56689 -14.2071
100.78645 -266.21082 -6.1179509
101.00218 -266.35266 -6.132287
101.66513 -266.35883 -6.0997329
102.55249 -266.33588 -6.0822592
103.31493 -266.20834 -6.095696
109.00432 -266.22626 -6.0637889
114.26286 -266.29501 -6.085844
116.15292 -266.33881 -6.1578331
101.51337 -266.34503 -6.2019711
113.37088 -266.21399 -6.2226491
112.29417 -266.21069 -7.4014702
106.18816 -266.29712 -8.0687523
106.53566 -266.3006 -8.056675
107.14864 -266.25299 -8.0356922
112.91667 -266.32825 -8.0921021
105.92188 -266.33572 -8.2536764
106.6665 -266.32108 -8.6356211
105.94614 -266.29379 -9.0248299
108.26819 -266.27408 -9.1116762
106.45061 -266.3114 -9.3420658
108.22664 -266.21872 -9.3557615
108.46758 -266.26715 -10.068604
106.66093 -266.35156 -10.284125
110.32793 -266.29587 -10.965654
109.72984 -266.24164 -11.069732
105.89591 -266.29892 -11.372258
105.29257 -266.38452 -11.671907
108.84132 -266.24734 -11.794542
104.41475 -266.35925 -12.173495
109.37579 -266.32513 -12.179185
104.25481 -266.31262 -12.247063
105.34582 -266.31274 -12.916891
103.89247 -266.25342 -13.157339
104.13453 -266.27438 -13.124405
109.27322 -266.35483 -13.139185
104.14201 -266.30789 -13.346181
100.9524 -266.32675 -13.598709
103.83489 -266.31009 -13.760109
104.23579 -266.31097 -13.744192
104.43608 -266.21906 -13.689236
103.76344 -266.24988 -13.816105
118.72778 -266.15756 -5.9344511
102.99909 -266.16095 -6.0869122
103.75906 -266.05402 -6.0641632
105.29708 -266.14636 -6.197607
110.50905 -266.04547 -6.071312
105.65228 -266.06271 -6.242198
112.51736 -266.14551 -6.3030992
113.02382 -266.10144 -6.2011051
112.68631 -266.16983 -6.6935372
112.65552 -266.10004 -6.9710321
112.26536 -266.10791 -7.0093589
112.58202 -266.04742 -7.0127339
112.25515 -266.10623 -7.348094
112.98238 -266.12323 -7.3193951
113.4678 -266.10812 -7.3109369
112.64558 -266.06458 -7.5382142
112.55586 -266.05573 -7.7324791
112.75629 -266.13879 -7.6262321
112.92133 -266.15259 -7.7865362
106.95915 -266.16174 -8.0824728
105.80518 -266.06543 -8.6732216
105.80173 -266.12616 -9.2947807
108.737 -266.07214 -9.3584766
108.08628 -266.05948 -9.6501369
105.78929 -266.04486 -9.8581314
109.72075 -266.12317 -9.9267673
108.92335 -266.16528 -10.107914
109.45441 -266.17328 -10.149268
105.81587 -266.05957 -10.258301
108.18169 -266.11731 -10.989872
110.25751 -266.19971 -10.945788
107.40253 -266.08102 -11.097054
109.50581 -266.16229 -11.132409
104.17601 -266.15402 -11.660404
108.21598 -266.16574 -11.665693
108.36716 -266.14661 -12.22908
108.07744 -266.06683 -13.349342
100.08781 -266.13513 -13.460611
108.70772 -266.1687 -13.401584
108.91374 -266.15497 -13.712957
108.29565 -266.02524 -13.842876
105.21856 -266.16687 -14.064318
104.68024 -266.12375 -14.239856
106.24651 -266.11084 -14.294411
109.84106 -266.08032 -14.227397
101.11221 -265.83801 -6.1005578
102.88053 -265.82303 -6.055593
110.63823 -265.94232 -6.1132269
105.21067 -265.8689 -6.2362971
112.64524 -265.88672 -6.3527989
112.41518 -265.95163 -6.4305739
112.14612 -265.92163 -6.6637239
112.6746 -265.82446 -6.6119838
112.24575 -265.94672 -6.8618121
113.28578 -265.90155 -6.9376869
112.27283 -265.88297 -7.1406569
112.5182 -265.87482 -7.0915608
112.9574 -265.83286 -7.1214852
112.39215 -265.8082 -7.2226868
113.21114 -265.85629 -7.2573891
112.32416 -265.88187 -7.4278769
112.68296 -265.82907 -7.7060862
105.73186 -265.87039 -7.9042482
112.85442 -265.8067 -7.906342
105.75172 -265.88419 -8.0606499
105.75098 -265.94922 -8.6290035
108.48715 -265.83322 -8.9479723
109.2314 -265.8645 -8.9280424
105.77699 -265.96545 -9.2750807
107.80333 -265.91943 -9.3834105
108.20253 -265.85538 -9.3799038
108.50327 -265.8927 -9.4525051
109.3457 -265.92484 -9.9059296
108.93004 -265.87204 -10.065508
109.21234 -265.93903 -10.075062
109.66449 -265.99237 -10.193512
107.12614 -265.80978 -10.529524
105.83708 -265.85861 -10.965646
108.14462 -265.83481 -11.021647
107.79405 -265.85156 -11.278872
104.27683 -265.96463 -11.737946
104.61697 -265.82886 -11.689357
108.22585 -265.80481 -12.277414
108.05682 -265.9126 -12.467878
108.99551 -265.89941 -12.512405
109.29124 -265.97705 -12.413749
109.73404 -265.99091 -12.418359
108.61591 -265.87097 -12.609354
106.4902 -265.87317 -13.447538
108.6632 -265.84042 -13.609685
106.51317 -265.88327 -13.805452
106.36613 -265.94296 -14.272388
104.47579 -265.74911 -6.0747261
105.10065 -265.74527 -6.1755481
109.36671 -265.6579 -6.1196671
119.57404 -265.75067 -6.1298442
105.29649 -265.6524 -6.2407289
105.50475 -265.64581 -6.2391281
105.6544 -265.68716 -6.3960991
105.69298 -265.71222 -6.708405
105.7017 -265.7193 -6.867311
113.12991 -265.77518 -7.080853
112.2968 -265.75671 -7.3372989
112.53749 -265.75769 -7.3466082
113.17836 -265.75894 -7.3306608
105.72083 -265.77286 -7.4020729
112.56445 -265.71848 -7.5215068
112.92824 -265.71695 -7.4779878
112.9878 -265.7652 -7.7060399
112.25135 -265.75302 -7.8844242
109.04343 -265.77579 -8.9477148
109.07304 -265.67438 -9.0475922
108.09891 -265.69778 -9.5130835
109.07472 -265.7746 -9.4927626
108.46162 -265.68854 -9.9002972
108.89743 -265.75702 -9.9292955
109.28906 -265.68277 -10.526473
109.12105 -265.70905 -10.676145
104.76608 -265.63101 -10.966713
108.95028 -265.62332 -10.85029
109.75029 -265.76038 -10.901665
104.75063 -265.60297 -11.006545
107.86842 -265.72208 -11.060584
104.36552 -265.65979 -11.35964
104.55207 -265.69992 -11.410728
105.09598 -265.61578 -11.704725
109.29442 -265.70279 -11.695572
108.5589 -265.77188 -11.898605
108.86131 -265.65466 -11.816782
105.2393 -265.61703 -12.084339
105.01929 -265.72153 -12.240694
108.44437 -265.75934 -12.231076
105.27281 -265.62 -12.565528
105.10072 -265.6792 -12.608402
105.14655 -265.69458 -12.97337
106.58026 -265.62415 -13.131447
105.18398 -265.75854 -13.338994
105.28012 -265.72244 -13.533387
104.55241 -265.77777 -13.875421
105.37952 -265.71124 -13.881411
105.31252 -265.7709 -14.226786
107.66805 -265.42639 -6.143878
108.23453 -265.42047 -6.0648189
109.43887 -265.54614 -6.0422611
115.91901 -265.50073 -6.1384258
119.0313 -265.43182 -6.0106382
119.56715 -265.47604 -6.0806818
119.60802 -265.52719 -6.0255609
105.64983 -265.56216 -6.2487612
105.80682 -265.58566 -7.3500199
105.81099 -265.56665 -7.9575291
105.77582 -265.56677 -8.1236649
105.75093 -265.57614 -8.6133556
105.80661 -265.5502 -9.0977392
108.52742 -265.51794 -9.0973825
105.80968 -265.54059 -9.2418537
105.78957 -265.51669 -9.8003426
109.4786 -265.50012 -10.052177
108.03511 -265.54852 -10.254546
105.81158 -265.47559 -10.562537
107.44037 -265.4574 -10.569868
108.64061 -265.42139 -10.639946
109.76678 -265.44202 -10.996685
105.24438 -265.47913 -11.010988
105.83117 -265.45279 -11.064566
107.84539 -265.46564 -11.11478
109.10381 -265.49545 -11.096982
104.7048 -265.55524 -11.304341
105.09731 -265.5589 -11.398084
105.85669 -265.42697 -11.372993
105.83869 -265.42566 -11.78897
108.64955 -265.48773 -11.849575
105.83248 -265.40979 -12.1439
106.62133 -265.48718 -12.186795
105.85674 -265.41388 -12.472149
106.63914 -265.44867 -12.589249
106.64946 -265.42871 -12.864433
106.72825 -265.59589 -13.309609
108.83283 -265.44104 -13.34973
108.16763 -265.5033 -13.70293
108.03017 -265.57056 -14.64045
102.90489 -265.2728 -5.9945841
103.39035 -265.37585 -6.0405598
105.40761 -265.36206 -6.1852832
110.55809 -265.30377 -6.0564981
111.44131 -265.35849 -6.1850948
113.02053 -265.36243 -6.1914568
116.58875 -265.39038 -6.0744152
105.67596 -265.23999 -6.2595968
112.23746 -265.23962 -6.2576618
106.73922 -265.22583 -6.497611
105.87917 -265.34125 -6.7128172
106.64886 -265.23129 -6.710361
105.92786 -265.36133 -6.8504729
106.65323 -265.35129 -7.2276359
106.51562 -265.27911 -8.7383404
106.16938 -265.245 -9.1275787
108.08855 -265.32904 -9.1442661
106.19366 -265.23706 -9.2187185
106.50655 -265.27277 -9.2887573
108.0487 -265.28827 -9.2965212
108.23915 -265.30997 -9.2075005
108.31845 -265.38135 -9.8141899
109.73956 -265.26361 -10.178986
110.24608 -265.30664 -10.141117
106.54242 -265.20764 -10.287137
106.5604 -265.24854 -10.48988
104.91948 -265.36908 -10.749689
109.08145 -265.36411 -10.620367
104.93439 -265.27887 -10.883838
105.04669 -265.22153 -10.975824
106.61554 -265.21603 -10.85323
107.32738 -265.29791 -10.910511
107.75874 -265.26691 -11.777582
106.7524 -265.21979 -11.843915
106.97826 -265.27258 -11.885638
108.90283 -265.36423 -11.927031
105.83008 -265.383 -12.975904
105.82688 -265.37366 -13.489216
105.86626 -265.34314 -13.945495
105.87157 -265.32336 -14.197686
107.59598 -265.29376 -14.180399
102.52818 -265.02454 -5.9760079
111.00771 -265.03735 -5.967103
117.7431 -265.04092 -5.9053259
111.39371 -265.14478 -6.1439581
118.76151 -265.10272 -6.1124082
119.68307 -265.00806 -6.003129
107.36511 -265.05533 -6.2134681
105.89919 -265.0011 -6.4702229
105.90594 -265.07907 -6.7403679
106.52538 -265.08655 -6.6375952
105.92017 -265.0679 -6.901401
106.37846 -265.0947 -9.0016222
109.45515 -265.13934 -9.9313869
110.63692 -265.0094 -9.9591303
110.46329 -265.11987 -10.537116
105.087 -265.12292 -10.63719
105.22861 -265.16492 -10.847571
107.55153 -265.00281 -10.874693
106.89796 -265.04529 -11.097351
107.71875 -265.03992 -11.132259
106.62664 -265.07581 -11.478117
106.93559 -265.11057 -11.46516
108.96469 -265.03409 -11.575157
106.69239 -265.08521 -11.742076
109.64546 -265.14413 -12.465002
109.17622 -265.1188 -12.653159
108.53952 -265.02081 -13.838657
102.34522 -264.83112 -5.9681492
111.31354 -264.94461 -5.9742932
105.02529 -264.98334 -6.1246791
108.5457 -264.91916 -6.069993
109.21657 -264.96884 -6.0823288
105.75227 -264.97665 -6.2189951
106.52199 -264.94183 -6.319427
106.92282 -264.95862 -6.256331
111.90708 -264.87802 -6.2153139
106.0834 -264.82782 -6.75811
106.30952 -264.84222 -6.7390218
105.99366 -264.89603 -7.1433949
105.94702 -264.99576 -7.3811669
105.9388 -264.98547 -7.932713
106.6187 -264.87665 -7.9420152
105.93925 -264.97739 -8.0587244
105.9904 -264.95282 -8.5642319
106.0332 -264.98969 -8.5832138
107.03529 -264.87515 -8.6385746
107.06114 -264.91382 -9.0794506
107.08586 -264.90912 -9.2490005
107.27511 -264.93546 -9.9146957
109.65353 -264.98138 -9.9356098
110.31287 -264.90768 -10.080294
110.55148 -264.94409 -10.052902
110.91405 -264.92206 -10.086135
105.29601 -264.91467 -10.328241
106.70357 -264.98331 -10.242599
109.14185 -264.97067 -10.287972
109.26782 -264.94482 -10.310584
106.73291 -264.99957 -10.46801
108.90652 -264.94342 -10.5378
109.48818 -264.82816 -10.577206
105.38434 -264.98135 -10.600678
106.97375 -264.97211 -10.659651
108.64319 -264.92551 -10.786482
108.47565 -264.93307 -11.10929
109.06255 -264.98401 -11.066026
109.39583 -264.94055 -11.005036
108.18245 -264.94373 -11.313972
109.44696 -264.91626 -11.292173
108.64825 -264.82013 -11.823941
106.55651 -264.87222 -12.171994
109.10406 -264.92017 -12.025383
107.08112 -264.84369 -13.563354
108.26842 -264.8291 -13.964439
108.5565 -264.85242 -14.012296
100.36076 -264.60504 -6.0786142
101.05981 -264.69336 -6.072793
105.72812 -264.71738 -6.1743121
107.29494 -264.69943 -6.185358
108.11519 -264.64337 -6.0682659
108.26846 -264.69968 -6.021441
108.99459 -264.62146 -6.0107188
106.00359 -264.64059 -6.3027902
106.15348 -264.68439 -6.4835501
106.14751 -264.71896 -6.7264161
106.12566 -264.70142 -6.9361358
106.0648 -264.70288 -7.140862
106.0992 -264.65271 -7.3117132
106.26695 -264.66492 -7.3638549
106.47278 -264.76572 -7.4243388
105.9305 -264.7879 -7.6606102
106.47609 -264.68542 -7.7353778
105.96039 -264.69849 -7.9164581
106.02173 -264.61914 -7.86093
106.4929 -264.67206 -7.8990188
105.94044 -264.61249 -8.0985966
106.52062 -264.65759 -8.0880508
106.65211 -264.78125 -8.6024017
106.76706 -264.66739 -9.6974773
106.95427 -264.73993 -9.664362
107.30206 -264.63159 -9.8183489
105.62607 -264.67029 -10.075661
109.75951 -264.69177 -10.110334
105.49292 -264.77188 -10.307978
109.43158 -264.70651 -10.359839
110.18563 -264.68011 -10.317154
110.69406 -264.6857 -10.26269
108.99286 -264.6835 -10.535046
108.66319 -264.62408 -10.644603
108.57694 -264.73581 -10.892235
109.35269 -264.69958 -10.961108
109.82673 -264.74359 -10.959329
108.53545 -264.65314 -11.366214
108.87617 -264.65308 -11.252753
108.2036 -264.73364 -11.452406
109.82168 -264.61084 -11.492908
108.64574 -264.67081 -11.727173
108.97422 -264.68567 -11.719938
109.02988 -264.68707 -12.074806
106.7734 -264.6922 -12.545
109.37698 -264.68863 -12.53433
109.02527 -264.60629 -12.859254
108.59103 -264.67911 -13.532145
106.96352 -264.70496 -13.775789
109.54464 -264.72852 -13.67835
102.64707 -264.45773 -5.9766521
110.22968 -264.51889 -5.9727941
107.12716 -264.53033 -6.158298
107.34511 -264.54016 -6.1199832
107.90615 -264.5542 -6.0582309
110.33112 -264.49316 -6.1333351
110.66856 -264.55139 -6.0537319
112.17412 -264.59192 -6.1386962
106.10657 -264.54053 -6.2064571
106.67538 -264.56897 -6.2067308
106.12453 -264.56989 -7.922029
106.16248 -264.51007 -8.1231766
105.94087 -264.51483 -8.5234966
106.10654 -264.41824 -8.4877262
106.46826 -264.46393 -8.5307894
105.95244 -264.4133 -8.6244516
106.48925 -264.44635 -8.674612
105.87018 -264.55988 -9.1194267
106.58842 -264.4765 -9.1553459
106.68479 -264.53809 -9.3429003
105.77258 -264.55115 -9.4404945
106.44649 -264.44449 -9.4351788
105.70672 -264.5881 -9.724555
106.08354 -264.50513 -10.374446
109.37079 -264.51508 -10.55227
109.5206 -264.55948 -10.409678
106.11685 -264.50781 -10.668597
106.10318 -264.50482 -11.009935
108.93784 -264.57401 -11.139406
106.11554 -264.50174 -11.36981
110.3963 -264.51437 -11.35363
109.51199 -264.51035 -11.726387
110.19521 -264.5777 -11.690031
110.42989 -264.5116 -11.749558
106.19658 -264.49518 -13.079605
108.93475 -264.58545 -13.935539
108.02119 -264.58307 -14.083659
103.2059 -264.28268 -5.9894781
101.44392 -264.27625 -6.0298672
106.16074 -264.27078 -6.1338272
106.27289 -264.29962 -6.1659799
106.65125 -264.27182 -6.1456852
106.8281 -264.2359 -6.1318979
112.82932 -264.30481 -6.1724968
115.83008 -264.22165 -6.171308
105.98102 -264.34259 -8.7040024
106.10252 -264.34891 -8.672966
106.27914 -264.3667 -8.6404076
105.96077 -264.31219 -8.9112377
105.93331 -264.24658 -9.1165962
106.34221 -264.24188 -9.1197052
105.86903 -264.39539 -9.2166233
105.82709 -264.30011 -9.5058146
108.70092 -264.26926 -10.325386
108.83247 -264.28546 -10.212803
109.71062 -264.32025 -10.363042
109.8 -264.29422 -10.304522
109.38561 -264.20987 -10.580856
109.32611 -264.21417 -10.964648
108.9466 -264.21951 -11.3994
110.47368 -264.33057 -11.933228
109.02713 -264.32089 -12.97635
106.93129 -264.30936 -13.488132
108.50891 -264.38205 -13.455553
108.88177 -264.34659 -13.938229
107.86124 -264.03479 -5.9849758
118.99008 -264.17337 -5.9657102
103.75799 -264.10492 -6.0300322
104.72173 -264.19531 -6.0575418
107.06935 -264.15201 -6.0696549
108.34666 -264.14124 -6.0223179
111.73314 -264.16113 -6.137084
112.24895 -264.17627 -6.051589
114.68722 -264.16806 -6.0373631
106.14851 -264.11063 -9.1112413
106.25317 -264.16379 -9.0855322
107.66197 -264.05707 -9.1854153
106.33461 -264.10809 -9.2874355
107.59557 -264.03629 -9.2022343
108.6861 -264.07648 -9.870369
108.94359 -264.08737 -9.8645468
110.06335 -264.09558 -10.330441
101.78514 -264.07776 -12.553512
110.01755 -264.1886 -13.271007
105.16668 -264.02817 -13.827615
101.84826 -263.93539 -5.9526181
102.08739 -263.83731 -5.9656539
109.854 -263.87579 -5.9834962
100.12773 -263.87573 -6.0561318
107.54041 -263.80981 -6.0081272
114.31313 -263.92804 -6.032125
115.81506 -263.91132 -6.170249
119.02798 -263.88733 -6.0330648
107.64229 -263.94315 -9.0990524
105.9584 -263.91199 -9.318861
106.06247 -263.92337 -9.2929316
105.85388 -263.92114 -9.5336533
106.15843 -263.92316 -9.4669561
105.71349 -263.84424 -9.6616516
108.95184 -263.95541 -9.873064
105.85501 -263.8219 -10.040863
106.01727 -263.83087 -10.08597
110.16077 -263.88635 -10.307886
110.43615 -263.89603 -10.252535
109.47552 -263.89883 -10.482354
110.08869 -263.83984 -10.445381
109.07674 -263.9212 -11.129296
110.0882 -263.96313 -11.399652
119.26138 -263.90338 -12.270753
100.50541 -263.93518 -12.777898
109.31078 -263.83542 -12.819799
109.03127 -263.98492 -13.008949
119.11944 -263.87976 -13.814957
107.10058 -263.64377 -5.9966688
107.99858 -263.61404 -5.9865789
108.58676 -263.63507 -5.9747772
112.15796 -263.72858 -5.969799
106.55842 -263.69324 -6.0165281
111.34785 -263.78186 -6.033145
111.90762 -263.72052 -6.1171408
112.31541 -263.71484 -6.0555148
116.47337 -263.62482 -7.317472
108.12514 -263.72092 -9.1538286
107.61597 -263.67337 -9.2442827
107.86337 -263.76135 -9.3521214
107.56331 -263.76749 -9.4159184
105.58105 -263.67999 -9.7704306
106.24709 -263.73688 -9.6880817
106.44785 -263.79565 -9.7352772
107.32839 -263.77362 -9.7305746
105.28107 -263.66626 -9.9417191
105.51817 -263.63275 -9.856678
105.71959 -263.71368 -9.8449306
106.03989 -263.78418 -9.9877071
106.294 -263.6228 -9.8639841
107.49275 -263.67413 -10.02069
106.11533 -263.71469 -10.215445
110.14769 -263.76581 -10.497824
110.50897 -263.71246 -10.444475
107.01086 -263.69241 -10.619231
107.38094 -263.75943 -10.656527
110.14668 -263.67868 -10.989886
104.93205 -263.66043 -11.08888
109.90334 -263.70767 -11.050144
108.3102 -263.66885 -11.55725
108.59139 -263.70914 -11.503698
107.40568 -263.72061 -11.775357
108.28665 -263.68622 -11.689907
108.50523 -263.66339 -11.653439
109.30829 -263.6947 -11.764469
109.12127 -263.78552 -11.872454
118.50389 -263.67609 -12.658011
100.32379 -263.73907 -12.808765
100.47321 -263.61444 -12.826929
100.66645 -263.75293 -12.856286
119.73885 -263.7085 -12.889662
108.47939 -263.70868 -13.933748
118.85909 -263.6741 -14.015873
103.50896 -263.47821 -5.990746
104.42854 -263.58594 -5.9950991
106.60466 -263.46539 -5.9847112
108.658 -263.405 -5.9826059
100.14583 -263.50995 -6.0421009
100.63154 -263.561 -6.0284719
101.30014 -263.48743 -6.0272708
101.61313 -263.48059 -6.0348158
101.86633 -263.50507 -6.0074992
105.85728 -263.45221 -6.015357
106.09069 -263.48135 -6.0136042
106.55588 -263.57074 -6.0093002
109.08496 -263.45645 -6.0112448
111.78436 -263.40948 -6.0678439
112.94141 -263.44424 -6.096777
114.02852 -263.52466 -6.036118
116.71855 -263.43741 -6.3959718
116.45811 -263.46713 -6.51016
115.99486 -263.56204 -6.6811571
116.09601 -263.43417 -7.4389009
107.52164 -263.53452 -9.1453571
107.96424 -263.40894 -9.1534901
107.72014 -263.55029 -9.2712059
107.8201 -263.4408 -9.202096
108.14423 -263.47113 -9.2465124
108.20142 -263.55701 -9.2181778
107.52735 -263.45627 -9.7790861
107.66205 -263.47208 -9.6837444
105.4439 -263.55933 -9.9428396
105.09987 -263.53284 -10.075305
105.62509 -263.54709 -10.129189
106.46018 -263.54706 -10.05372
107.62244 -263.41672 -10.048631
105.48239 -263.47418 -10.285183
106.33156 -263.46906 -10.250804
106.55472 -263.5448 -10.268719
107.26647 -263.50629 -10.216364
110.61377 -263.51886 -10.366467
105.41087 -263.47 -10.401221
107.08749 -263.51498 -10.599867
107.36702 -263.41806 -10.5702
110.19781 -263.53131 -10.561663
110.55298 -263.51874 -10.556997
110.30529 -263.48193 -10.64526
110.62473 -263.45959 -10.662561
104.96918 -263.41312 -10.98022
110.06973 -263.51236 -11.114618
110.33239 -263.42789 -11.094668
110.45002 -263.41275 -11.110321
109.97569 -263.45145 -11.23327
108.21984 -263.44986 -11.478539
108.19894 -263.52051 -11.646511
108.57489 -263.45758 -11.759459
107.33423 -263.44739 -11.902416
109.47551 -263.53134 -11.892897
108.06332 -263.40161 -12.085411
119.64482 -263.52258 -12.160943
105.28215 -263.40381 -12.530537
119.91702 -263.40863 -12.504717
101.7352 -263.55936 -12.750636
108.64752 -263.44794 -13.74445
108.82785 -263.46274 -13.718061
118.7642 -263.57922 -14.125411
108.364 -263.50226 -14.215688
109.11338 -263.43503 -14.713923
101.53238 -263.34164 -5.9540071
103.82803 -263.28647 -5.9931288
115.67527 -263.34616 -5.8936238
100.91931 -263.27524 -6.0044699
115.43446 -263.3819 -6.0605278
109.39311 -263.25552 -6.211956
116.22048 -263.31079 -6.634675
116.10355 -263.2565 -7.0487871
107.5781 -263.367 -9.4128294
107.41895 -263.39459 -9.7162037
107.70848 -263.31586 -9.9711885
105.08706 -263.37662 -10.142721
105.37161 -263.37421 -10.148801
104.71823 -263.23462 -10.328938
104.92393 -263.22424 -10.29072
108.71945 -263.22528 -10.321356
108.95926 -263.28253 -10.236054
104.41531 -263.20135 -10.471562
110.86158 -263.33008 -10.575142
105.12788 -263.33154 -10.655014
105.32072 -263.31537 -10.714946
106.28966 -263.349 -10.68611
106.46165 -263.28745 -10.677332
108.73405 -263.32758 -10.683537
108.9583 -263.32898 -10.715118
110.68689 -263.39764 -10.630814
110.85611 -263.36984 -10.72524
106.27116 -263.2879 -10.938106
108.675 -263.26288 -10.984268
105.22234 -263.31628 -11.064647
106.20904 -263.26749 -11.044933
110.47232 -263.36346 -11.083982
105.28828 -263.31967 -11.351998
106.16547 -263.28949 -11.396128
108.69167 -263.25143 -11.347244
108.89995 -263.23294 -11.346214
109.00748 -263.33704 -11.26518
110.15624 -263.23514 -11.230961
110.28996 -263.32419 -11.28379
106.13112 -263.36685 -11.520335
107.88301 -263.32547 -11.568127
108.2664 -263.37134 -11.55328
105.25104 -263.31982 -11.744287
107.91624 -263.39996 -11.658332
108.92526 -263.3829 -11.726776
106.09084 -263.30103 -11.919591
105.26376 -263.34863 -12.126257
106.43581 -263.36258 -12.084244
105.93803 -263.26431 -12.211957
108.50152 -263.2626 -12.203754
103.33343 -263.29642 -12.535317
105.73611 -263.24142 -12.505995
118.5656 -263.26495 -12.682858
100.92841 -263.39117 -12.903181
105.39304 -263.38089 -13.008684
107.07352 -263.00909 -5.941256
110.9316 -263.15381 -5.9422588
103.04053 -263.12115 -6.018394
116.36096 -263.04752 -6.4215379
115.65759 -263.08514 -6.8792729
115.89651 -263.09286 -6.903749
116.31187 -263.05618 -6.9143009
116.23296 -263.14081 -7.0366759
116.29739 -263.00879 -7.3354368
116.20563 -263.12775 -7.4987068
108.95916 -263.13336 -9.9781818
109.08093 -263.04483 -9.9253712
104.70737 -263.13599 -10.379197
104.88229 -263.18384 -10.373756
105.06633 -263.16705 -10.307702
104.55206 -263.04672 -10.507357
104.9029 -263.1593 -10.50805
108.63393 -263.02094 -10.716509
108.61876 -263.19885 -10.997205
106.25619 -263.13708 -11.17161
108.69965 -263.02258 -11.037617
106.30898 -263.00912 -11.365657
106.40651 -263.07486 -11.259354
106.21349 -263.14066 -11.575373
106.44567 -263.01688 -11.442104
108.26272 -263.10056 -11.532638
107.11244 -263.0528 -11.849452
107.30268 -263.03473 -11.853912
107.85602 -263.09082 -11.868403
106.13183 -263.17496 -12.107983
107.86131 -263.10416 -12.148792
108.25385 -263.0123 -12.203308
105.84527 -263.06519 -12.4601
107.95527 -263.02084 -12.494779
118.74533 -263.05231 -12.582977
105.44077 -263.12082 -13.026321
105.66269 -263.05884 -13.017075
105.31921 -263.01932 -13.279437
108.61716 -263.08261 -14.16328
109.63614 -263.04562 -14.854581
103.32336 -262.93976 -5.986444
108.26202 -262.90576 -5.9755039
109.40985 -262.85007 -5.9085732
103.24132 -262.82922 -6.0185752
103.51244 -262.90671 -6.0231118
103.77214 -262.89044 -6.014174
116.32444 -262.97293 -6.3577938
116.46185 -262.93713 -6.2868729
116.95753 -262.86542 -6.2963958
116.50317 -262.9744 -6.4876628
117.63587 -262.91034 -6.8839288
115.93594 -262.96954 -7.0679922
116.2963 -262.92542 -7.125597
116.42393 -262.90735 -7.1085272
116.2887 -262.8042 -7.3970609
109.38683 -262.90259 -9.7719002
108.99925 -262.9968 -10.072777
108.94846 -262.94534 -10.332701
103.91197 -262.80188 -10.722691
104.07973 -262.8222 -10.659821
104.30519 -262.88666 -10.682167
109.05611 -262.86523 -10.760983
109.34785 -262.84186 -10.607704
103.71985 -262.83078 -10.858517
104.27502 -262.84235 -10.867068
108.9032 -262.95129 -10.883022
109.02773 -262.96057 -11.369501
109.27209 -262.91922 -11.273434
106.25993 -262.9281 -11.505789
108.57069 -262.91556 -11.481991
106.31004 -262.85089 -11.707037
108.13103 -262.9967 -11.700983
109.04645 -262.82104 -11.637453
107.33813 -262.98694 -11.921585
107.40797 -262.87445 -12.180298
107.0871 -262.95209 -12.343392
107.35298 -262.9729 -12.522075
108.80494 -262.92059 -12.532783
101.74087 -262.95575 -12.980633
103.7617 -262.82837 -12.84986
108.94805 -262.90222 -13.412266
103.44923 -262.63345 -5.966949
108.97906 -262.6091 -5.9446549
111.03153 -262.60181 -5.9592352
111.96615 -262.69327 -5.931962
115.97754 -262.62137 -5.9076729
116.06316 -262.66177 -5.8963122
119.01105 -262.67944 -5.8156242
115.86012 -262.75726 -6.1971922
116.32209 -262.6333 -6.3510652
117.07749 -262.60489 -6.3678751
117.3839 -262.68921 -6.3197608
116.50093 -262.6474 -6.5224891
116.19554 -262.67276 -6.9376111
115.87847 -262.73349 -7.1383729
116.01679 -262.70801 -7.1585112
116.30479 -262.75037 -7.0546761
117.43959 -262.61694 -7.3326979
116.14507 -262.60822 -7.6639571
109.34215 -262.75302 -9.5885229
109.44711 -262.71237 -9.7368946
109.56772 -262.72153 -9.8006392
109.0874 -262.61832 -10.325167
108.77684 -262.61295 -10.508509
108.81932 -262.61517 -10.538429
103.9436 -262.74017 -10.759904
104.06091 -262.7522 -10.749802
109.12953 -262.71985 -10.654186
109.45048 -262.70581 -10.672117
103.72806 -262.77206 -10.87476
103.88912 -262.64893 -10.832276
108.08974 -262.72162 -10.992106
109.13748 -262.77307 -10.810379
103.34079 -262.74289 -11.109118
103.47226 -262.70267 -11.057222
101.91136 -262.6022 -11.377102
103.01634 -262.60925 -11.304892
103.43538 -262.6485 -11.320988
108.64058 -262.71149 -11.527757
109.12529 -262.69418 -11.473345
106.34148 -262.73193 -11.714443
109.07497 -262.78635 -11.622144
106.28408 -262.66934 -11.873287
106.56126 -262.69659 -11.888649
106.8927 -262.75403 -11.983581
107.57193 -262.72537 -11.948174
108.52051 -262.69733 -11.802252
107.41982 -262.78568 -12.196765
100.67776 -262.63193 -12.301361
119.59071 -262.61255 -12.313231
107.37697 -262.79474 -12.436234
119.42725 -262.63318 -12.52586
105.74825 -262.77866 -12.72171
108.54475 -262.70328 -12.74045
103.3968 -262.66678 -12.988012
103.7057 -262.65775 -12.959012
105.6727 -262.69147 -13.47574
108.94279 -262.73425 -13.432258
102.6556 -262.57373 -5.949008
103.7429 -262.561 -5.9790802
104.2176 -262.59933 -5.982625
113.00181 -262.41742 -5.9976878
116.25372 -262.53094 -6.3226452
116.6487 -262.453 -6.3600821
116.53815 -262.50546 -6.4403458
116.93172 -262.54123 -6.4591899
117.28095 -262.59082 -6.47684
116.28032 -262.56018 -6.9033389
117.25725 -262.50525 -6.891109
116.52985 -262.52194 -7.1464701
116.25618 -262.51047 -7.37641
116.13327 -262.43011 -7.5807052
116.28507 -262.53021 -7.4454598
116.4948 -262.47931 -7.4462709
117.31429 -262.56274 -7.5184531
109.22894 -262.50662 -10.317663
108.90465 -262.5043 -10.466488
101.49761 -262.43158 -10.760722
103.757 -262.49353 -10.975376
102.10213 -262.51587 -11.553702
102.3155 -262.46994 -11.664569
109.10371 -262.5036 -11.67585
106.30429 -262.51746 -12.004104
101.03043 -262.50061 -12.545118
101.44731 -262.5249 -12.923265
103.52185 -262.47351 -13.204504
119.93133 -262.27087 -5.7532148
103.88297 -262.25754 -5.9744468
106.85941 -262.23694 -5.925137
107.38948 -262.2543 -5.9272442
110.71109 -262.272 -5.9382992
111.33456 -262.27948 -5.9691362
115.87738 -262.27484 -5.8672609
110.73193 -262.323 -6.052443
115.29431 -262.21173 -6.0364408
116.7196 -262.33655 -6.2779908
116.64484 -262.24997 -6.5294342
117.11267 -262.32953 -6.6239262
116.237 -262.31357 -6.9039588
116.68748 -262.28174 -6.92909
117.13118 -262.32565 -6.9071012
117.33407 -262.29218 -6.9144101
116.46666 -262.34647 -7.0379462
116.67569 -262.32254 -7.1404881
116.85702 -262.32147 -7.1170001
117.04177 -262.32263 -7.097281
116.37892 -262.39752 -7.3770361
117.25558 -262.289 -7.37992
116.34639 -262.31171 -7.4823942
116.96558 -262.28104 -7.5106001
117.35663 -262.22791 -7.5107012
115.98337 -262.37634 -7.6731572
116.72194 -262.31485 -7.6930108
101.45471 -262.30142 -10.784541
101.64443 -262.33899 -10.766808
103.78919 -262.35172 -10.969334
102.05592 -262.26038 -11.070746
103.69484 -262.27905 -11.481526
103.67497 -262.29575 -11.887398
106.46752 -262.24316 -12.132273
103.6996 -262.29907 -12.265379
106.31418 -262.21445 -12.268581
100.96525 -262.25873 -12.686931
101.24738 -262.35718 -12.758245
103.71278 -262.29926 -12.605065
105.55228 -262.24817 -12.907152
100.41161 -262.26825 -13.03919
103.68129 -262.31381 -13.079313
119.47589 -262.17578 -5.7874079
104.51436 -262.15302 -5.9397259
106.12699 -262.11057 -5.9385118
106.54398 -262.10535 -5.9297481
107.83054 -262.17999 -5.9380298
109.15924 -262.18228 -5.9147968
111.18486 -262.10678 -5.9010258
112.50453 -262.14282 -5.9798231
112.9151 -262.1579 -5.9253869
116.66731 -262.08807 -5.9223561
110.98942 -262.09259 -6.0103641
116.68908 -262.16492 -6.0050621
117.72649 -262.09894 -6.0267382
116.85118 -262.15991 -6.3140678
116.3614 -262.03821 -6.5850968
116.90051 -262.09949 -6.771203
116.37338 -262.12769 -7.1380181
116.53036 -262.11285 -7.1607099
116.64679 -262.13422 -7.3563619
116.92966 -262.12952 -7.5712199
116.78855 -262.18607 -7.6613059
101.46847 -262.16904 -10.822925
101.94381 -262.09714 -11.051057
103.51096 -262.12946 -11.099188
102.17159 -262.10944 -11.396479
103.7509 -262.19324 -11.254658
101.44675 -262.06842 -11.46043
102.24554 -262.09631 -11.75675
107.91175 -262.07465 -11.934007
108.03371 -262.07739 -11.861188
106.32231 -262.00363 -12.627752
107.96317 -262.18524 -13.230113
100.2888 -261.81659 -5.986423
110.67561 -261.84152 -5.955626
111.25104 -261.83365 -5.9714842
111.03621 -261.85974 -6.0647159
110.75046 -261.85037 -6.6410308
110.82874 -261.86215 -6.6657581
116.69611 -261.89899 -7.0764942
116.87659 -261.89832 -7.1579041
116.59025 -261.91467 -7.5331059
108.6226 -261.80304 -10.990416
103.63118 -261.85577 -11.121489
101.3359 -261.93304 -11.498222
101.88188 -261.87427 -11.543081
102.11635 -261.91794 -11.479443
108.52406 -261.83005 -11.403409
108.61284 -261.84308 -11.746376
102.53266 -261.85324 -11.927441
109.20523 -261.89706 -12.031191
106.50449 -261.82483 -12.311553
106.36243 -261.93448 -12.43387
107.00851 -261.90857 -13.377478
104.87237 -261.77106 -5.9346981
114.16026 -261.77307 -5.9199982
115.00898 -261.69604 -5.9526129
116.57486 -261.77957 -5.886796
111.84312 -261.66638 -6.053616
113.05966 -261.73962 -6.0325861
101.95804 -261.73996 -11.153875
103.50506 -261.70096 -11.060849
108.85751 -261.62073 -11.073833
103.96484 -261.62909 -11.485178
101.90378 -261.69916 -11.716959
102.17369 -261.70377 -11.735284
108.24441 -261.74667 -11.942851
102.55116 -261.60025 -12.167147
107.39471 -261.74005 -12.140671
106.91533 -261.62265 -12.360365
108.01228 -261.66949 -12.303021
102.49304 -261.69156 -12.566971
106.60898 -261.75763 -12.521343
102.16577 -261.78174 -12.837646
106.72498 -261.76901 -12.93101
100.78041 -261.6543 -13.089487
105.20193 -261.69955 -13.155454
106.82792 -261.77084 -13.008711
105.40228 -261.75809 -13.324937
109.78288 -261.67719 -14.377726
100.18261 -261.4516 -5.9798112
101.35653 -261.44781 -5.9494061
103.40594 -261.47739 -5.932425
105.23647 -261.54691 -5.8937459
111.42876 -261.4007 -5.937541
112.21094 -261.41614 -5.9315329
113.54143 -261.47565 -5.9235592
111.07529 -261.41589 -6.0782232
111.46667 -261.46918 -6.0599999
111.73509 -261.4411 -6.0561948
115.79111 -261.49796 -6.02387
101.02667 -261.46445 -6.3098898
100.23193 -261.414 -6.5457692
100.91696 -261.47662 -6.493257
100.54347 -261.40619 -6.6685472
100.51613 -261.41187 -6.8659868
102.0797 -261.56012 -11.132649
108.26889 -261.42932 -11.302145
108.6175 -261.52017 -11.337766
103.79977 -261.48062 -11.483408
104.14977 -261.55582 -11.491617
104.05977 -261.41925 -11.716922
107.77042 -261.45441 -11.697314
108.4432 -261.42657 -11.669817
102.19585 -261.4382 -11.922478
102.64279 -261.53778 -12.288826
106.6602 -261.5787 -12.394592
102.46237 -261.40509 -12.458273
108.97295 -261.41931 -12.463565
109.59004 -261.44824 -12.413005
102.33737 -261.54382 -12.694263
106.83377 -261.48557 -12.789576
102.29627 -261.58832 -12.808683
105.45015 -261.45251 -12.901557
108.22227 -261.51431 -13.063799
107.29754 -261.42657 -13.317995
101.76973 -261.35477 -5.9390178
105.71339 -261.26382 -5.876606
106.99333 -261.26923 -5.9556742
108.03285 -261.39233 -5.9211488
108.50215 -261.34518 -5.88415
109.97174 -261.3768 -5.8836222
111.10677 -261.36108 -5.973659
111.66396 -261.39328 -5.9716282
113.86271 -261.30792 -5.8889432
115.21027 -261.32306 -5.9581571
115.73378 -261.39331 -5.8901029
117.40398 -261.35587 -5.8695431
117.71794 -261.3638 -5.9621129
107.46042 -261.31085 -6.1960082
115.15916 -261.30228 -6.0556531
117.75179 -261.39676 -6.0287442
100.12511 -261.35254 -6.2932019
100.46204 -261.3584 -6.3548021
107.79065 -261.35223 -6.5530519
107.45718 -261.35834 -6.6908498
107.90813 -261.20532 -10.717115
108.24275 -261.31482 -10.704165
103.16067 -261.28729 -10.921715
107.79372 -261.28394 -11.030444
108.64714 -261.26984 -11.020786
103.25851 -261.2785 -11.27099
107.69132 -261.31592 -11.305677
102.68873 -261.23254 -11.492022
107.54134 -261.23962 -11.507048
109.43567 -261.34866 -11.417336
109.15372 -261.33441 -11.637511
102.63815 -261.33435 -11.808286
108.17502 -261.32092 -11.810444
102.32548 -261.33829 -12.059095
105.37916 -261.39276 -12.687293
106.58215 -261.38589 -12.730581
108.18951 -261.34235 -12.618601
105.66669 -261.2001 -12.896272
107.00733 -261.27271 -13.123794
107.25333 -261.29086 -13.167662
114.07809 -261.00299 -5.7948809
100.17309 -261.15131 -5.985826
100.94427 -261.04349 -5.9672742
102.9758 -261.12241 -5.8981109
106.17456 -261.048 -5.9104671
108.15651 -261.14691 -5.9239359
110.29581 -261.00385 -5.9148269
110.9283 -261.00391 -5.9167552
118.25723 -261.12216 -5.8899398
113.84121 -261.08081 -6.0622678
115.19824 -261.19418 -6.0294018
107.48522 -261.0643 -7.0825019
107.56064 -261.01956 -7.267508
103.05977 -261.16208 -10.984616
102.9519 -261.02933 -11.064631
102.74497 -261.13885 -11.292324
108.23942 -261.01935 -11.325226
109.18956 -261.09546 -11.598711
109.43376 -261.15717 -11.496172
108.78633 -261.15686 -12.269987
106.58522 -261.02454 -12.55197
105.73547 -261.07303 -12.982927
107.06046 -261.04794 -13.370159
100.21933 -260.96985 -5.961143
107.3241 -260.90961 -5.977519
110.74246 -260.96524 -5.9427381
111.39909 -260.95947 -5.95012
111.8557 -260.98599 -5.9357262
108.20117 -260.96735 -6.076829
109.90813 -260.86542 -6.03758
107.40617 -260.95996 -6.2102618
107.88102 -260.90033 -6.2168078
108.10328 -260.87579 -6.3832722
114.04271 -260.82297 -6.2062168
108.11104 -260.97107 -6.5941238
108.04461 -260.9184 -6.7240038
108.42632 -260.91806 -6.8488231
107.54265 -260.92688 -7.0502772
107.72905 -260.86682 -7.0676441
107.66151 -260.91949 -7.3238502
107.70676 -260.90021 -7.4150882
108.07198 -260.99432 -10.558596
107.87524 -260.89618 -10.612947
107.69267 -260.98022 -10.961399
102.68417 -260.88226 -11.087374
103.43866 -260.87097 -11.168751
108.50616 -260.97357 -11.123083
103.39274 -260.99457 -11.295647
103.13847 -260.9501 -11.4124
106.76468 -260.95856 -12.162503
107.00145 -260.8826 -12.180365
107.89945 -260.81247 -12.322385
106.96564 -260.92694 -12.485136
119.14069 -260.67389 -5.7858629
100.93288 -260.71466 -5.9663239
101.41984 -260.60764 -5.9458208
101.82228 -260.6004 -5.9185948
102.33524 -260.63788 -5.960556
105.07803 -260.64844 -5.8471308
108.54405 -260.76172 -5.8431931
109.01175 -260.71368 -5.8546348
109.76923 -260.68542 -5.8331561
112.09343 -260.6615 -5.9382811
117.05171 -260.66684 -5.828032
117.4066 -260.65076 -5.8640661
118.65076 -260.60471 -5.8121762
107.08386 -260.71964 -6.1152058
108.14728 -260.60321 -6.1970272
106.87962 -260.62122 -6.5665221
107.10208 -260.64716 -6.6481819
107.3463 -260.75964 -6.7540379
107.41843 -260.67285 -6.7394509
107.85809 -260.60394 -10.326796
107.85112 -260.70407 -10.550571
102.39057 -260.61313 -11.185602
102.81094 -260.78766 -11.135031
108.63825 -260.68039 -11.532176
103.67281 -260.78674 -11.662894
106.71419 -260.77075 -11.881807
106.54198 -260.62796 -12.359232
108.60571 -260.77982 -12.238308
107.87188 -260.79553 -12.59132
105.77699 -260.62006 -12.988661
103.82491 -260.51746 -5.874784
105.36285 -260.50253 -5.8921199
106.63663 -260.58276 -5.9335022
107.37207 -260.57184 -5.9709439
107.81575 -260.5238 -5.9570341
108.07631 -260.55188 -5.9402652
108.52644 -260.48932 -5.8304911
110.33565 -260.51239 -5.9167662
110.56207 -260.48557 -5.972126
110.95985 -260.51566 -5.969223
111.41029 -260.53796 -5.9321761
111.76452 -260.4826 -5.9421592
113.15154 -260.51086 -5.9169798
113.36981 -260.55774 -5.923667
113.74892 -260.59534 -5.8996191
118.06761 -260.5675 -5.8771338
107.05748 -260.56848 -6.0846429
107.58596 -260.51596 -6.0578098
107.87271 -260.46918 -6.1035061
108.04634 -260.57498 -6.0555191
110.39463 -260.4314 -6.0590458
111.73244 -260.44971 -6.045877
107.47001 -260.47247 -6.2688308
107.83315 -260.48865 -6.2648091
108.13266 -260.46524 -6.3708248
107.25748 -260.42044 -6.5610099
107.5448 -260.57623 -6.5623212
107.98252 -260.58884 -6.4094281
108.11365 -260.45041 -6.5611448
107.062 -260.55652 -6.7118311
107.52386 -260.55939 -6.6962562
107.6728 -260.46396 -6.698215
107.53745 -260.47943 -6.9505181
107.79002 -260.52344 -6.9159808
107.86364 -260.43164 -7.043901
107.87457 -260.49811 -10.342787
108.06174 -260.54694 -10.305458
108.30318 -260.44849 -10.692656
107.91682 -260.40472 -10.955569
102.53677 -260.58829 -11.091694
107.52316 -260.4465 -11.30375
107.62214 -260.54047 -11.298395
106.37074 -260.5405 -11.460439
106.61319 -260.50812 -11.447146
103.16173 -260.53436 -11.667017
106.90108 -260.46066 -11.845651
107.41256 -260.40588 -11.915411
103.10901 -260.43085 -12.107176
107.3079 -260.50473 -12.16898
108.20198 -260.48724 -12.328717
107.44164 -260.49124 -12.462516
104.46538 -260.43518 -12.734158
106.37154 -260.47668 -12.627301
106.62235 -260.5585 -12.682202
107.46163 -260.58911 -13.334919
119.40593 -260.26923 -5.7869258
100.55177 -260.3299 -5.931417
101.45575 -260.20563 -5.9442821
105.7678 -260.22736 -5.884192
107.03107 -260.2757 -5.8739829
108.11508 -260.37476 -5.889894
109.05928 -260.30542 -5.8270969
110.97601 -260.28827 -5.9763012
111.34329 -260.35162 -5.9571681
111.77612 -260.20981 -5.9511728
112.63778 -260.2565 -5.9410548
112.99158 -260.30887 -5.9306579
107.06757 -260.3024 -6.0909052
107.53751 -260.22977 -6.164197
107.71574 -260.23865 -6.14467
108.14377 -260.24225 -6.151679
110.86938 -260.36804 -6.0114079
111.79175 -260.25256 -6.0422239
107.72258 -260.27826 -6.2337518
107.46761 -260.28928 -6.5424752
107.66366 -260.26874 -6.5582638
107.77165 -260.26263 -6.709743
107.82743 -260.20029 -6.7081852
108.13299 -260.28613 -6.6279502
107.64363 -260.36377 -7.064538
107.68155 -260.21619 -7.230989
102.45028 -260.36829 -11.145689
107.8694 -260.20239 -11.093226
106.4356 -260.27963 -11.252537
108.22285 -260.28503 -11.757257
108.54315 -260.21719 -11.744451
103.13663 -260.32767 -11.878838
106.956 -260.30035 -11.828321
106.66681 -260.27063 -12.14895
104.50072 -260.39404 -12.210679
107.01522 -260.34354 -12.286754
103.20918 -260.21112 -12.486467
106.29794 -260.32877 -12.46053
102.98492 -260.36752 -12.614914
104.47522 -260.2999 -12.834686
105.8082 -260.38791 -13.075968
107.52143 -260.23886 -13.311005
100.93031 -260.13925 -5.9201798
101.83147 -260.12711 -5.9093161
102.10492 -260.11481 -5.9074831
104.23392 -260.18808 -5.8900208
106.30075 -260.00742 -5.8546548
106.59449 -260.03766 -5.8555698
107.07586 -260.04111 -5.840507
107.46008 -260.1459 -5.918704
108.16064 -260.13531 -5.8427601
108.25179 -260.15704 -5.8375902
110.73237 -260.13879 -5.8860641
107.51617 -260.11154 -6.0564899
107.14267 -260.0957 -6.459466
107.28379 -260.07227 -6.4248152
107.41225 -260.10324 -6.4120569
108.06227 -260.15143 -6.4794598
108.03889 -260.16632 -6.8440442
108.25383 -260.15375 -10.911619
108.42796 -260.17255 -10.883666
102.16402 -260.07629 -11.153965
102.28197 -260.08353 -11.118061
104.45615 -260.03589 -11.214735
107.72003 -260.17352 -11.243365
108.67125 -260.11789 -11.362575
107.43361 -260.19702 -11.469179
104.22049 -260.0954 -11.707724
104.44524 -260.00659 -11.719019
103.09078 -260.18726 -12.148693
107.49609 -260.18304 -12.172009
107.70062 -260.15393 -12.158816
103.83985 -260.09378 -12.353278
103.94367 -260.18433 -12.721891
104.58166 -260.198 -12.76201
106.50097 -260.15881 -13.001074
116.61472 -279.88977 -8.6879234
117.55969 -279.99811 -9.4259233
104.63066 -279.87601 -14.937613
119.91039 -279.89032 -15.294842
115.8728 -279.77249 -8.2698288
115.19374 -279.68286 -8.7727385
105.03661 -279.78024 -13.963389
104.78569 -279.72345 -15.471621
106.18447 -279.69574 -15.862299
119.63031 -279.43024 -13.691031
106.13068 -279.55121 -15.783562
105.15465 -279.46738 -15.847737
114.3512 -279.28839 -6.3859348
118.82416 -279.22488 -6.8241458
114.77906 -279.27881 -7.1661291
119.89664 -279.21799 -7.1091242
115.5562 -279.36472 -7.9930372
116.26781 -279.25153 -7.8061619
118.28983 -279.31097 -7.809679
119.1015 -279.36487 -7.9575429
114.20821 -279.30902 -8.8687305
114.08994 -279.36618 -9.2068157
118.04521 -279.37134 -9.4249802
114.94118 -279.26556 -9.7336817
104.97018 -279.23376 -13.03974
103.1071 -279.36008 -14.242634
117.84912 -279.12927 -6.312819
115.61568 -279.05997 -6.4213829
118.27139 -279.14679 -6.7590232
117.44049 -279.12582 -6.994544
118.70355 -279.16348 -7.0746031
119.39657 -279.19247 -7.0528588
117.4426 -279.13672 -7.3528719
115.7664 -279.08051 -7.4956298
113.98565 -279.04803 -8.3295803
116.00673 -279.03024 -9.1417847
117.82602 -279.14819 -9.0469303
119.47568 -279.15775 -11.792582
