# .PCD v0.7 - Point Cloud Data file format
VERSION 0.7
FIELDS x y z
SIZE 4 4 4
TYPE F F F
COUNT 1 1 1
WIDTH 1529
HEIGHT 1
VIEWPOINT 0 0 0 1 0 0 0
POINTS 1529
DATA ascii
114.04565 -50.569 -4.9827099
111.27229 -50.428398 -5.7600489
115.32876 -50.46064 -6.0721078
116.12057 -50.554409 -6.1857309
104.67532 -50.535145 -6.2691159
109.0214 -50.551163 -6.2551899
109.28947 -50.583023 -6.2650218
115.83472 -50.53241 -6.2960672
109.35402 -50.553261 -6.4962502
110.83759 -50.509129 -6.5083151
117.66434 -50.483047 -6.4044518
116.84094 -50.545681 -6.63273
116.18981 -50.481041 -6.8899288
118.1837 -50.481628 -7.0075049
107.74067 -50.573566 -7.2566509
110.99757 -50.472084 -7.273211
115.34036 -50.440113 -7.6692629
115.8056 -50.531029 -7.6629529
117.25681 -50.486969 -7.7686548
113.41481 -50.493378 -7.8281341
117.26061 -50.48872 -8.5215788
110.02878 -50.444508 -9.1873293
113.74825 -50.504799 -9.7387257
109.67242 -50.509594 -10.876709
113.1061 -50.468254 -11.459894
110.89551 -50.456635 -11.859076
110.59924 -50.481934 -12.133771
113.9022 -50.43644 -12.230405
119.38989 -50.480732 -12.346814
119.69067 -50.411793 -12.323997
115.24545 -50.472771 -12.988386
115.87357 -50.585686 -12.905474
106.08129 -50.597095 -13.772465
110.11905 -50.547173 -13.904954
106.94878 -50.522747 -15.662565
119.47664 -50.508972 -19.151087
116.45663 -50.204338 1.625443
119.70492 -50.247555 1.660017
107.32392 -50.227257 1.477196
111.05743 -50.281731 1.474427
104.58949 -50.327179 -0.68918902
108.67165 -50.310768 -4.9526248
108.7455 -50.263641 -5.2800789
109.01591 -50.316601 -5.2479391
108.2467 -50.216446 -6.5342121
108.57011 -50.300991 -6.4404378
116.75684 -50.393234 -6.632916
116.03687 -50.366325 -6.949275
118.1144 -50.247082 -6.9747272
118.41766 -50.278389 -6.9210982
117.96125 -50.235565 -7.0048299
118.18825 -50.229168 -7.224422
117.12212 -50.354992 -7.6650672
108.78487 -50.323818 -7.894206
117.31013 -50.336494 -7.8174329
114.97735 -50.394772 -8.0905542
117.38127 -50.212101 -8.2548304
111.07771 -50.313614 -8.5044861
117.28167 -50.387318 -8.561224
110.31223 -50.234795 -8.8401957
114.61019 -50.258793 -9.310709
119.87395 -50.217854 -10.248727
113.63887 -50.217888 -10.456073
109.74489 -50.304405 -11.013731
110.67054 -50.356812 -11.931462
105.90051 -50.312141 -13.162031
115.50283 -50.398876 -13.177216
108.33969 -50.278927 -14.245775
108.5122 -50.336685 -14.20112
113.73677 -50.320839 -14.742185
118.88459 -50.25576 -14.912261
117.93103 -50.359997 -15.11233
115.1093 -50.312614 -17.497627
114.35363 -50.27626 -19.501602
108.57159 -50.192661 1.59215
119.24532 -50.148945 1.562501
105.1269 -50.117783 1.344897
104.7073 -50.046543 -0.26408499
104.89855 -50.103298 -0.67092597
104.56445 -50.170891 -3.3946919
114.57285 -50.176174 -6.787498
115.86683 -50.189762 -7.8154588
111.2213 -50.175285 -8.4318323
114.32892 -50.177391 -9.0691414
114.66072 -50.178883 -10.266535
119.81406 -50.166378 -10.539053
114.68449 -50.040871 -10.694872
112.55147 -50.146061 -11.115946
113.47769 -50.179176 -11.436818
119.01849 -50.03574 -12.542147
119.76845 -50.182907 -12.860983
117.96551 -50.057049 -13.749457
110.54739 -50.067284 -14.536224
118.72224 -50.19326 -14.895441
111.69163 -50.112869 -16.809183
115.86981 -49.908897 1.627188
108.89342 -49.969784 1.577029
109.49618 -49.814819 1.510239
115.27238 -49.823582 1.484242
104.60344 -49.855183 0.96768898
105.02206 -49.846375 -0.54407299
104.97462 -49.926868 -0.86535197
104.70288 -49.89579 -1.020705
104.69758 -49.82695 -2.1089301
105.00591 -49.871727 -2.1603551
104.90691 -49.915352 -2.287477
104.67029 -49.855339 -3.282666
104.69998 -49.803333 -3.4631431
104.87096 -49.926216 -5.2184782
108.03926 -49.85796 -5.581892
114.6611 -49.947094 -6.6903238
115.0416 -49.968632 -6.711586
115.31341 -49.937279 -6.6086411
112.48699 -49.81488 -7.1407881
118.24004 -49.922043 -7.009716
111.38971 -49.969727 -8.1698246
114.72302 -49.935982 -9.8295107
118.35387 -49.905998 -11.159371
119.01747 -49.956833 -12.331981
119.03551 -49.895191 -12.530369
117.40868 -49.833305 -13.116884
119.50293 -49.837906 -14.009202
108.36573 -49.820267 -14.342055
108.92122 -49.845905 -14.553726
114.21188 -49.96381 -15.144364
109.01192 -49.948009 -15.587561
110.97053 -49.976471 -16.934364
109.8847 -49.897537 -18.355034
112.23609 -49.723717 1.645956
118.97966 -49.722553 1.639906
106.60535 -49.754807 1.455403
107.59657 -49.705284 1.5094301
110.57199 -49.793274 1.539186
115.12791 -49.659927 1.519886
117.45176 -49.631721 1.588014
104.84149 -49.799286 -0.30500299
105.01666 -49.792694 -1.6478111
105.09099 -49.693264 -1.827553
105.0417 -49.785618 -2.2916181
104.60237 -49.769684 -3.0029161
104.62832 -49.757328 -3.7669711
104.91401 -49.753372 -4.543335
104.72411 -49.784302 -5.9939661
104.94887 -49.675369 -6.4619532
112.37067 -49.738976 -7.12324
117.7905 -49.716934 -7.3487811
110.92549 -49.649563 -7.6120381
117.53738 -49.682362 -7.7328911
117.39917 -49.752434 -8.3615446
109.44768 -49.695446 -9.0504065
105.98745 -49.773319 -9.2064619
113.87122 -49.638725 -9.9403648
114.08418 -49.65926 -9.9253035
114.96387 -49.730621 -10.618386
115.04816 -49.787567 -10.90905
117.96185 -49.649746 -11.498478
119.57671 -49.693336 -12.162798
119.11831 -49.756897 -12.8873
119.55117 -49.71225 -13.911022
117.64352 -49.711975 -14.038397
108.51186 -49.651947 -14.529736
114.26189 -49.693825 -16.325592
110.22895 -49.625885 -18.380659
110.10432 -49.43795 1.479609
113.69316 -49.523048 1.563964
117.14691 -49.572533 1.5443749
119.07181 -49.464943 1.572302
106.57869 -49.47768 1.394411
104.6908 -49.416054 -0.091081001
104.77428 -49.55336 -0.91439497
115.32566 -49.579273 -7.0081859
115.33501 -49.502922 -7.2584672
115.60077 -49.544258 -7.3591251
118.28566 -49.475838 -7.4416528
116.90489 -49.537201 -8.2145395
109.41689 -49.471272 -8.997921
113.83188 -49.491051 -9.956398
112.66602 -49.535809 -10.641748
113.21065 -49.52198 -10.822183
112.33595 -49.443821 -11.839147
115.73385 -49.568222 -12.942494
116.6321 -49.40744 -13.019857
108.50327 -49.547733 -14.950044
106.80884 -49.554123 -15.774569
106.53233 -49.562569 -17.306273
109.85814 -49.311813 1.6442519
112.33829 -49.314896 1.653089
106.61879 -49.333691 1.4676239
112.16833 -49.251423 1.589595
114.62952 -49.297455 1.552889
105.30349 -49.287151 1.350613
104.92581 -49.326672 -0.27550799
104.349 -49.204647 -0.70812601
104.3269 -49.256744 -0.89012098
104.93633 -49.314537 -1.8716429
105.34872 -49.313461 -2.278347
105.45647 -49.353966 -2.5247951
104.60135 -49.309738 -2.700181
108.07753 -49.326706 -6.0778308
105.44572 -49.331642 -6.537436
111.07379 -49.27512 -6.7955689
114.9585 -49.270264 -6.635046
117.80473 -49.265095 -6.9761419
114.69711 -49.306168 -7.213253
118.44943 -49.247078 -7.4894338
118.52341 -49.343002 -7.6163702
104.73589 -49.316574 -7.8734021
113.4241 -49.320473 -10.209641
118.0745 -49.217709 -12.159613
118.45382 -49.359509 -12.090338
106.74304 -49.315407 -13.186322
106.60623 -49.312565 -13.348294
119.24473 -49.232666 -16.028532
115.94484 -49.232193 -20.751356
116.31756 -49.026173 1.631079
118.20364 -49.101311 1.615369
118.95729 -49.094826 1.619221
104.95966 -49.100388 1.4639159
111.82465 -49.124779 1.499074
112.2674 -49.181507 1.5294811
114.66009 -49.019104 1.548232
106.81372 -49.126274 -0.018802
105.02468 -49.000214 -2.152914
108.61472 -49.029877 -2.8299479
104.80445 -49.123478 -3.922915
104.87811 -49.070129 -4.277873
104.91602 -49.020966 -5.2472792
107.94383 -49.048836 -5.9391408
108.07571 -49.031429 -5.9303942
115.26035 -49.031372 -5.8427219
118.40536 -49.094154 -7.369164
104.75874 -49.055828 -7.4989071
113.63326 -49.067593 -10.913976
118.30367 -49.090935 -12.461228
108.77832 -49.017166 -12.855345
106.29366 -49.123394 -13.542813
117.86648 -49.100586 -13.426186
108.70016 -49.120026 -14.761231
108.71481 -49.164505 -14.97559
111.58836 -49.157909 -14.968888
112.2569 -48.959198 1.613386
117.70159 -48.888203 1.611057
104.53125 -48.987076 1.553056
106.57104 -48.93084 1.43379
106.77706 -48.848061 1.4044009
106.82611 -48.992798 1.505849
109.3306 -48.875168 1.551164
116.84314 -48.956646 1.597561
104.52769 -48.975323 1.272863
106.51286 -48.884602 0.44006601
107.66246 -48.933044 -0.057098001
104.38002 -48.989799 -0.67238802
106.6792 -48.912903 -0.60234803
107.4296 -48.963245 -0.68572098
107.3201 -48.903873 -1.092985
107.29147 -48.851013 -1.257473
104.72089 -48.936665 -1.981892
105.0768 -48.969543 -2.346416
108.98897 -48.861465 -2.2484939
108.91743 -48.846058 -2.6257319
109.11339 -48.828468 -2.71029
109.44849 -48.967377 -2.7541721
109.12815 -48.810143 -2.860924
104.81554 -48.998825 -3.48262
108.58628 -48.858795 -4.2172151
110.16457 -48.802628 -5.142664
104.66187 -48.960583 -5.2688351
104.94224 -48.953438 -5.81285
108.85545 -48.803898 -6.5196438
119.49651 -48.972424 -6.6510968
119.42417 -48.847214 -6.8565159
113.94872 -48.803154 -7.287663
108.85281 -48.956299 -8.3207531
119.93469 -48.938744 -8.9418201
118.86635 -48.905457 -10.969254
119.20493 -48.92247 -11.507477
110.70749 -48.877308 -14.641483
113.64352 -48.826302 -17.194469
119.11034 -48.661118 1.6602089
104.62849 -48.709641 1.450166
107.86595 -48.779495 1.524036
109.31438 -48.74411 1.5435801
119.91235 -48.741856 1.578721
105.50563 -48.681011 1.3503079
108.14419 -48.680847 1.347046
108.5609 -48.684364 1.290244
109.02886 -48.602745 1.3988791
104.6086 -48.666485 1.028397
109.32357 -48.730148 0.93041903
110.74477 -48.708134 0.86429399
109.38287 -48.618912 0.68929499
110.91978 -48.622345 0.73519897
110.94104 -48.659035 0.54303002
111.03195 -48.60704 0.59776098
106.56995 -48.666451 0.165797
106.33548 -48.677402 -0.027794
104.97691 -48.622234 -0.58326602
107.41531 -48.683754 -0.71885198
107.39608 -48.753635 -0.98683399
107.42313 -48.671967 -0.95240903
104.94473 -48.691933 -1.155091
107.28734 -48.631752 -1.165344
106.88654 -48.713058 -1.212115
107.42525 -48.601349 -1.2603559
105.01563 -48.639362 -1.840991
108.7729 -48.701672 -2.088043
109.42741 -48.66375 -2.1706021
104.80513 -48.615654 -2.8058369
109.40791 -48.621559 -2.960005
109.31238 -48.725719 -3.0326581
108.55772 -48.661324 -4.0737438
104.95287 -48.686226 -4.5012531
108.60953 -48.734489 -4.43929
117.51649 -48.732903 -6.4864178
112.99339 -48.623634 -6.9093342
114.12001 -48.70005 -7.3297768
114.55882 -48.63028 -7.6283922
112.82422 -48.729248 -9.8403807
119.16768 -48.698734 -11.743647
109.96722 -48.67767 -12.781811
117.35882 -48.752419 -13.418795
108.22642 -48.656433 -15.139147
108.92761 -48.697746 -15.33552
113.69947 -48.789574 -16.981089
114.64969 -48.647369 -18.272715
110.61286 -48.707108 -18.530294
111.00867 -48.554264 1.628461
115.92535 -48.591797 1.680473
117.31999 -48.459496 1.6690691
119.75008 -48.409916 1.6666681
105.85607 -48.594128 1.461983
109.56332 -48.552361 1.440729
110.12458 -48.592876 1.495145
110.20959 -48.440723 1.506465
118.97843 -48.416969 1.466179
107.02843 -48.439926 1.251791
107.5267 -48.572113 1.343865
116.16166 -48.418213 1.31393
118.19655 -48.413124 1.391052
119.6487 -48.433228 1.241595
110.93442 -48.462486 1.05565
108.97823 -48.51939 0.96390301
109.32579 -48.502159 0.91578299
110.94696 -48.516331 0.929681
108.06642 -48.442341 0.71223098
117.36307 -48.423962 0.62644398
106.97264 -48.580971 0.263726
108.49016 -48.458878 0.353127
108.9752 -48.481255 0.336615
110.93296 -48.450645 0.19644
107.34384 -48.487141 -0.083058998
107.46029 -48.58165 -0.969226
104.78487 -48.459881 -1.0567141
108.91058 -48.489162 -1.879485
108.12 -48.500652 -2.638581
117.65339 -48.471329 -2.748596
117.48892 -48.484657 -3.111053
104.62035 -48.572258 -3.491334
109.29422 -48.509972 -4.6836529
105.1256 -48.574753 -4.9053001
108.50114 -48.405827 -5.9850812
109.34352 -48.590324 -6.1680698
105.02483 -48.556042 -6.490932
108.71169 -48.591064 -6.923018
104.76984 -48.485554 -8.1052303
108.35857 -48.409634 -8.5195656
118.53292 -48.571301 -10.748566
119.73682 -48.599167 -11.8065
117.4482 -48.460091 -12.134488
106.85589 -48.56369 -12.36317
110.17512 -48.38192 1.681451
114.745 -48.376389 1.669854
115.75366 -48.218048 1.638662
116.11473 -48.305763 1.645245
116.75974 -48.306595 1.6654969
117.73421 -48.26067 1.669367
118.10247 -48.283569 1.716506
118.67751 -48.280548 1.675181
119.36574 -48.353737 1.642315
119.4812 -48.321892 1.662093
119.82115 -48.290573 1.753242
112.88232 -48.267124 1.515784
114.64387 -48.287018 1.554292
115.97799 -48.304939 1.480854
116.29992 -48.279972 1.485628
117.39302 -48.260563 1.530534
117.77824 -48.313286 1.490911
117.82658 -48.289848 1.512524
118.92625 -48.355042 1.556787
119.47938 -48.361679 1.547645
119.77293 -48.358559 1.4948471
106.08192 -48.259235 1.3830349
111.00845 -48.357368 1.300269
118.19378 -48.390793 1.338714
118.48082 -48.397194 1.319564
106.66212 -48.201904 1.080842
106.91768 -48.234978 1.049415
113.28178 -48.21405 1.029332
116.29626 -48.206032 1.1153001
116.96237 -48.237549 1.036786
117.26311 -48.230854 1.0447
117.69402 -48.257984 1.032486
107.7746 -48.385643 0.96886301
108.10965 -48.359577 0.93180603
115.9485 -48.229542 0.957874
117.20939 -48.283512 0.88329899
119.03147 -48.346622 0.81968498
108.30419 -48.302494 0.703466
110.6945 -48.365921 0.76940399
117.32919 -48.293976 0.72398502
118.1832 -48.331856 0.70817798
118.9467 -48.343445 0.72254997
107.72832 -48.255554 0.44585001
107.98888 -48.238056 0.536614
114.25734 -48.229099 0.47819
115.23362 -48.252209 0.452326
109.52682 -48.267059 0.36650801
107.16142 -48.315559 0.18176299
107.76142 -48.328255 0.104015
107.38486 -48.30846 -0.136013
104.97717 -48.379433 -0.52809298
104.93039 -48.264729 -0.63845801
105.12639 -48.314301 -0.68759203
107.64294 -48.299969 -0.946477
105.10349 -48.310581 -1.020494
107.50868 -48.272659 -1.025646
105.0639 -48.306625 -1.514679
109.31493 -48.298615 -1.925555
109.63835 -48.295006 -2.118135
109.39305 -48.317471 -2.5932341
108.96036 -48.280334 -2.6501949
108.13282 -48.311562 -2.8238189
108.73353 -48.260567 -2.9578941
109.29946 -48.29977 -2.956877
109.02596 -48.327854 -3.2262261
108.61509 -48.236412 -3.9096279
108.71841 -48.299011 -4.0925002
104.8896 -48.308823 -4.6428089
105.02582 -48.231941 -4.8286238
105.01762 -48.311142 -5.1309061
109.40904 -48.344643 -6.3196082
109.67647 -48.226879 -6.3838391
105.49289 -48.279736 -6.526473
109.28646 -48.269859 -6.523006
108.90229 -48.215107 -7.067544
104.81564 -48.21463 -7.5316029
109.05421 -48.339455 -7.4361901
104.82284 -48.226273 -8.1737108
108.28075 -48.211842 -8.6142311
119.39969 -48.255531 -9.1737022
119.05138 -48.206577 -9.2901497
119.27801 -48.388565 -9.3166552
118.05487 -48.202255 -10.928013
118.4414 -48.207397 -11.685499
106.8553 -48.276909 -12.81587
119.87726 -48.270416 -13.032661
114.73039 -48.35144 -15.741241
109.41254 -48.365238 -16.023478
110.34831 -48.095192 1.6393369
112.78448 -48.077473 1.657851
113.44618 -48.190361 1.613649
114.17091 -48.157341 1.673283
115.13034 -48.15947 1.602578
109.72736 -48.070526 1.489784
111.31787 -48.077858 1.452098
111.53423 -48.075508 1.516956
111.85406 -48.097534 1.528406
113.47488 -48.145622 1.556617
113.62996 -48.145996 1.461947
113.85646 -48.128006 1.558592
114.261 -48.137215 1.541114
115.01366 -48.158432 1.5487469
115.46614 -48.198597 1.505116
111.09702 -48.069534 1.043133
111.68802 -48.113464 1.099676
113.23697 -48.001438 1.1108119
113.89378 -48.120468 1.048187
114.07964 -48.08477 1.090227
115.79669 -48.194965 1.058441
109.5102 -48.169151 0.985533
109.66949 -48.012524 0.63336903
114.65315 -48.17775 0.716353
114.98543 -48.188484 0.70119703
119.10764 -48.138317 0.74754399
111.26355 -48.074936 0.509552
113.49196 -48.088604 0.48225999
113.96475 -48.105995 0.46852499
114.3725 -48.093552 0.45680699
115.66722 -48.151428 0.495805
116.30715 -48.182365 0.56511003
104.88387 -48.055275 -0.15831099
104.73866 -48.174316 -0.248807
106.94382 -48.068111 -0.92430401
104.86247 -48.090981 -1.137026
105.16333 -48.150925 -1.201638
108.67556 -48.038231 -1.4464231
109.24994 -48.047356 -1.7589639
109.15037 -48.145737 -1.892783
109.29407 -48.122917 -1.96998
109.63783 -48.094887 -2.276674
109.09756 -48.012264 -2.4502461
109.39256 -48.176643 -2.7150741
109.41551 -48.185982 -2.6626041
109.35159 -48.063148 -3.9575529
108.71525 -48.124992 -4.3298712
109.11197 -48.186226 -4.2337518
104.66962 -48.091026 -4.6800952
108.5762 -48.106949 -4.9668298
104.87447 -48.151096 -5.3763151
115.30013 -48.190514 -5.8502278
108.54248 -48.136688 -6.072422
117.32128 -48.106419 -6.179348
117.18513 -48.083351 -6.2127118
104.7363 -48.048237 -6.6900468
118.51001 -48.105991 -6.622261
104.75055 -48.193501 -6.9372749
109.81088 -48.131287 -6.9324961
119.1506 -48.113281 -7.1700268
119.50223 -48.19249 -7.0357552
104.73166 -48.199432 -7.3269939
119.13797 -48.120377 -7.2419739
119.67577 -48.108452 -7.240922
108.62867 -48.026684 -8.6847258
108.5623 -48.072655 -8.9448032
117.97015 -48.106758 -9.8487453
119.7373 -48.000942 -10.332281
119.75554 -48.175831 -10.525932
118.22754 -48.198109 -11.3876
109.59277 -48.180626 -11.44601
118.99048 -48.108589 -12.267844
109.80299 -48.185219 -12.992319
106.35667 -48.144421 -13.023693
112.32408 -47.951492 1.633492
110.52338 -47.980186 1.470199
111.96284 -47.880619 1.487735
112.01131 -47.872982 1.521857
105.33337 -47.845123 1.381606
104.71999 -47.882492 1.054245
111.611 -47.987972 1.015399
111.93557 -47.890549 1.0298949
106.93728 -47.814129 0.88090003
109.80015 -47.968025 0.83956999
110.55937 -47.970764 0.94959301
111.98362 -47.852364 0.92467701
112.99957 -47.999691 0.90113401
104.86588 -47.852951 0.64085799
106.13403 -47.859474 0.61238098
109.86275 -47.911205 0.712421
113.83595 -47.974606 0.63590997
107.77477 -47.906357 0.45711401
111.08713 -47.913609 0.53785503
108.85873 -47.802113 0.233917
111.2991 -47.81945 0.37812999
108.33802 -47.859879 -0.545627
108.74043 -47.828735 -1.37726
104.7585 -47.867325 -1.40474
108.42407 -47.983067 -1.5717421
105.42582 -47.825638 -2.263602
109.70963 -47.930546 -2.272259
116.57056 -47.867798 -2.3384471
109.76299 -47.916565 -2.4549439
116.80994 -47.949482 -2.547858
109.67945 -47.890846 -2.7148819
116.27208 -47.809139 -2.6318359
116.67941 -47.96685 -2.723105
109.67378 -47.90633 -2.89065
109.8127 -47.827873 -2.8176601
117.4155 -47.84721 -3.1633091
108.6862 -47.886375 -3.4957869
104.70663 -47.918945 -4.5835481
109.2774 -47.867157 -4.5798211
109.11726 -47.994667 -4.6635442
117.57532 -47.805023 -4.6138482
108.60641 -47.93943 -4.8578062
108.71542 -47.894573 -5.0492392
110.45781 -47.873375 -5.713007
105.54459 -47.921776 -6.5016398
118.67535 -47.817181 -6.5794802
117.8308 -47.846375 -6.752686
118.24429 -47.923027 -6.7006979
118.38482 -47.84264 -6.8138599
108.6805 -47.981163 -7.3413548
104.83906 -47.880112 -7.4992208
119.49942 -47.930809 -7.433671
104.74712 -47.852325 -7.7772021
119.46066 -47.964375 -7.675272
108.58467 -47.959675 -8.5922298
118.77785 -47.929562 -9.1079712
118.15308 -47.924561 -10.257513
118.25168 -47.903854 -10.600611
119.29749 -47.893974 -10.806559
111.19562 -47.972443 -11.288709
111.31123 -47.820618 -11.719666
119.88671 -47.904518 -11.967611
119.87669 -47.915894 -12.077534
119.24544 -47.835197 -13.137478
119.28847 -47.916096 -13.367646
119.17261 -47.814217 -13.768456
104.96129 -47.840004 -14.831858
116.88824 -47.953987 -15.661734
109.51857 -47.896702 -16.10503
112.49807 -47.952667 -16.635117
112.6255 -47.722946 1.612446
104.74743 -47.758942 1.237165
112.00814 -47.772064 1.373101
118.6475 -47.757343 1.031354
109.66905 -47.777962 0.457836
107.71767 -47.610054 0.093932003
108.67836 -47.772057 0.094622001
108.89904 -47.705574 0.124174
107.65108 -47.686417 -0.163793
105.01933 -47.76469 -0.30515701
108.69968 -47.782028 -0.206644
108.96591 -47.63937 -0.456965
107.307 -47.786606 -0.72997999
108.60835 -47.690193 -0.96674401
108.881 -47.729267 -0.94223499
104.90886 -47.788933 -1.010958
108.59084 -47.731102 -1.006783
105.51077 -47.797432 -2.421159
104.60516 -47.771637 -2.7466371
109.81793 -47.778889 -2.64591
116.95657 -47.779682 -3.0962429
117.65447 -47.786777 -3.1138239
117.83759 -47.796265 -3.0526459
109.23424 -47.652351 -3.3671
104.85535 -47.749012 -3.4788499
108.90208 -47.684834 -3.756999
117.64819 -47.789749 -4.1277261
117.90831 -47.745285 -4.1538501
118.23555 -47.651554 -4.0698452
116.91759 -47.622776 -4.4939618
117.50858 -47.699638 -4.5179291
109.29277 -47.643147 -4.7280731
108.83614 -47.666382 -5.724607
110.16237 -47.649094 -5.8539672
110.02647 -47.760868 -6.2519259
118.75989 -47.782085 -6.3715372
118.87137 -47.794823 -6.6500158
104.7561 -47.770584 -6.9030652
118.12104 -47.77602 -6.8684568
118.68294 -47.780136 -6.9175181
118.89108 -47.708527 -6.8381639
119.49931 -47.683861 -14.258436
119.78195 -47.674332 -14.422843
112.40659 -47.663902 -18.220713
108.97427 -47.46225 0.26633
108.92758 -47.508331 -1.072037
108.93985 -47.533455 -1.483629
109.16872 -47.578846 -1.8824511
108.77208 -47.410416 -2.595417
108.8834 -47.533455 -2.668777
108.81908 -47.551857 -2.9873209
118.52936 -47.430344 -3.748208
109.08088 -47.458023 -3.9971941
117.93778 -47.548092 -3.971055
104.79121 -47.416832 -4.5092678
109.60598 -47.538124 -4.5127039
117.78306 -47.554047 -4.5067878
117.83551 -47.575539 -4.5667481
117.05637 -47.427746 -4.62712
117.49847 -47.507839 -4.694551
117.87764 -47.430229 -4.6718602
108.95131 -47.481407 -4.9790411
104.94678 -47.49675 -5.4951382
110.54152 -47.409668 -5.4849429
117.3669 -47.416683 -5.516923
104.70876 -47.421364 -6.1506701
118.04956 -47.48341 -6.2138691
117.82199 -47.422707 -7.1135802
119.58862 -47.580704 -7.1868548
104.73097 -47.437279 -7.4615798
104.77042 -47.46064 -8.1615028
109.42467 -47.449337 -11.873535
109.84106 -47.338577 1.6020809
109.88823 -47.370167 1.403513
119.3537 -47.31485 1.442625
104.68716 -47.339375 1.105583
106.68593 -47.39283 0.95462298
108.77069 -47.236107 0.239701
104.81128 -47.357361 -0.075965002
105.58191 -47.30061 -0.159383
108.75363 -47.291805 -0.26491499
108.93474 -47.365822 -0.36596701
104.65405 -47.304359 -0.66274601
104.83516 -47.230736 -0.62832099
104.82901 -47.260803 -1.231434
104.68839 -47.300369 -1.426329
104.65769 -47.312702 -4.5359149
116.67294 -47.244602 -4.955802
119.68048 -47.302181 -4.8761749
110.63702 -47.294083 -5.4450631
117.39705 -47.319138 -5.42173
104.9588 -47.33493 -6.5151329
117.68501 -47.294823 -6.648397
118.82225 -47.228043 -6.6941018
117.1094 -47.36776 -7.2528238
104.84758 -47.341965 -7.712729
119.5212 -47.36623 -7.7084451
113.16211 -47.234528 -10.107745
118.4025 -47.222576 -10.071643
104.21958 -47.332535 -10.782371
103.34473 -47.316154 -11.273853
109.71812 -47.396172 -11.953533
119.9622 -47.345119 -12.507119
109.18675 -47.281723 -15.552616
104.85753 -47.088249 0.28600201
117.07486 -47.055702 0.144673
117.03973 -47.051685 -0.047355
116.76661 -47.01963 -0.657085
116.9364 -47.073792 -1.5126359
117.16239 -47.073563 -4.1019092
118.50438 -47.104385 -4.1515741
119.88065 -47.110565 -4.7016988
117.28889 -47.112259 -4.9130139
116.76675 -47.119923 -5.0111632
119.84889 -47.053921 -5.0137668
117.4426 -47.068493 -5.3255901
110.28143 -47.153805 -5.9302192
117.6407 -47.001369 -5.9360452
117.43987 -47.124146 -6.27983
117.7545 -47.119499 -6.2461739
118.16548 -47.082603 -6.2452321
118.93056 -47.115822 -6.6464548
104.7556 -47.056297 -7.742702
112.59379 -47.009502 -9.5646372
112.07313 -47.111153 -9.6641846
118.3008 -47.142357 -9.9757214
118.28308 -47.153488 -10.167849
113.41187 -47.12442 -10.269388
118.43822 -47.157696 -10.35312
118.61 -47.106232 -10.727619
118.6955 -47.064754 -10.885139
103.51984 -47.007004 -11.104029
114.6487 -47.111038 -11.716332
112.66476 -47.14304 -11.88312
117.00786 -47.16494 -14.585472
111.61942 -47.086361 -17.407986
104.71276 -46.94112 1.242976
104.98708 -46.957779 1.025687
117.34335 -46.870773 0.85453701
116.94129 -46.855038 0.53312099
117.4411 -46.891567 0.22992
117.48777 -46.873264 0.16063701
117.22151 -46.94281 -0.34920499
117.49751 -46.847622 -0.294963
117.30073 -46.894524 -0.54975402
116.9039 -46.923447 -0.87138301
117.35364 -46.906406 -0.88671601
104.89524 -46.950062 -1.1204979
117.0963 -46.935112 -1.307969
104.74718 -46.993576 -1.433455
105.08083 -46.880035 -1.481288
117.2757 -46.908257 -1.514032
117.61243 -46.819504 -2.012666
105.1104 -46.811363 -2.2868221
105.53939 -46.928688 -2.3326721
117.11301 -46.942822 -2.2349629
117.48141 -46.855904 -2.318032
117.17607 -46.924545 -2.9696569
104.81544 -46.964901 -3.33617
117.61427 -46.905807 -3.2640679
117.52782 -46.890766 -3.5127299
117.28534 -46.981861 -3.75072
117.46849 -46.872833 -3.7003839
104.86458 -46.921707 -4.2583909
104.97697 -46.921326 -4.7764301
117.03444 -46.90377 -5.085144
117.46858 -46.930649 -5.0597181
104.88429 -46.916904 -5.3052831
117.19607 -46.972828 -5.291163
117.43302 -46.948174 -5.4825001
104.88758 -46.961403 -5.7657719
117.1312 -46.885971 -6.2950549
104.86609 -46.945511 -6.8687391
117.38034 -46.908829 -6.9421349
104.83685 -46.981606 -7.8328252
105.11798 -46.960182 -8.4694138
104.89755 -46.813564 -9.9528837
117.58002 -46.823296 -12.569414
109.02155 -46.762535 1.085549
104.73971 -46.634075 0.97591102
105.16088 -46.633007 0.712349
117.0208 -46.704323 0.51081401
117.53613 -46.729275 0.37263399
104.93243 -46.637321 -0.132844
105.1533 -46.772602 -0.30957699
117.60587 -46.64864 -0.27399901
117.53735 -46.702255 -0.65702498
117.52495 -46.762543 -0.873124
105.21075 -46.627487 -1.364436
105.25333 -46.679962 -1.477984
117.53723 -46.735062 -1.420683
105.16826 -46.791191 -1.827683
105.1597 -46.760372 -2.0870349
117.55682 -46.674385 -3.667655
104.72202 -46.603901 -4.029696
117.66171 -46.728348 -4.718174
104.89412 -46.642437 -4.8869691
104.79718 -46.771477 -5.0233111
104.8021 -46.764824 -6.393681
117.09556 -46.791279 -6.7301011
104.85782 -46.669331 -8.2673454
104.29767 -46.754921 -10.207328
104.42113 -46.707314 -10.436593
117.4474 -46.638313 -11.522463
112.48434 -46.682953 -12.109015
109.71903 -46.556232 1.514599
119.70306 -46.499687 1.503873
105.45285 -46.553513 1.0515831
117.68512 -46.535576 0.483172
117.48691 -46.540218 0.087962002
117.53142 -46.462166 -0.43604401
117.18673 -46.448284 -0.612477
117.49668 -46.492397 -1.069507
117.39854 -46.433823 -2.007982
105.60146 -46.491447 -2.339535
117.39261 -46.456528 -2.446435
117.53291 -46.4673 -2.895015
117.62077 -46.5308 -2.9180269
118.83323 -46.423901 -3.064857
104.83995 -46.498795 -3.3324759
104.72687 -46.524261 -3.5059259
118.83127 -46.492569 -3.744472
117.59007 -46.508408 -3.8001659
119.09502 -46.45079 -4.0172148
119.84365 -46.575363 -4.2408428
105.00273 -46.546288 -4.6196132
118.68452 -46.521564 -4.6484571
119.49706 -46.525455 -4.717381
119.70498 -46.412483 -5.0303812
118.96244 -46.525299 -5.3493962
119.02584 -46.550007 -5.8488808
104.89558 -46.575146 -6.600183
117.67219 -46.550407 -7.1715078
104.61011 -46.507912 -11.992599
104.13014 -46.445679 -12.283944
115.78163 -46.581718 -12.201963
112.81356 -46.576473 -12.776207
113.91444 -46.510223 -16.565266
117.80498 -46.202461 1.223598
117.11784 -46.297028 0.0073930002
117.14774 -46.313702 -0.39904901
117.2309 -46.34795 -0.49803999
117.3099 -46.359169 -0.86324102
117.19456 -46.362923 -1.002844
105.15976 -46.272846 -1.47894
117.37341 -46.391407 -2.422904
119.24603 -46.203636 -2.9440391
117.47121 -46.386379 -3.072835
118.37925 -46.340538 -3.2595601
119.14391 -46.272133 -3.248157
104.85467 -46.238983 -3.760047
117.94801 -46.248962 -4.3239841
118.52014 -46.336056 -5.5113049
118.64844 -46.290443 -5.6718931
105.57814 -46.225048 -6.549552
104.78705 -46.364754 -6.7765679
104.73316 -46.262447 -7.030426
104.75365 -46.29739 -7.8238082
105.09196 -46.239128 -8.4075994
116.74422 -46.228222 -8.8992205
116.87263 -46.220367 -8.8991318
115.92689 -46.276932 -9.0875788
115.61215 -46.388248 -9.4010849
116.54368 -46.377075 -10.200707
112.97728 -46.261108 -12.932838
111.31787 -46.06015 1.661383
119.65927 -46.181862 1.658672
109.42757 -46.177467 1.504086
117.15302 -46.165527 0.94286501
104.71655 -46.149246 -0.182115
105.25768 -46.140614 -0.54785001
104.63292 -46.145706 -0.68710703
118.28239 -46.164173 -3.7413781
119.30091 -46.117493 -4.016768
118.86643 -46.008949 -4.8293471
117.82529 -46.022007 -5.1374741
118.98032 -46.141205 -5.831677
118.35968 -46.022095 -7.706213
105.20837 -46.020782 -8.4238625
110.7882 -45.858959 1.676333
118.2923 -45.894966 1.45488
104.67758 -45.826958 0.26672801
105.22475 -45.850647 -0.63927698
105.17252 -45.876404 -1.52878
104.71648 -45.819408 -2.5299721
105.45334 -45.941948 -2.4758329
119.52168 -45.963661 -2.702971
119.36118 -45.975159 -3.050678
119.71619 -45.839745 -3.1425829
119.02719 -45.936661 -3.411236
104.87288 -45.858723 -3.804106
118.26591 -45.821636 -4.2857261
105.03589 -45.972618 -4.4679909
118.68477 -45.911606 -4.439239
118.88416 -45.970409 -4.5510221
119.4745 -45.852013 -4.4510698
104.65088 -45.852936 -4.6473479
118.41029 -45.81435 -5.4279141
119.30605 -45.815865 -5.4998579
105.12354 -45.92041 -5.9289012
105.60586 -45.83989 -6.554791
104.78656 -45.842289 -7.0329528
104.87148 -45.82048 -7.4614992
104.84885 -45.83025 -7.7981138
110.14613 -45.801884 -9.0427227
119.91981 -45.966564 -13.09869
112.23678 -45.939156 -17.578556
105.54169 -45.774643 0.78715497
105.12085 -45.608246 -1.506328
104.52385 -45.630638 -2.122854
104.75552 -45.760525 -3.2540519
105.05778 -45.788956 -5.3286142
104.92656 -45.774433 -8.1849213
115.07109 -45.766045 -12.171847
112.5367 -45.507027 1.6571341
109.62054 -45.597546 1.522247
117.82166 -45.473701 1.411867
104.71344 -45.443016 0.292155
105.10129 -45.454369 -0.89832598
105.57265 -45.473976 -2.4291179
104.79407 -45.513542 -4.0843682
117.71832 -45.58173 -4.9846282
104.79266 -45.478916 -7.1446881
112.5714 -45.41666 -10.976642
114.58755 -45.440018 -12.215076
117.2261 -45.590729 -14.038398
110.98396 -45.329453 1.6800981
111.7744 -45.315666 1.625307
106.31783 -45.304382 1.1716141
105.08757 -45.365307 -0.19273201
105.27682 -45.385235 -0.73806
105.21992 -45.356873 -1.063666
105.21869 -45.273567 -1.606634
104.71468 -45.34021 -2.5323579
104.91427 -45.379765 -4.7296128
105.22784 -45.275349 -5.417336
105.1629 -45.276886 -6.357923
105.23129 -45.365425 -6.2844782
117.66557 -45.315971 -6.2615209
118.19041 -45.340473 -6.3271418
115.41263 -45.309418 -6.7115812
105.15196 -45.348137 -8.5591145
104.5003 -45.35548 -12.782521
111.0098 -45.086533 1.5672849
104.78156 -45.124836 1.3904639
104.78863 -45.13139 0.98975003
104.68959 -45.057625 0.61386597
105.73572 -45.074268 0.68737501
105.63469 -45.151001 -2.4278669
116.73761 -45.04364 -3.792423
104.86503 -45.092659 -3.814604
104.73138 -45.084339 -4.6304822
105.20039 -45.057526 -6.4615221
104.85637 -45.010384 -7.3458629
117.45994 -45.035503 -7.739572
117.69199 -45.019043 -7.763773
104.91205 -45.052761 -8.1867447
119.08826 -45.156425 -8.1461143
104.86765 -45.071907 -8.4076996
113.0625 -45.020344 -10.994964
103.81446 -45.103218 -12.074291
107.48029 -45.000584 -14.009542
117.14339 -45.012894 -14.342424
105.92243 -44.859341 0.97326899
105.01361 -44.933929 -0.13263801
104.87669 -44.872475 -1.578373
104.85175 -44.926491 -3.114691
117.12454 -44.917343 -3.0850739
117.45965 -44.917282 -3.1198249
104.69522 -44.872349 -3.7500529
117.47219 -44.820793 -3.6183691
117.01759 -44.927155 -5.2797012
105.11313 -44.966965 -6.3507509
119.58434 -44.857822 -6.2929392
118.55488 -44.992374 -6.882628
104.89319 -44.919125 -7.786562
111.41029 -44.809891 -8.5112648
118.63953 -44.934105 -8.5246849
113.29196 -44.885178 -10.986553
105.29796 -44.875969 -12.098942
115.40887 -44.816517 -12.725704
107.39589 -44.816132 -13.912939
114.54717 -44.891083 -13.981294
105.03534 -44.652649 0.47362599
104.87299 -44.62299 0.22577199
104.71748 -44.605247 -0.240624
104.87169 -44.737511 -0.94532198
105.1259 -44.720806 -1.09218
105.22258 -44.660309 -1.12457
104.89261 -44.793491 -2.4939101
117.40575 -44.673321 -3.1368401
104.7281 -44.750076 -3.5528281
116.64618 -44.687332 -3.8441861
117.22482 -44.783218 -4.2738438
104.9855 -44.648113 -4.66921
105.11922 -44.603016 -4.8276792
117.82546 -44.73082 -4.9861722
105.22257 -44.77581 -5.88868
105.21355 -44.715538 -6.3272958
118.1852 -44.798912 -6.3899622
115.10334 -44.71093 -6.5996861
118.73576 -44.723419 -6.8003631
104.96063 -44.604065 -8.1336327
118.67679 -44.788902 -8.6019936
113.71297 -44.604958 -12.926249
116.7886 -44.601967 -16.06842
109.33383 -44.436741 1.542017
106.98284 -44.451309 1.060303
105.31309 -44.576122 0.473676
116.96989 -44.434586 -3.089345
117.34686 -44.520412 -5.3512058
115.25609 -44.415615 -5.4247451
115.68552 -44.524723 -6.0781932
117.05923 -44.491249 -6.1078582
117.28008 -44.540016 -6.1291161
115.3736 -44.575554 -6.5479498
109.82517 -44.497318 -7.1705198
104.87171 -44.438454 -7.440589
104.87334 -44.556641 -7.7213678
119.05855 -44.569435 -8.5061398
119.30183 -44.559067 -8.6329803
103.67554 -44.444366 -9.9751778
113.04262 -44.469704 -10.558948
105.4465 -44.576271 -12.12569
116.89801 -44.552788 -14.543253
114.23332 -44.285458 1.638945
118.6263 -44.293488 1.685218
104.73882 -44.355587 -3.4700401
104.92071 -44.346344 -3.9339781
115.08113 -44.212227 -5.1005111
117.32213 -44.208752 -6.26229
109.99693 -44.370914 -7.434279
104.92091 -44.300514 -7.766603
119.48214 -44.302689 -8.7434368
113.10745 -44.365204 -10.67377
114.05861 -44.382996 -11.475957
117.39279 -44.351517 -12.687725
107.24422 -44.248505 -13.752516
106.54695 -44.378937 -14.025343
117.32078 -44.30349 -14.434049
114.44919 -44.126556 1.601912
107.4529 -44.197155 1.507131
104.95082 -44.083378 0.36085701
104.73764 -44.196632 -0.600021
104.89359 -44.03476 -1.46064
116.17809 -44.10289 -5.750514
104.94809 -44.079758 -6.2329879
119.49715 -44.196285 -8.8962049
103.89571 -44.183483 -9.5323095
103.28669 -44.030426 -10.345806
117.11356 -43.916527 1.650193
106.53622 -43.92144 0.70576
104.73465 -43.895981 0.30030999
105.39912 -43.934235 0.38672501
104.90231 -43.832691 -1.592503
105.0045 -43.806576 -1.47593
104.76034 -43.980774 -2.622823
104.79128 -43.972443 -4.2440472
116.81011 -43.936577 -4.9050469
118.19617 -43.89624 -5.7369452
104.92378 -43.956371 -7.0884171
115.39085 -43.843037 -7.016829
110.70058 -43.992683 -7.2507648
117.02973 -43.909 -7.735085
110.06311 -43.910221 -12.724797
105.14541 -43.904057 -13.1425
109.71753 -43.634117 1.680668
118.60318 -43.634674 1.722724
105.219 -43.769753 -0.8312
105.35917 -43.67474 -1.344959
105.25636 -43.780914 -1.407964
104.91613 -43.785248 -1.782083
104.89634 -43.721626 -3.3884139
104.95656 -43.766647 -3.7366941
115.01772 -43.630516 -3.9489269
105.271 -43.656281 -4.91991
105.24116 -43.692005 -5.3014789
118.07079 -43.757084 -5.4380202
104.96501 -43.717594 -5.7368321
105.06659 -43.710564 -6.1894622
116.85491 -43.729206 -6.4043589
117.3826 -43.603355 -7.6915488
105.00041 -43.722878 -7.9261532
105.08418 -43.450893 -0.230573
105.0752 -43.589569 -0.67033398
105.27562 -43.542629 -0.670376
104.70681 -43.42379 -0.88459802
105.09801 -43.520782 -0.957986
105.09233 -43.438927 -1.864534
105.23959 -43.423164 -1.90978
104.95034 -43.4594 -2.9756911
104.9397 -43.401287 -3.4185679
115.2444 -43.52021 -3.9237931
105.28699 -43.495239 -4.5883851
105.08885 -43.418655 -4.6145091
105.02924 -43.491589 -4.9504418
115.06664 -43.410259 -5.0942869
105.00562 -43.585701 -5.6647172
110.74306 -43.425133 -6.962029
104.96003 -43.496906 -7.116919
110.25426 -43.48431 -7.292551
118.29586 -43.521763 -14.807245
104.88973 -43.314316 0.469017
104.9039 -43.200905 -1.441741
111.7505 -43.222404 -5.1182151
112.45974 -43.218479 -5.1601601
112.29794 -43.312271 -5.2385411
112.4528 -43.224518 -5.2365351
105.23744 -43.383781 -6.1551461
105.3103 -43.33157 -6.2399321
110.20017 -43.300747 -6.266706
114.85641 -43.205616 -6.209774
105.02063 -43.365173 -7.9646721
105.25214 -43.208725 -8.3177176
116.73624 -43.287056 -10.914459
110.2373 -43.227325 -12.759364
108.11832 -43.063374 1.577595
104.88232 -43.061073 0.92001998
104.75943 -43.059189 0.30353001
105.12387 -43.065628 -0.62916499
105.13083 -43.126354 -1.458955
105.15506 -43.083458 -1.753844
105.25605 -43.160767 -1.784568
105.13698 -43.132034 -4.5917211
115.22028 -43.005089 -4.9439368
112.49266 -43.148659 -5.1141419
114.69191 -43.050732 -5.14958
110.18057 -43.041138 -6.2955518
111.76904 -43.076393 -6.2160501
111.39189 -43.173378 -6.593163
118.03876 -43.160095 -7.7691822
103.07614 -43.132061 -9.7572851
104.22243 -43.091301 -10.433847
109.96332 -43.173485 -12.201159
112.30948 -43.156296 -13.100227
109.71451 -42.90337 1.757008
110.55821 -42.998131 1.664781
106.40731 -42.933388 1.509927
107.93501 -42.891354 1.568535
119.35841 -42.930958 1.407173
105.14102 -42.88966 -0.102547
104.69685 -42.904373 -0.26166901
105.32962 -42.937073 -2.083533
115.59091 -42.835201 -4.4742289
112.27826 -42.934341 -5.142158
114.81678 -42.985615 -5.2433949
105.3121 -42.977818 -5.716733
109.78795 -42.804749 -5.9583611
117.15273 -42.838547 -6.5886631
110.13824 -42.972355 -6.614573
117.67899 -42.80172 -6.7717299
110.50116 -42.894268 -7.042511
116.70183 -42.883141 -11.275563
116.83301 -42.890743 -11.490951
116.65306 -42.885719 -11.722849
116.87642 -42.822266 -11.756914
115.88979 -42.859314 -12.124837
111.45694 -42.922085 -12.603174
110.13364 -42.62685 1.662755
107.88471 -42.682579 1.597864
109.63538 -42.754967 1.508473
105.33257 -42.613811 0.024929
105.29001 -42.646416 -0.111699
105.29277 -42.619461 -1.514123
104.95575 -42.705032 -2.597836
115.94434 -42.713638 -4.0476289
105.28303 -42.675167 -4.5370479
105.28667 -42.740799 -4.9939728
115.06609 -42.728714 -4.96277
115.19164 -42.746971 -5.7934909
112.08412 -42.753395 -6.105042
110.76598 -42.618187 -6.4872169
109.76284 -42.749699 -6.6837978
111.90887 -42.775398 -6.885386
110.61565 -42.776203 -8.3090782
117.55176 -42.635288 -10.763786
105.26704 -42.578194 -1.796028
115.49283 -42.563847 -3.1369441
115.51722 -42.543705 -3.2128789
104.95057 -42.484116 -3.4344511
118.31615 -42.554577 -3.7550659
118.50035 -42.551693 -3.824743
105.27063 -42.556976 -4.4908271
111.46544 -42.4161 -5.1988192
114.92595 -42.466072 -6.2183599
111.8628 -42.467583 -6.4523292
104.98806 -42.567738 -6.9230938
111.32113 -42.482307 -7.0124621
111.01588 -42.562653 -7.2198362
107.46233 -42.415718 -9.5699368
116.71294 -42.433037 -11.3583
112.53053 -42.474091 -12.181532
112.85081 -42.538532 -12.605124
114.05757 -42.464592 -17.786596
105.27983 -42.323166 0.012342
105.34172 -42.238419 -0.36607099
105.27716 -42.2897 -0.721093
105.11758 -42.209526 -1.352482
104.95929 -42.234009 -2.369143
105.03725 -42.228592 -3.7993
117.39072 -42.27055 -3.7948489
105.088 -42.244957 -4.0825
105.28676 -42.330154 -4.2089782
117.78268 -42.208679 -5.0368152
105.2987 -42.208813 -5.3718448
114.83525 -42.281544 -5.2444601
105.08556 -42.2206 -5.7302318
109.89107 -42.209854 -5.8213139
105.31551 -42.25766 -6.1982589
105.69786 -42.265041 -6.3378472
118.03274 -42.326599 -6.2210579
110.29541 -42.309792 -6.6707239
110.62003 -42.376858 -6.7121119
115.16591 -42.295914 -6.6441731
110.23623 -42.352177 -6.860384
110.42484 -42.317539 -7.433816
118.93192 -42.105682 1.411864
105.35421 -42.142921 -0.41788399
105.04403 -42.17688 -1.054103
105.06248 -42.090858 -1.836427
104.99954 -42.181671 -3.4386051
117.2835 -42.146667 -4.077621
105.34447 -42.141003 -4.239902
105.03444 -42.180408 -4.9191198
116.93445 -42.01162 -5.2754879
105.27516 -42.129753 -5.5183439
114.29598 -42.18029 -5.5431151
117.20369 -42.057457 -5.4484019
104.91351 -42.124565 -5.6399059
114.9086 -42.162758 -5.6715379
115.49233 -42.095062 -5.8604441
116.06811 -42.077209 -5.9936352
105.05305 -42.101063 -6.1235752
112.15627 -42.002304 -6.3710418
111.67962 -42.184494 -6.598897
112.06229 -42.050182 -6.4459181
109.7869 -42.111824 -6.811976
111.69988 -42.097618 -6.866714
119.79789 -42.108185 -11.697332
116.63371 -42.106819 -12.429208
109.80859 -41.956444 1.5913889
105.03207 -41.895012 0.23914
104.79424 -41.959793 -0.27359399
104.73273 -41.860355 -0.58843899
119.85376 -41.884865 -1.6701289
104.99683 -41.849503 -3.4375689
105.04489 -41.860352 -3.816153
118.16887 -41.896683 -4.6486311
118.57953 -41.928738 -4.6255159
105.4399 -41.867104 -5.6985102
105.35849 -41.819077 -5.8487492
110.10024 -41.886497 -5.89605
105.32011 -41.991768 -6.19028
110.56077 -41.820545 -6.046988
109.83663 -41.855209 -6.5973072
111.35719 -41.80262 -6.5962181
105.05188 -41.808739 -6.630034
110.75817 -41.990574 -11.924426
104.87685 -41.769352 1.5324399
108.31644 -41.620903 1.526611
105.064 -41.670094 -0.60699499
105.30594 -41.714436 -1.275273
115.48056 -41.61171 -3.386189
117.2343 -41.603775 -3.4585731
105.04463 -41.695938 -4.2922101
116.31911 -41.677998 -4.2360892
105.02142 -41.691383 -4.4686742
116.26385 -41.672779 -4.5915561
118.88801 -41.793861 -4.5775971
117.76897 -41.680401 -4.9328408
117.07527 -41.746674 -5.0797181
118.23258 -41.775196 -5.1272111
111.91098 -41.747116 -5.3535719
105.07906 -41.6381 -6.2637501
110.32044 -41.661919 -6.2207751
114.17371 -41.757385 -10.774998
105.8653 -41.51757 1.660704
108.76457 -41.4203 1.437198
118.20314 -41.470177 0.852072
118.33672 -41.467602 0.49765101
104.98891 -41.416294 0.31488499
117.9037 -41.487133 0.15737399
117.98805 -41.415466 -0.097854003
118.07364 -41.530167 -0.32598299
104.96249 -41.453796 -0.54158902
105.34641 -41.468639 -0.87786299
118.0838 -41.439308 -1.137287
104.95891 -41.434761 -2.2777491
104.99847 -41.429325 -4.0199509
105.29732 -41.538284 -4.299027
105.04807 -41.449921 -4.5036812
116.57704 -41.434795 -4.585804
117.72414 -41.534729 -4.96207
118.18063 -41.53088 -4.964138
105.26637 -41.452423 -5.788197
115.0998 -41.527603 -5.9369612
105.11296 -41.480835 -7.239615
110.98617 -41.522652 -8.2431412
119.8457 -41.531364 -8.9112492
115.65814 -41.324043 1.701548
106.33881 -41.206951 0.82829601
105.50754 -41.342178 0.734806
106.14787 -41.367279 0.64648098
117.98558 -41.374001 0.64283299
118.47292 -41.209862 0.78216398
105.2113 -41.371063 0.138671
118.44753 -41.304588 -0.073812999
118.14944 -41.292484 -0.24891099
118.27872 -41.364456 -0.33602601
118.11809 -41.357338 -0.50914901
104.98862 -41.261726 -0.730344
118.21548 -41.346657 -0.73505902
118.44279 -41.294838 -0.655855
118.12392 -41.349396 -1.117879
118.26843 -41.287056 -1.071666
118.42934 -41.239067 -1.054957
118.4131 -41.236393 -1.356213
118.44314 -41.225098 -1.817415
118.46092 -41.225346 -2.092834
117.9482 -41.240822 -2.272063
118.24945 -41.203186 -2.820065
110.93475 -41.245728 -3.5353539
112.19427 -41.236725 -3.562978
115.67009 -41.390823 -3.479687
110.73071 -41.342503 -4.665339
112.69743 -41.256538 -4.6521182
110.73465 -41.388718 -4.8514152
111.52709 -41.23077 -4.9666181
111.61273 -41.323013 -4.9691968
117.01462 -41.338566 -5.0379
112.57401 -41.207741 -5.2643638
117.79726 -41.356758 -5.3568721
112.26196 -41.39962 -5.56985
117.50372 -41.328686 -5.6273551
115.5817 -41.213348 -5.9193778
109.51794 -41.243553 -6.4121141
112.17719 -41.392548 -6.539793
111.46967 -41.328133 -6.6019902
111.92146 -41.279724 -6.6121931
110.64111 -41.267075 -8.0575495
115.9291 -41.247143 -10.027617
118.20489 -41.397614 -11.160823
108.9767 -41.013771 1.7010649
118.31447 -41.098572 0.95586199
118.46338 -41.139187 0.63392198
118.48517 -41.153996 0.59331298
105.21967 -41.044411 -0.077454999
118.49846 -41.12973 -0.125338
104.73874 -41.16988 -0.36423501
118.52528 -41.099831 -0.688272
118.47388 -41.171043 -1.106427
118.48596 -41.072578 -1.4265029
118.26894 -41.17366 -1.694553
105.05354 -41.04351 -2.0734451
118.29893 -41.113258 -2.0900171
105.74799 -41.094666 -2.397563
117.02906 -41.056366 -2.3642881
118.27634 -41.084305 -2.844388
118.43689 -41.032173 -2.908596
117.4454 -41.016369 -3.387084
110.94957 -41.13269 -3.438446
116.74085 -41.162998 -3.4270091
118.023 -41.173698 -3.421268
117.293 -41.009235 -4.1397872
112.80614 -41.104599 -4.3968282
112.89402 -41.035107 -4.5215802
116.94493 -41.027245 -4.4774499
110.75684 -41.00338 -4.7294049
116.17889 -41.126583 -4.6196222
111.49742 -41.173759 -4.9117951
117.0577 -41.006596 -4.9895682
111.12108 -41.024361 -5.317276
119.68958 -41.053913 -5.2074461
112.25993 -41.176304 -5.4093142
116.95022 -41.059731 -5.698082
111.92527 -41.045624 -6.0267668
112.25735 -41.009705 -6.2482581
105.71678 -41.004299 -6.4168239
112.46249 -41.017502 -6.4553251
112.06209 -41.168198 -7.002244
111.06976 -41.0494 -7.9343138
110.00075 -41.063911 -8.426733
117.97618 -41.092987 -8.5576925
117.96507 -41.115715 -9.7404518
116.70654 -41.057724 -10.934565
118.709 -41.030827 -15.875638
118.41996 -40.972912 1.259221
118.44678 -40.967873 1.0856121
105.01828 -40.887913 -0.29136699
105.26578 -40.855453 -0.54772103
118.48494 -40.929569 -0.62935197
118.4994 -40.983963 -1.116618
104.98615 -40.943661 -1.480095
105.24918 -40.870663 -1.4452389
118.53479 -40.883614 -1.857381
117.50991 -40.830925 -2.1593709
117.69606 -40.830498 -2.162513
118.51337 -40.942757 -2.0586851
118.5179 -40.997765 -2.329634
105.69351 -40.805412 -2.415215
118.53127 -40.975147 -2.6663401
114.45491 -40.993744 -3.1519411
118.45435 -40.946869 -3.0573649
111.86665 -40.906395 -3.268697
118.55173 -40.810295 -3.51524
112.42781 -40.926365 -3.7385559
118.19511 -40.943779 -3.858274
118.27061 -40.883209 -4.1101308
115.78677 -40.915207 -4.3997989
114.99306 -40.98642 -4.6196852
115.35275 -40.92075 -4.7505002
118.60311 -40.933666 -4.6404791
115.3679 -40.890354 -4.9223232
111.52241 -40.949463 -5.2719202
110.44174 -40.94474 -5.8725648
112.45078 -40.939911 -6.2244778
105.76703 -40.965065 -6.438602
112.26467 -40.997124 -6.4764452
105.09935 -40.977943 -6.6396198
109.37424 -40.916676 -7.034059
118.19257 -40.925293 -10.115329
118.14124 -40.833466 -10.534037
118.68304 -40.845955 -10.625251
118.90088 -40.855896 -10.920464
118.75847 -40.895851 -11.035271
118.61343 -40.960396 -11.30905
105.3354 -40.657375 -0.143427
105.38153 -40.727032 -0.36191601
105.10956 -40.701172 -0.42145801
105.38924 -40.740303 -0.40736601
118.26582 -40.759663 -0.55895197
105.10028 -40.72237 -0.69541597
105.43295 -40.664345 -1.229008
105.32829 -40.663956 -1.901161
118.33987 -40.693073 -2.2421739
105.07547 -40.680248 -2.9817469
114.9306 -40.659199 -3.0613799
118.66366 -40.617088 -3.830493
105.29761 -40.676044 -4.1868682
112.3371 -40.616699 -4.6662831
112.49332 -40.624176 -4.6754971
111.34879 -40.780495 -4.9304981
105.18697 -40.698784 -5.4983559
111.39841 -40.670883 -5.4021001
105.43547 -40.610741 -5.9885459
109.74403 -40.772861 -6.340291
112.12973 -40.67466 -6.2800961
109.46827 -40.753437 -7.0264678
111.35962 -40.728821 -8.6235981
118.10095 -40.78091 -10.333227
117.97766 -40.763832 -10.709838
108.60756 -40.430832 1.6985281
108.59718 -40.59584 1.5832
105.14546 -40.505474 -0.37692499
105.4267 -40.591972 -0.411773
104.7677 -40.494175 -0.98036897
105.39211 -40.449776 -0.91084403
105.2831 -40.542191 -1.691156
105.81165 -40.550205 -2.1684101
105.7524 -40.4855 -2.339015
104.92321 -40.525604 -2.6786909
118.35285 -40.56295 -3.3244851
117.13685 -40.416428 -3.480268
105.34626 -40.562424 -3.930218
114.58029 -40.55632 -3.8901939
111.21593 -40.404846 -4.1056032
105.31055 -40.456818 -4.3051929
105.41925 -40.532806 -4.366683
115.48299 -40.567719 -4.3837271
105.36678 -40.514526 -5.5683699
105.42168 -40.566792 -5.9457312
105.15021 -40.570587 -6.0728812
105.437 -40.466095 -6.2661119
105.22807 -40.456017 -6.4129219
104.98132 -40.420044 -6.7801819
109.57467 -40.57362 -6.6276102
119.64007 -40.338676 1.441962
118.69264 -40.307552 0.71992999
104.75085 -40.39735 0.57922101
105.32654 -40.27581 -1.701769
105.43397 -40.237553 -2.0531931
105.77835 -40.201374 -2.0812709
114.91978 -40.398666 -3.159745
111.82384 -40.225189 -3.2737989
118.48458 -40.22797 -3.3909111
119.038 -40.227184 -3.2848139
116.46262 -40.239811 -3.7774701
117.35994 -40.30381 -3.690644
114.61829 -40.288567 -3.860409
119.40266 -40.255852 -3.962919
111.22283 -40.238693 -4.1421561
112.34473 -40.238144 -4.0079432
119.37093 -40.283157 -4.0191488
116.52423 -40.201496 -4.4260602
105.41779 -40.290951 -4.7614779
110.48751 -40.218048 -5.0512271
112.24867 -40.256332 -5.096169
105.37239 -40.360161 -6.0962782
110.6832 -40.276833 -6.3041091
108.62261 -40.390053 -6.5055099
111.85627 -40.395538 -6.4397459
111.38566 -40.249969 -7.0118842
110.49092 -40.291809 -7.351018
105.14233 -40.283409 -7.9473991
110.30136 -40.200066 -7.9777012
108.95459 -40.330128 -8.0147495
118.30947 -40.270805 -9.5913582
115.06342 -40.27433 -9.797574
118.35745 -40.226288 -12.176195
118.78284 -40.247368 -14.554652
118.83701 -40.265881 -14.83099
105.60491 -40.0443 1.5761369
107.86487 -40.059422 1.5859751
104.97775 -40.143559 1.305176
118.23109 -40.049629 1.274609
118.10112 -40.05011 1.113921
118.72461 -40.121277 1.106387
104.94609 -40.149269 0.91867203
105.10376 -40.199074 0.244914
105.23955 -40.093075 -1.893622
111.38817 -40.139595 -3.173408
112.11922 -40.105438 -3.2399011
110.67148 -40.082436 -3.723438
118.67924 -40.167114 -3.677341
105.24147 -40.118496 -3.9065599
105.13575 -40.122803 -4.1090078
116.38164 -40.113602 -4.435729
