# .PCD v0.7 - Point Cloud Data file format
VERSION 0.7
FIELDS x y z
SIZE 4 4 4
TYPE F F F
COUNT 1 1 1
WIDTH 1524
HEIGHT 1
VIEWPOINT 0 0 0 1 0 0 0
POINTS 1524
DATA ascii
118.47031 -97.839088 0.245845
112.93379 -97.955696 0.188501
103.28708 -97.83149 -0.094341002
102.99394 -97.818634 -0.282637
103.06339 -97.90892 -0.30432701
102.96138 -97.820541 -1.2535239
106.81697 -97.838905 -2.7890241
106.73145 -97.865036 -3.064688
106.50433 -97.903755 -3.347455
106.50743 -97.967438 -3.684417
102.57817 -97.997787 -4.0228271
106.35103 -97.826324 -4.1279531
102.64367 -97.875198 -5.442698
102.94631 -97.927155 -6.0720129
103.09483 -97.827187 -6.34375
101.23494 -97.902328 -6.497714
103.12326 -97.813675 -6.7239151
103.40012 -97.841835 -8.0280981
102.67689 -97.836456 -8.5615139
102.68384 -97.826263 -9.3966599
102.70154 -97.894775 -9.9718618
114.21677 -97.79895 0.208149
103.03194 -97.74704 -0.33000699
102.98448 -97.75119 -0.95863199
106.07471 -97.644005 -1.393615
103.13431 -97.731216 -2.144665
103.22237 -97.764557 -2.0685151
105.89227 -97.662308 -2.8509841
106.80913 -97.722679 -2.9671299
103.09983 -97.725716 -3.018419
106.72758 -97.718628 -3.092783
106.16542 -97.640312 -3.3328669
106.56258 -97.764046 -3.598325
103.34581 -97.79081 -3.7407279
103.10068 -97.746857 -5.1625419
103.08624 -97.740158 -5.3226938
103.06268 -97.725922 -5.4806108
101.14234 -97.652428 -6.275476
103.05901 -97.680344 -6.3002281
103.23405 -97.739151 -6.2066431
103.12512 -97.714508 -7.3727102
102.34384 -97.787384 -7.8758688
102.68016 -97.787117 -7.8840752
103.06079 -97.658676 -8.5306759
102.88162 -97.666046 -9.0388317
103.24148 -97.677032 -9.0564585
103.18727 -97.631973 -9.2693634
102.68124 -97.694595 -9.5397177
113.74238 -97.411377 0.21842501
116.91536 -97.517845 0.21682701
118.93993 -97.490128 0.26267499
103.03867 -97.48967 0.088523
103.01864 -97.417511 -1.2441241
106.05986 -97.454361 -1.836247
102.98402 -97.514664 -2.3134601
105.91776 -97.463768 -2.495003
106.50437 -97.527039 -2.763797
105.39956 -97.539932 -2.8840411
106.26253 -97.497208 -2.8982761
106.48594 -97.582703 -2.9313719
106.66353 -97.491592 -3.14202
103.24062 -97.404991 -3.4278619
106.51137 -97.494835 -3.526603
105.90887 -97.494781 -3.8651741
103.31788 -97.478455 -4.10849
103.32921 -97.516716 -5.4562178
103.104 -97.449432 -5.893887
101.12947 -97.435471 -6.3323689
103.08868 -97.483627 -6.3016591
101.14274 -97.411644 -6.9462419
103.13341 -97.581902 -8.7371206
103.16811 -97.5924 -8.9321222
106.26586 -97.248093 0.37068799
103.2394 -97.245514 -0.727889
103.07009 -97.344444 -1.683041
105.94106 -97.361069 -2.2828059
105.87041 -97.344986 -2.9772539
106.01958 -97.38726 -3.2630529
103.4202 -97.367744 -3.772908
101.13229 -97.272018 -6.4583158
103.23999 -97.378677 -6.5007691
100.18652 -97.304108 -6.730485
100.49178 -97.313194 -6.6770082
103.11873 -97.369484 -7.4567451
103.11786 -97.349564 -7.8398819
103.39104 -97.361237 -8.0857286
103.14901 -97.265167 -8.2312775
103.12698 -97.076904 0.29902101
102.77798 -97.10463 -0.75453699
103.12451 -97.048302 -0.87240201
103.07903 -97.051819 -1.097096
103.22149 -97.187599 -1.399865
103.20589 -97.144836 -1.452384
103.08517 -97.013878 -2.472548
103.09476 -97.046776 -5.3382878
103.1467 -97.088745 -5.8979559
101.46436 -97.001358 -6.14499
103.18143 -97.085098 -6.2933378
100.6311 -97.063171 -6.541996
101.0078 -97.003975 -6.5839591
103.18257 -97.084229 -6.4960198
100.04315 -97.194122 -7.5837908
103.16694 -97.051926 -8.7019033
103.05557 -96.910255 0.305103
106.22818 -96.957886 0.35285899
107.41559 -96.844803 0.32739499
113.08632 -96.930679 0.287893
119.82433 -96.978172 0.297463
103.08743 -96.920631 -0.051082
102.95964 -96.840393 -0.54268402
103.08651 -96.943573 -0.49695301
103.05875 -96.854752 -2.3168049
103.10287 -96.891571 -4.13098
103.11177 -96.93441 -5.1162648
103.11845 -96.933868 -5.3014021
102.71591 -96.810577 -5.4803581
103.11883 -96.877892 -5.502594
102.82061 -96.868011 -5.6065421
103.14498 -96.842987 -6.1231399
103.13071 -96.933884 -6.302052
102.78397 -96.849846 -6.6444411
103.20605 -96.986122 -7.0121121
102.55728 -96.846649 -7.3686709
103.22095 -96.944305 -7.3015652
103.17345 -96.810532 -7.6426311
103.16356 -96.814102 -8.5788641
106.87605 -96.703003 0.37771299
107.82486 -96.644608 0.357342
102.68573 -96.603699 0.046856001
102.82324 -96.702187 -0.60792798
102.86717 -96.739792 -1.4392509
102.67957 -96.786156 -4.1783819
102.88725 -96.703674 -6.0003719
103.16305 -96.747299 -6.476068
103.18031 -96.737762 -7.327517
103.40094 -96.641861 -7.9302812
103.142 -96.70694 -8.5705013
103.1263 -96.685104 -9.2533092
103.22116 -96.651321 -9.3066969
103.65453 -96.519203 0.43935499
104.14026 -96.464478 0.41699201
104.26772 -96.527908 0.414884
117.0406 -96.484734 0.30744499
102.70644 -96.512749 -1.055004
102.69952 -96.549057 -4.6235032
102.69198 -96.524834 -5.1024361
102.62358 -96.478081 -5.7545829
103.05083 -96.582649 -9.0457287
103.099 -96.560036 -9.8104696
103.45012 -96.23307 0.43406799
104.50977 -96.203186 0.33023301
115.01465 -96.257858 0.26600501
119.45003 -96.276146 0.31763399
102.7282 -96.264839 0.129691
102.69394 -96.220947 -0.040451001
102.67661 -96.260132 -1.290478
102.38963 -96.236282 -2.2812181
102.43944 -96.283127 -3.002372
102.39252 -96.248199 -3.39955
103.43489 -96.214615 -3.7097321
102.39968 -96.300423 -7.2394109
105.14398 -96.080383 0.41378799
108.00177 -96.068367 0.41152099
102.7384 -96.139397 0.27265099
107.93892 -96.107094 0.37489301
110.90982 -96.137657 0.305691
117.34204 -96.161407 0.30236399
118.22106 -96.185043 0.31559899
102.69785 -96.081116 -0.092214003
102.67548 -96.136703 -0.283645
102.91393 -96.054184 -0.350164
102.95858 -96.180145 -1.113214
102.43244 -96.173843 -3.300663
102.7089 -96.193344 -3.8344591
103.16942 -96.147118 -3.8722401
102.6945 -96.164673 -4.5912461
102.44569 -96.194366 -6.991684
102.77434 -96.175095 -8.3577423
102.86546 -96.161743 -8.2509069
102.77404 -96.072372 -9.4118538
103.03242 -96.193062 -9.9172258
106.32601 -95.950638 0.37463
102.85989 -95.840904 -0.56831199
102.8753 -95.849243 -1.125868
102.72936 -95.844292 -5.3236289
102.81709 -95.939507 -5.7813172
102.45583 -95.899696 -7.3681841
102.57677 -95.853333 -7.8356471
102.88175 -95.653961 0.20604999
109.48651 -95.729095 0.32182899
116.21802 -95.777161 0.29816899
104.31506 -95.667847 0.16808701
104.25912 -95.629051 -0.64757401
103.74728 -95.648285 -1.039192
102.429 -95.700882 -2.2900989
102.77228 -95.782478 -8.2523165
103.06786 -95.796112 -9.9581509
107.85867 -95.468895 0.43517601
106.60442 -95.518387 0.32876
110.72986 -95.505981 0.290295
117.82253 -95.493561 0.34991199
119.80986 -95.464317 0.366202
102.34581 -95.43895 -1.8981071
105.84589 -95.437965 -2.9369869
102.44817 -95.401733 -3.059624
102.72846 -95.440758 -4.5975862
102.42226 -95.515076 -6.040493
103.46191 -95.531456 -7.9367628
109.35834 -95.252853 0.36017099
114.63962 -95.388161 0.296262
117.07074 -95.398651 0.32530001
105.44593 -95.237183 -1.564886
105.76874 -95.298111 -1.989149
105.09712 -95.21917 -2.243439
105.72409 -95.258469 -2.2543941
106.23101 -95.33931 -2.610584
103.4942 -95.272446 -3.5610659
105.89388 -95.249084 -3.6982911
102.84537 -95.274445 -5.653111
102.786 -95.381302 -8.2796173
102.78233 -95.363777 -8.9689074
106.60834 -95.053894 0.42028299
107.05267 -95.187248 0.444866
107.28868 -95.137138 0.415896
107.50536 -95.182487 0.44784099
108.19623 -95.096527 0.449994
116.1095 -95.033813 0.33218399
117.40361 -95.005806 0.37641001
119.332 -95.11097 0.37980601
102.99867 -95.064003 -0.29039201
102.75653 -95.046989 -0.55304098
104.14412 -95.109512 -0.65894502
102.86439 -95.058884 -0.91806
104.4753 -95.159836 -0.97776097
105.07413 -95.089294 -1.5077879
106.01994 -95.006378 -1.533118
105.71391 -95.013229 -1.756629
102.36019 -95.060371 -1.869839
106.94951 -95.023048 -1.969232
105.31379 -95.083038 -3.044291
107.29909 -95.014458 -3.0708721
105.96262 -95.054367 -3.343209
105.53862 -95.051628 -3.898922
105.65644 -95.040878 -3.922991
102.36162 -95.115341 -6.431046
102.47227 -95.159203 -6.4733858
102.4841 -95.127014 -7.705842
102.77477 -95.163689 -8.7024937
102.77349 -95.100082 -9.7503319
118.67909 -94.908234 0.41731501
104.36992 -94.811638 0.212854
106.90369 -94.879898 0.36047199
109.82033 -94.932419 0.377992
110.29053 -94.99659 0.35182601
118.16565 -94.965179 0.34368801
118.98798 -94.901031 0.37359101
102.68161 -94.993637 0.107599
102.71563 -94.981277 -0.131478
104.46346 -94.925629 -0.217851
107.0027 -94.86544 -1.408119
102.65123 -94.907646 -1.7856899
106.09885 -94.977737 -1.821836
106.84456 -94.841782 -2.8841801
107.01527 -94.838531 -3.1825759
106.93283 -94.889633 -3.38623
105.31205 -94.951843 -3.4699309
106.73186 -94.86628 -3.6292429
107.05479 -94.869934 -3.7087641
102.84012 -94.953453 -5.6540499
102.54056 -94.957443 -7.0206022
103.10521 -94.979462 -10.003867
105.84279 -94.625618 0.216226
110.62065 -94.727783 0.31968099
105.81335 -94.77153 0.186949
104.02214 -94.682388 -0.40115699
102.85501 -94.76519 -0.982418
106.86336 -94.666451 -1.282324
106.04222 -94.728264 -1.553839
106.89222 -94.710754 -1.593578
106.71487 -94.735596 -1.786541
106.89752 -94.724487 -1.671132
106.89417 -94.693604 -1.877542
106.78078 -94.759354 -2.376178
102.73734 -94.605675 -2.561769
102.75578 -94.643059 -3.0005071
106.71504 -94.697197 -3.0408859
107.00363 -94.618172 -3.209537
103.51026 -94.617691 -3.5723071
104.62117 -94.765724 -3.532954
106.16727 -94.705589 -3.4873559
105.74251 -94.750137 -3.765255
102.79979 -94.625465 -3.9371829
106.70461 -94.61692 -4.0699968
102.80735 -94.675499 -4.2934341
102.57567 -94.700821 -7.1365981
102.82809 -94.642876 -7.0711699
102.87856 -94.737244 -7.2362709
102.70157 -94.714104 -7.4608078
102.84522 -94.623466 -8.9257278
103.0444 -94.661308 -9.760561
107.47902 -94.538292 0.44450399
117.50183 -94.594406 0.40685001
119.26271 -94.593155 0.42137101
109.76097 -94.477402 0.31526101
109.87764 -94.502525 0.365926
113.57692 -94.430611 0.36252201
117.71561 -94.546974 0.34748501
118.99417 -94.578461 0.37108701
102.71099 -94.567474 -0.14911801
103.80441 -94.533905 -0.85753101
105.94503 -94.439682 -1.7843879
102.75105 -94.590668 -1.83675
102.96251 -94.570511 -2.1574371
106.89668 -94.511002 -3.034914
107.07648 -94.558174 -3.1257451
106.52736 -94.599594 -3.463799
106.86086 -94.532913 -3.462337
106.31238 -94.580772 -3.9727671
102.77481 -94.553932 -4.2320528
102.93481 -94.538643 -9.7379971
105.80969 -94.21582 0.20914
108.87531 -94.263832 0.29543799
110.16599 -94.309547 0.37215501
112.26351 -94.335068 0.31518799
119.5045 -94.260391 0.38033301
103.97173 -94.239761 -0.32657799
106.76131 -94.303482 -1.264056
106.06728 -94.314804 -1.52766
106.68214 -94.319382 -1.480829
106.89819 -94.232147 -1.440861
106.05302 -94.36969 -2.2638731
106.78871 -94.33403 -2.424659
102.75683 -94.220848 -2.654356
106.73834 -94.391296 -3.169817
106.9363 -94.294319 -3.3517251
107.03558 -94.279427 -3.2402279
103.46561 -94.298988 -3.5916531
106.9214 -94.317978 -3.673367
102.79658 -94.220352 -3.825129
106.66985 -94.248238 -3.8387811
105.92661 -94.371574 -4.1060419
105.95546 -94.218307 -4.2587719
105.29869 -94.308746 -4.5514989
106.04964 -94.329414 -4.4358959
102.74485 -94.243446 -5.123157
105.41591 -94.211044 -5.000185
101.04116 -94.247475 -6.2438388
101.47357 -94.247314 -6.3056631
102.72264 -94.39666 -6.3451571
102.80655 -94.238029 -6.2567391
101.01137 -94.231659 -6.5738511
101.6395 -94.263947 -6.61024
102.79182 -94.338623 -6.6837821
102.853 -94.21888 -8.9677792
106.89914 -94.118324 0.40309399
116.51395 -94.140358 0.400249
103.84595 -94.031242 0.365536
106.0845 -94.044548 0.27286199
109.14249 -94.185287 0.28045601
112.73195 -94.175018 0.327508
102.73667 -94.178909 0.140524
105.56525 -94.105469 -0.146328
105.60368 -94.032753 -0.86849499
105.48185 -94.067398 -1.045663
105.11594 -94.015594 -1.21673
106.73499 -94.115013 -1.29409
102.7504 -94.19313 -1.4658411
106.77417 -94.158516 -2.1439281
107.22606 -94.018372 -2.2711501
107.01849 -94.121918 -2.488024
107.21638 -94.193939 -2.5209301
107.01573 -94.108734 -2.7181089
106.7684 -94.109459 -2.868274
107.05296 -94.011719 -2.9796829
102.76408 -94.107277 -3.3965819
107.06123 -94.168167 -3.452188
106.37231 -94.091606 -3.7768459
107.0908 -94.150406 -3.6326859
105.59392 -94.151955 -5.008904
102.8044 -94.129761 -5.3331742
102.85492 -94.141205 -8.556839
102.8415 -94.171875 -9.4001503
102.86507 -94.107224 -9.8219299
103.12987 -94.105148 -9.8900814
106.5372 -93.903847 0.429919
102.81503 -93.804695 0.25746101
106.97623 -93.951416 0.36258301
109.2719 -93.949738 0.339151
116.73524 -93.809845 0.39460701
118.19614 -93.864388 0.375009
102.83748 -93.824493 -0.105399
105.07418 -93.935211 -0.57591403
103.8472 -93.815094 -1.059106
106.69902 -93.91153 -1.191177
105.55794 -93.91745 -1.210644
107.03947 -93.891312 -1.926605
102.75681 -93.920319 -2.1738701
106.79295 -93.814964 -2.056365
106.72672 -93.912613 -2.7414761
106.97421 -93.899765 -2.933701
102.77022 -93.878677 -3.035815
106.95591 -93.85743 -3.0184591
106.94544 -93.994293 -3.536891
102.81572 -93.865852 -3.899441
106.19939 -93.882256 -3.827909
105.66684 -93.892754 -4.4476948
102.77325 -93.811127 -6.6254172
102.83517 -93.886826 -7.0713429
103.47855 -93.833939 -7.774827
107.66541 -93.778358 0.444731
109.83653 -93.670822 0.42850399
109.8203 -93.74115 0.36680001
110.19701 -93.739983 0.35442901
114.1258 -93.73436 0.343492
115.87827 -93.666679 0.35031
117.79569 -93.702484 0.38863099
119.86681 -93.763557 0.375119
103.93788 -93.671196 -0.69680703
104.21912 -93.767365 -0.87062502
106.72733 -93.705017 -1.943905
107.10571 -93.783066 -2.2537651
106.7795 -93.653687 -2.4269969
106.97067 -93.737411 -3.650707
105.82593 -93.671768 -4.2189131
102.82529 -93.712921 -4.5958762
102.84325 -93.785637 -5.7867889
102.84642 -93.750793 -6.0504599
102.87187 -93.725677 -6.5338278
102.85882 -93.7388 -6.747623
102.87357 -93.693542 -8.5648346
109.31836 -93.531723 0.44682401
119.39763 -93.413834 0.44036901
102.77721 -93.428246 0.244417
104.35158 -93.526855 0.27303401
106.13148 -93.500458 0.31978399
109.20077 -93.552155 0.39798701
113.339 -93.432152 0.35732499
114.18436 -93.462486 0.349861
104.36353 -93.566559 0.16763701
104.96588 -93.526024 0.14489201
103.66898 -93.463318 -0.249569
104.41359 -93.515137 -0.27083501
104.40416 -93.522095 -0.46509501
106.98737 -93.495087 -1.153658
102.39516 -93.588631 -1.745404
106.8914 -93.417023 -1.836719
106.04251 -93.431061 -2.100822
106.91987 -93.579453 -2.9308269
107.01463 -93.585609 -3.198348
106.91613 -93.419266 -3.2734721
107.03114 -93.574509 -3.399251
102.82839 -93.42292 -3.9140921
106.09687 -93.422394 -4.0868559
102.79111 -93.468361 -5.4105968
102.44339 -93.56543 -6.32126
102.47955 -93.504181 -6.7196732
102.48665 -93.457214 -7.2964268
102.5186 -93.466721 -7.6791339
104.83105 -93.350677 0.49682
105.48618 -93.223457 0.45418999
106.79606 -93.283699 0.48335999
107.46758 -93.380875 0.48657399
108.8309 -93.266808 0.46584001
111.85185 -93.256874 0.350492
114.73425 -93.37838 0.34637201
102.7998 -93.229614 -1.163244
107.02108 -93.374199 -1.187304
106.9283 -93.319794 -1.4950891
105.98309 -93.328171 -1.703593
106.37836 -93.326904 -1.717116
106.52534 -93.262436 -1.728776
105.73688 -93.362442 -2.2649889
106.39601 -93.255211 -2.5804639
103.6141 -93.307732 -7.8542271
114.58258 -93.045097 0.378957
116.61784 -93.182678 0.364081
118.152 -93.024635 0.378126
102.9749 -93.074059 -0.42869899
104.16339 -93.126785 -0.684829
104.47481 -93.061081 -0.934147
106.91615 -93.160751 -1.315563
102.39187 -93.149635 -1.75653
106.16915 -93.025932 -1.6762
106.59937 -93.176735 -1.63782
106.69397 -93.149887 -1.657388
106.5406 -93.122124 -2.2766719
106.86227 -93.139198 -2.890841
106.34003 -93.004593 -3.51035
102.85107 -93.003975 -3.77773
106.23366 -93.034142 -3.7881291
105.91028 -93.073624 -4.1627488
102.75529 -93.101471 -5.0915408
102.95818 -93.049957 -5.6679091
103.56999 -93.126297 -7.7636828
102.92052 -93.085297 -8.3073273
114.38721 -92.959251 0.428325
115.72414 -92.835495 0.319368
117.83452 -92.871567 0.381504
118.51067 -92.979782 0.38920501
102.83486 -92.948273 -0.304948
102.66311 -92.982422 -1.386237
106.52153 -92.986931 -2.414881
106.6301 -92.894104 -2.9297791
106.36488 -92.97506 -3.040199
102.67277 -92.998833 -3.556603
106.16198 -92.879402 -3.978905
106.07244 -92.904869 -4.1200132
106.05383 -92.927094 -4.231832
102.62376 -92.854408 -6.3016782
102.90086 -92.99308 -9.0930767
102.89075 -92.959061 -9.6766376
105.59206 -92.748405 0.58608401
106.55165 -92.636566 0.52784199
109.7324 -92.736946 0.43687499
116.98126 -92.643036 0.423435
119.43652 -92.631737 0.39579701
104.15076 -92.713936 -0.469796
106.2438 -92.753845 -2.2714131
106.2123 -92.717712 -2.4687321
105.75661 -92.632507 -2.9126501
106.42387 -92.754616 -2.8861561
106.49142 -92.72049 -3.516197
102.85677 -92.654144 -4.294137
102.91486 -92.651779 -5.701427
102.58739 -92.729538 -5.8489819
102.57117 -92.693909 -6.687901
106.49751 -92.414482 0.481038
108.96975 -92.526016 0.43782499
117.40077 -92.481812 0.43216899
115.37027 -92.562675 0.354615
117.32224 -92.561356 0.37443501
118.60639 -92.577217 0.39790201
104.42454 -92.471756 -0.121732
104.28207 -92.559166 -0.54242998
104.59381 -92.467682 -2.963089
105.68248 -92.446838 -3.0261681
105.91036 -92.507095 -3.0091071
106.4457 -92.543877 -3.5556829
102.84882 -92.534592 -3.8519959
105.99205 -92.412949 -3.9662459
106.11652 -92.558479 -4.1524448
102.84 -92.575256 -4.6749668
102.65221 -92.507576 -6.8799572
103.29862 -92.498413 -8.0544376
102.91776 -92.543121 -8.6616173
102.90884 -92.524811 -9.4554052
103.20107 -92.574554 -9.9174299
104.74682 -92.357773 0.51890898
105.80935 -92.256966 0.47488701
118.91634 -92.273895 0.44670501
109.8168 -92.255821 0.37854299
111.00789 -92.25061 0.36391601
118.523 -92.325478 0.39981699
104.40384 -92.360138 -0.272587
104.1545 -92.32663 -0.645859
105.71017 -92.209793 -0.83225298
105.54678 -92.287506 -2.937614
103.5694 -92.288322 -3.500829
106.24846 -92.372543 -3.47451
103.56712 -92.203781 -7.8443179
106.20152 -92.146507 0.49292701
110.31841 -92.184212 0.42989501
115.72613 -92.092361 0.43824899
118.24321 -92.160149 0.43052399
106.26286 -92.030975 0.30714199
111.43315 -92.137932 0.375301
102.84359 -92.17955 0.19910499
104.48711 -92.113297 -1.765219
106.53105 -92.078392 -1.674934
104.51685 -92.160446 -2.5983241
106.50315 -92.038177 -2.8772559
102.58076 -92.12925 -3.3579929
102.6075 -92.091553 -6.8699131
106.60339 -91.89489 0.436813
107.63711 -91.869408 0.539244
116.06036 -91.843834 0.44121799
118.12137 -91.902962 0.465556
102.88965 -91.825882 0.24823099
106.21429 -91.990128 0.350366
114.2327 -91.899841 0.33976001
115.6801 -91.879829 0.39783999
107.35888 -91.805176 -0.20801599
107.46448 -91.804901 -0.517003
106.41461 -91.958916 -1.182343
107.67923 -91.835022 -1.522432
106.40083 -91.886414 -1.615258
106.43678 -91.860527 -2.2458169
106.44005 -91.800476 -2.4426761
106.31597 -91.831238 -2.606714
107.78132 -91.994843 -3.5439439
107.67462 -91.84523 -3.9523399
102.73154 -91.940315 -6.918582
102.539 -91.989914 -7.5249901
102.96187 -91.845825 -8.2907906
110.20569 -91.657913 0.42628199
103.90288 -91.637375 0.29958501
107.61258 -91.696228 0.328787
118.4551 -91.615105 0.38671201
105.13052 -91.633148 0.15172701
106.95434 -91.699982 -0.137483
104.16529 -91.679848 -0.36208099
107.50238 -91.711395 -0.35823101
107.61021 -91.712219 -0.26104
103.86211 -91.618347 -0.409105
104.21027 -91.628418 -0.49232399
107.06306 -91.754089 -0.51735502
107.36198 -91.731049 -0.52182603
105.00963 -91.630226 -0.61846501
105.8297 -91.680679 -0.73820299
106.14694 -91.757896 -0.70807701
106.98495 -91.714058 -0.73758602
107.28398 -91.725555 -0.74495697
104.61128 -91.665703 -0.98407698
107.2036 -91.712692 -0.81017798
105.76235 -91.724968 -1.034022
104.67822 -91.628571 -1.440491
105.47902 -91.619522 -1.453952
105.86914 -91.630386 -1.5330091
106.27872 -91.673698 -1.4538029
107.36371 -91.724251 -1.683036
100.60582 -91.702873 -1.889629
106.32975 -91.784302 -1.876662
106.66584 -91.634521 -1.8735009
100.5665 -91.721359 -2.0784719
101.30472 -91.75264 -2.109822
105.91326 -91.625076 -2.1992371
106.26163 -91.702835 -2.1467819
107.21796 -91.704689 -2.1039619
107.51566 -91.696114 -2.07899
107.61615 -91.681259 -2.1674161
104.94413 -91.629204 -2.3405349
107.32407 -91.628464 -2.560647
107.60583 -91.66684 -2.674134
107.3704 -91.676277 -2.939575
107.53307 -91.644638 -2.881283
107.10371 -91.627975 -3.081815
107.12319 -91.626472 -3.3968101
107.51462 -91.704697 -3.2821031
106.49062 -91.630829 -3.418468
106.4547 -91.666191 -3.797085
105.30498 -91.603653 -3.8125579
106.18013 -91.678413 -3.827419
107.11165 -91.631081 -3.825433
107.30696 -91.641022 -3.8619151
106.38165 -91.770531 -4.1799502
107.00539 -91.612129 -4.1093249
102.87282 -91.74324 -4.266799
105.8509 -91.616753 -4.2178922
106.36771 -91.703285 -4.24052
106.44226 -91.707359 -4.2943559
107.49031 -91.632172 -4.4616771
106.4324 -91.767868 -4.9416361
107.50288 -91.627884 -4.9065719
106.30589 -91.756584 -5.1370649
107.34338 -91.627502 -5.3904548
106.43857 -91.697128 -5.6913981
102.67921 -91.744141 -5.8411522
107.30054 -91.6194 -5.8104711
102.7813 -91.734009 -6.1351738
100.57391 -91.639183 -6.3848691
100.23126 -91.659912 -6.507071
106.36858 -91.700569 -6.9097552
102.58363 -91.730637 -7.3223138
102.84766 -91.677666 -7.2678642
106.34332 -91.618195 -7.311204
106.48247 -91.637421 -7.3261828
106.44591 -91.61937 -7.9287128
106.47554 -91.629364 -8.1008263
106.43285 -91.630295 -8.9197264
100.64194 -91.639175 -10.73415
110.19153 -91.469147 0.41847801
110.45299 -91.451035 0.434706
112.92349 -91.590485 0.424034
119.31289 -91.420357 0.464746
107.57187 -91.430038 0.12987
103.11552 -91.562958 -0.271669
107.54433 -91.464073 -0.344179
107.5965 -91.523392 -0.55614102
105.82413 -91.598282 -1.195078
107.56021 -91.508041 -1.053562
107.57755 -91.477585 -1.369609
105.03989 -91.585495 -1.519412
104.78828 -91.591461 -1.725103
105.19141 -91.599976 -1.7337559
106.02585 -91.576904 -1.950121
107.54883 -91.4189 -1.9085
105.8014 -91.59211 -2.119673
105.4511 -91.589966 -2.211937
105.91605 -91.552055 -2.5141029
107.68088 -91.594864 -2.62516
107.45338 -91.517853 -3.011626
103.46043 -91.485512 -3.3200099
106.04374 -91.57621 -3.3269911
105.91745 -91.570404 -3.440613
106.88458 -91.573776 -3.4324279
105.73987 -91.545609 -3.8274109
107.31467 -91.566734 -3.8407879
107.62166 -91.579384 -3.940146
105.92889 -91.508499 -4.1546659
107.00885 -91.542053 -4.162622
107.32173 -91.562897 -4.0101638
107.55622 -91.44838 -4.0979729
103.4606 -91.501389 -4.260457
105.50684 -91.478165 -4.3373132
107.56865 -91.50383 -4.316401
103.74419 -91.436935 -4.6136041
106.10506 -91.527084 -4.696867
106.65832 -91.505501 -4.6697631
104.60765 -91.444778 -4.9794989
105.40958 -91.506691 -4.9360151
106.23392 -91.581673 -4.9320798
107.39412 -91.556519 -4.9557219
107.53812 -91.530182 -4.8420839
102.96466 -91.423805 -5.1785879
103.0033 -91.455696 -5.1829958
103.26089 -91.45826 -5.1618829
103.54433 -91.504326 -5.1925211
105.07278 -91.500168 -5.0852962
105.94282 -91.556824 -5.0654192
107.63882 -91.570808 -5.0779119
102.89946 -91.496414 -5.327455
104.68871 -91.466301 -5.3205919
105.36569 -91.487183 -5.4618602
103.89732 -91.42498 -5.689281
105.82988 -91.478188 -5.8580999
106.2843 -91.591942 -5.8422332
107.58973 -91.534805 -5.8122749
106.54408 -91.482742 -6.1503758
107.11278 -91.522034 -6.1501031
107.48482 -91.534149 -6.1642809
103.56192 -91.440063 -6.4412179
107.44258 -91.535057 -6.5631952
107.64154 -91.569809 -7.0746889
103.03922 -91.414963 -7.300971
107.37996 -91.498016 -7.6428761
107.43172 -91.482231 -7.757833
107.45705 -91.530075 -7.9213772
107.6593 -91.471947 -7.8454061
106.48735 -91.576149 -8.0851002
107.3665 -91.433372 -8.1252508
105.94384 -91.425293 -8.2332211
106.52402 -91.523705 -8.317524
107.39789 -91.477135 -8.2143259
103.03825 -91.40448 -8.5388708
106.14671 -91.449402 -8.5840359
107.11356 -91.475372 -8.5021
106.44726 -91.573181 -8.685154
107.50604 -91.465622 -8.7363739
107.31853 -91.506081 -8.9074621
106.47533 -91.585953 -9.0946951
107.4203 -91.459778 -9.0521564
107.35851 -91.465111 -9.3355408
106.29225 -91.443817 -9.5395641
107.67199 -91.451691 -9.4597187
103.06623 -91.569275 -9.7169533
106.51766 -91.462189 -11.907912
116.67474 -91.393089 0.43758699
119.82156 -91.396805 0.49353299
107.1188 -91.26506 0.098741002
107.61053 -91.359383 -0.274239
106.85323 -91.222366 -0.429759
107.62447 -91.355316 -0.97398198
107.60188 -91.352386 -2.3110371
107.62584 -91.362747 -2.848736
107.63369 -91.369415 -3.6123569
103.49635 -91.386932 -5.744256
104.21082 -91.383499 -5.8475862
107.6076 -91.220032 -6.1149569
103.5643 -91.383652 -6.2899971
103.77796 -91.3908 -6.7356558
107.69221 -91.296005 -6.6498361
102.98271 -91.374893 -6.8940368
103.80403 -91.366142 -6.9990602
103.03947 -91.356102 -7.174078
102.99948 -91.349747 -7.3527532
103.24326 -91.378548 -7.2840028
107.67591 -91.361794 -7.4385281
103.47896 -91.338158 -7.9446449
104.57539 -91.381165 -7.9131999
107.59396 -91.266525 -8.1527653
103.34799 -91.291229 -8.3299913
103.35487 -91.318375 -8.515564
105.03434 -91.36467 -8.6010437
107.66243 -91.327736 -8.9569254
103.32987 -91.277786 -9.0605221
103.66359 -91.31884 -9.1740665
104.70152 -91.345558 -9.0725813
103.52559 -91.276566 -9.3212042
103.85893 -91.319107 -9.2932873
104.09722 -91.309097 -9.328043
105.0115 -91.339897 -9.3391714
107.69792 -91.348129 -9.4483604
103.76005 -91.261765 -9.756731
104.1499 -91.275772 -9.7844772
103.05936 -91.293213 -10.147628
103.3212 -91.305107 -10.169809
107.08936 -91.391464 -10.166031
105.11633 -91.311249 -10.254429
104.24783 -91.259155 -10.514587
105.40526 -91.314377 -10.585415
106.10356 -91.34317 -10.594696
107.41827 -91.376411 -10.64073
101.39096 -91.200829 -10.808716
101.99037 -91.227722 -10.870631
103.81181 -91.238853 -10.941212
106.57572 -91.348618 -11.002084
105.8689 -91.308777 -11.382586
107.0088 -91.359169 -11.394081
104.65436 -91.249359 -11.524429
106.22118 -91.357437 -11.437181
106.62572 -91.34967 -11.415649
103.85081 -91.219299 -11.699837
107.27795 -91.336731 -11.887659
104.28632 -91.204895 -12.947773
105.36817 -91.252228 -12.904802
105.74955 -91.281616 -12.856595
105.75764 -91.23159 -13.410415
108.43092 -91.052383 0.450445
116.40324 -91.147842 0.393875
107.57333 -91.108963 -0.23523
107.62154 -91.081398 -0.326821
107.67068 -91.150124 -0.49702001
107.55867 -91.153221 -0.63318002
106.94717 -91.002632 -0.97876501
107.50775 -91.092972 -0.89221501
107.53801 -91.041153 -1.055843
106.87788 -91.194931 -2.0328541
107.53339 -91.016235 -2.5355091
107.67508 -91.116089 -2.833441
107.51167 -91.05838 -3.1335399
107.68597 -91.092232 -3.0986631
107.81439 -91.172699 -3.5365901
107.70363 -91.127968 -3.965261
107.71999 -91.078255 -5.1251421
107.71525 -91.104263 -5.2850771
107.70309 -91.073547 -5.8881779
107.59293 -91.002853 -6.8245449
102.89397 -91.192642 -10.552168
101.13724 -91.110847 -10.721878
100.94122 -91.097824 -10.963001
101.83694 -91.171692 -11.142787
100.20633 -91.048981 -11.49325
100.56911 -91.063507 -11.44414
103.46863 -91.157562 -11.599783
100.22987 -91.042137 -11.783638
103.43418 -91.185638 -11.797566
102.1313 -91.13121 -11.914011
102.56358 -91.146988 -11.869092
101.35856 -91.089302 -12.089619
101.7775 -91.123856 -12.2148
102.60367 -91.116394 -12.496583
103.08341 -91.147827 -12.999653
103.83691 -91.184654 -12.980718
102.28753 -91.111725 -13.11059
102.66687 -91.12854 -13.048597
103.40758 -91.161377 -13.04618
101.95518 -91.094299 -13.329799
100.21017 -91.012375 -13.473518
107.63121 -90.966331 0.50466001
108.80783 -90.956696 0.42889899
112.52428 -90.856949 0.46266699
115.04929 -90.932526 0.442561
115.77731 -90.975433 0.42147699
116.69792 -90.954544 0.460697
118.60522 -90.971825 0.455511
113.11485 -90.969574 0.347902
106.70917 -90.917091 0.088979997
107.56067 -90.948593 0.026588
107.60828 -90.979439 -0.496764
107.60738 -90.967239 -0.69520301
106.73367 -90.915894 -1.173633
107.64157 -90.903069 -1.128593
106.72438 -90.873985 -1.298475
107.63367 -90.917824 -1.3346471
107.63821 -90.902618 -1.678004
107.50179 -90.911911 -2.1363201
106.73533 -90.868446 -2.297842
106.69693 -90.821381 -2.479917
107.56892 -90.867325 -2.6933479
107.66106 -90.933914 -3.0821979
106.77203 -90.839798 -3.436096
107.66502 -90.941185 -4.1329842
107.65798 -90.910843 -4.2712021
107.49091 -90.989494 -4.774951
107.553 -90.952858 -4.883698
107.65146 -90.896584 -5.4800029
107.44327 -90.963226 -5.8972301
107.66405 -90.903801 -6.6913328
107.59802 -90.926682 -7.1697979
107.67824 -90.955261 -8.0967445
107.69774 -90.893341 -8.9013958
107.73645 -90.972244 -9.0339298
107.7355 -90.823593 -9.5050259
107.75752 -90.88031 -10.729288
107.72044 -90.98587 -12.582985
107.59624 -90.79969 0.474978
110.64435 -90.606873 0.439913
112.95402 -90.692909 0.480077
119.82149 -90.720978 0.48373899
106.90768 -90.741608 -1.088089
106.69769 -90.794289 -1.3018349
106.74117 -90.604164 -1.56043
107.04398 -90.736397 -1.677386
106.83342 -90.621475 -2.1320219
107.28187 -90.74202 -2.2024951
107.00362 -90.69381 -2.6675429
107.36661 -90.760399 -2.7330451
106.70676 -90.770004 -2.899035
106.74393 -90.767059 -3.488564
106.70004 -90.72155 -4.0839229
107.62076 -90.754005 -4.3442888
107.25366 -90.767883 -4.4851551
107.65702 -90.782494 -4.4589429
106.76987 -90.767281 -5.354176
107.67874 -90.760986 -6.6430001
107.69775 -90.750664 -7.0715008
106.83621 -90.662819 -7.4550819
107.6907 -90.747681 -7.7205791
106.85492 -90.63459 -8.0682564
106.84607 -90.661652 -8.5829325
107.6984 -90.731514 -9.901823
107.73048 -90.619278 -10.336904
107.73978 -90.680748 -11.162827
107.71587 -90.659569 -11.2845
107.73083 -90.660179 -11.552847
107.73184 -90.776833 -11.860321
107.77798 -90.692795 -13.263868
106.90257 -90.584206 0.482288
109.44728 -90.578789 0.42794001
106.72358 -90.529404 -4.140377
106.75517 -90.520889 -4.9329319
106.77229 -90.443008 -7.4594231
106.87809 -90.50679 -7.694695
106.70141 -90.576645 -8.5051718
106.85222 -90.563957 -8.6718197
107.76443 -90.540421 -12.346137
107.78703 -90.477432 -13.300729
107.4335 -90.212036 0.490565
112.51799 -90.233948 0.49101901
106.763 -90.201202 -5.5353408
106.81219 -90.273911 -5.785706
106.8244 -90.261543 -6.2899742
106.77888 -90.255272 -7.5213261
115.43478 -90.028488 0.44451499
106.71902 -90.080452 -1.412616
106.82716 -90.189362 -2.1144209
106.7468 -90.090279 -3.346559
106.765 -90.113205 -4.1113181
106.81908 -90.132812 -7.3478222
106.82451 -90.157936 -7.8070221
106.82964 -90.108887 -9.0101109
107.15504 -89.827675 0.52329701
109.12026 -89.868233 0.46110001
111.23116 -89.857796 0.481242
112.28558 -89.976509 0.496849
113.83427 -89.839752 0.49316299
118.64165 -89.834671 0.495884
119.46216 -89.92189 0.492497
106.72872 -89.80294 -0.337174
106.84198 -89.803619 -4.177896
118.85577 -89.711563 0.47662899
106.72053 -89.722755 0.26702899
106.76649 -89.707764 -0.89628202
106.8056 -89.731606 -3.3777349
106.7523 -89.756233 -3.799427
106.763 -89.775986 -4.1633511
106.82816 -89.759079 -4.6514468
106.78352 -89.769325 -7.4596858
106.81614 -89.768173 -7.4807472
106.77818 -89.760468 -7.8681531
106.78985 -89.749527 -8.9414883
109.54103 -89.442833 0.44455001
113.54617 -89.418259 0.46205801
115.07588 -89.449173 0.45367
118.07726 -89.467514 0.53218001
106.80859 -89.466026 -3.384372
106.77978 -89.411522 -4.3193169
106.77863 -89.474739 -5.8043089
106.8297 -89.530594 -6.3451948
106.78182 -89.41317 -8.79846
106.7894 -89.415451 -9.8957634
106.91476 -89.290352 0.535546
115.37064 -89.36377 0.43898401
117.01476 -89.358452 0.49782801
106.73318 -89.32872 0.188302
106.74612 -89.384308 -0.33581701
106.81854 -89.342964 -0.86561
106.7437 -89.300186 -1.429852
106.74599 -89.347321 -2.1004591
106.74095 -89.352997 -3.4547119
106.73193 -89.326294 -3.8155041
106.81219 -89.351242 -4.1849089
106.74323 -89.378159 -6.186543
106.82961 -89.268326 -8.1788864
106.85095 -89.33551 -11.862993
113.47316 -89.018311 0.484211
117.74772 -89.03672 0.539424
106.5566 -89.195549 -1.5552469
106.72621 -89.082779 -1.8318
106.8654 -89.055435 -1.870557
106.85576 -89.039154 -2.502569
106.3705 -89.196648 -2.631259
106.95252 -89.082573 -2.686595
106.98361 -89.077454 -4.6921659
106.78005 -89.087288 -8.0844765
106.87527 -89.035324 -11.538168
106.86702 -89.063416 -11.758983
106.74425 -88.963638 0.467352
111.3585 -88.970932 0.52572101
111.95013 -88.903748 0.44335499
113.79574 -88.997322 0.50471503
115.86228 -88.845749 0.48568001
118.62427 -88.89064 0.54876798
106.75116 -88.955261 -0.98013198
106.87245 -88.917206 -1.305504
106.2613 -88.88826 -1.957559
106.88963 -88.977203 -2.097683
106.88088 -88.972168 -2.6590221
106.86961 -88.96463 -3.4672649
106.91388 -88.908844 -4.0458651
106.89995 -88.932816 -5.052937
106.94121 -88.960823 -5.300343
106.93149 -88.901184 -6.0565701
106.90131 -88.926796 -6.6929269
106.90098 -88.887161 -7.3303299
106.87518 -88.898331 -8.1770134
106.94252 -88.877487 -8.266469
106.92072 -88.89415 -8.5301361
111.77815 -88.765602 0.446024
114.00922 -88.614983 0.47091699
106.73174 -88.649948 -0.20164201
106.75263 -88.627869 -0.64470202
106.19624 -88.756226 -1.765656
106.58881 -88.74736 -2.624063
106.30011 -88.735771 -2.924129
106.75835 -88.647705 -3.7808399
106.85094 -88.778824 -4.9600501
106.9663 -88.770569 -7.0052481
106.91536 -88.765457 -10.491497
106.95512 -88.696198 -10.974694
106.91776 -88.763367 -11.545529
106.93161 -88.705124 -12.238276
106.98766 -88.64637 -13.716239
106.99784 -88.577438 0.53244001
109.46499 -88.545143 0.47303799
109.83861 -88.546616 0.464288
118.62991 -88.544716 0.55845702
119.02861 -88.539368 0.52152801
106.48268 -88.444382 -1.437067
106.50017 -88.519028 -1.651113
106.46676 -88.532776 -2.224437
106.77472 -88.536911 -4.894361
106.56937 -88.4561 -6.9246001
106.94238 -88.551132 -13.565058
109.40042 -88.311798 0.45686001
111.27835 -88.361961 0.454579
113.73482 -88.283783 0.50989503
116.68015 -88.206131 0.54800802
118.18692 -88.260498 0.57112902
106.77138 -88.317337 0.231838
106.81836 -88.208298 -0.224796
106.4458 -88.379509 -1.870921
106.84146 -88.22084 -4.5681062
106.36462 -88.227821 -5.733644
106.92898 -88.209831 -13.265095
110.83609 -88.019814 0.46406499
106.92084 -88.194366 -1.2396491
106.27336 -88.174904 -1.503401
106.42624 -88.003807 -1.48216
106.24494 -88.130997 -2.009645
106.32526 -88.167046 -2.5346651
106.53539 -88.138123 -2.9823599
106.81671 -88.112198 -3.846467
106.75845 -88.143036 -4.2206869
106.43454 -88.182632 -6.2365532
106.66556 -88.144562 -6.5415592
106.60365 -88.083115 -7.3809772
106.89589 -88.129135 -9.6639729
106.63457 -88.098129 -9.8574448
107.34207 -87.803467 0.56562501
110.62054 -87.84539 0.46858099
112.20912 -87.842049 0.54124498
113.33472 -87.805977 0.534563
115.34096 -87.800705 0.55988902
116.25848 -87.923302 0.57788402
119.77877 -87.819061 0.55298299
106.81451 -87.862396 -0.51653397
106.78278 -87.870766 -0.65710098
106.27208 -87.861771 -1.54292
106.25986 -87.812401 -2.1685131
106.50098 -87.907578 -2.501071
106.84407 -87.814774 -5.2890768
106.68176 -87.829033 -5.4856849
106.55027 -87.925308 -5.789844
106.45886 -87.847481 -6.331059
106.7466 -87.846573 -7.6986718
106.90034 -87.864456 -8.9800043
106.92039 -87.814392 -11.82102
106.78252 -87.694885 0.46525899
106.8503 -87.777885 0.50942999
111.8932 -87.704559 0.54230702
112.42358 -87.723007 0.53163099
115.82563 -87.755463 0.57245398
118.91946 -87.785255 0.57799703
106.81738 -87.79248 -0.30951101
107.05362 -87.705528 -1.072237
107.07001 -87.717529 -3.1249969
106.81806 -87.657166 -3.916048
106.58318 -87.755142 -7.4804182
106.55711 -87.736679 -10.696552
112.35106 -87.45858 0.55928499
113.10287 -87.434875 0.550228
114.64145 -87.408989 0.572079
117.45776 -87.422623 0.58756202
106.77293 -87.41803 -0.95875603
106.41189 -87.512405 -1.763242
106.30962 -87.500336 -1.873018
106.27354 -87.535606 -2.3079641
107.00595 -87.494583 -2.407794
107.00026 -87.411583 -2.6104569
106.92113 -87.449409 -2.923887
106.43553 -87.523712 -3.0816081
106.3866 -87.543297 -3.2598281
107.01064 -87.52343 -3.560792
106.84647 -87.428612 -4.9346342
106.67023 -87.419945 -5.4987459
107.03738 -87.443359 -5.601263
106.55846 -87.460709 -10.635446
106.51923 -87.543518 -11.320624
113.83705 -87.302155 0.60787201
115.50166 -87.33374 0.60568398
106.93546 -87.282089 -3.279206
106.9153 -87.34304 -3.466747
107.01541 -87.366623 -4.299818
106.99144 -87.302658 -6.1746392
106.91956 -87.234604 -6.6690049
106.93204 -87.264877 -6.8890629
107.02632 -87.242828 -6.9501448
106.94659 -87.384346 -9.0064001
106.92957 -87.383484 -9.4533215
106.92006 -87.350647 -9.6512413
106.91278 -87.224693 -10.116077
113.84824 -87.097382 0.561333
116.18521 -87.087517 0.541363
117.48395 -87.062317 0.59706098
106.82855 -87.032562 -0.61328399
106.86272 -87.034401 -0.95592201
106.8689 -87.140343 -1.140762
106.82503 -87.142204 -1.441057
106.82257 -87.07663 -1.635728
106.90971 -87.147949 -3.1623881
106.79805 -87.101883 -3.386291
106.9797 -87.106964 -5.7513938
106.8884 -87.021271 -6.182374
106.92824 -87.049202 -7.4582829
106.93315 -87.197205 -7.7823181
106.63772 -87.16333 -9.9430285
106.97673 -87.099411 -10.124927
106.99992 -87.182243 -10.508047
107.05918 -87.05098 -12.56862
106.96429 -87.039886 -13.359713
111.15813 -86.860008 0.607346
106.92006 -86.942108 -4.5572858
106.89248 -86.972 -7.7615161
107.04594 -86.938019 -13.480281
118.29871 -86.611252 0.60101902
106.79768 -86.765015 0.47429699
106.82654 -86.608978 0.53749198
112.95062 -86.637177 0.59777498
106.77776 -86.659607 -2.4685061
106.89812 -86.603279 -7.0806241
106.94269 -86.70224 -9.0057888
106.97659 -86.600739 -11.058995
106.97099 -86.60051 -11.931551
106.97177 -86.603577 -12.181159
114.2303 -86.547768 0.62535399
116.93111 -86.505692 0.60612601
106.85147 -86.590431 -2.562232
106.89107 -86.579269 -5.4394088
106.91801 -86.547592 -8.2693939
106.98353 -86.54232 -13.414959
111.46542 -86.203758 0.61111897
114.5457 -86.256668 0.62452102
116.94641 -86.208633 0.61293399
119.77612 -86.234863 0.61454803
106.87349 -86.200645 -0.43762699
106.86736 -86.265442 -2.2668879
113.81384 -86.211769 -3.095047
106.86919 -86.205673 -4.1189752
106.89609 -86.210007 -6.2618961
106.94903 -86.258797 -9.4934416
116.59241 -86.127342 0.643718
117.77598 -86.153427 0.622666
116.27499 -86.153549 0.58475697
106.83539 -86.147278 -1.349197
113.17105 -86.013718 -2.926363
113.52663 -86.032745 -3.0468979
113.45482 -86.024765 -3.5435791
113.23477 -86.014839 -3.695874
113.16948 -86.032303 -3.8017349
113.82323 -86.190689 -3.879765
113.8101 -86.083977 -4.0008092
113.4704 -86.020424 -4.243124
113.68974 -86.026939 -4.272943
113.56653 -86.002678 -4.4175358
106.89635 -86.059708 -4.671742
113.80856 -86.074562 -4.758532
113.49638 -86.1222 -4.8486609
106.91459 -86.152657 -7.0994511
108.86231 -85.838699 0.52657598
119.21835 -85.804611 0.59412998
113.66414 -85.937538 0.071621001
108.68356 -85.832802 -0.219887
115.3584 -85.826859 -0.46996301
106.8786 -85.914391 -0.60957497
113.52422 -85.923553 -0.676597
115.36687 -85.813553 -0.668127
115.33393 -85.868881 -0.906048
113.5486 -85.911201 -1.0356489
115.38129 -85.823837 -1.147468
108.7213 -85.82827 -1.2490391
113.66673 -85.909668 -1.521841
108.69835 -85.837097 -1.802259
113.56436 -85.858185 -1.845639
113.56383 -85.872437 -2.123091
113.64276 -85.904358 -2.999402
113.06889 -85.868156 -3.130589
113.27229 -85.973892 -3.1305101
108.90589 -85.824234 -3.29284
113.81433 -85.824936 -3.463582
109.02274 -85.812515 -3.7078259
113.65045 -85.997009 -3.641865
113.07825 -85.870331 -3.830358
113.72047 -85.905731 -3.89604
113.68528 -85.915344 -4.2312131
115.13112 -85.885849 -4.4224482
106.96185 -85.810608 -8.3408728
111.26855 -85.799767 0.648597
118.33768 -85.773956 0.62516397
106.95731 -85.614906 0.48939899
113.74128 -85.77887 0.548002
115.05869 -85.721687 0.525244
115.34163 -85.766541 0.467379
114.77874 -85.78035 0.274854
115.30627 -85.732674 0.26463899
117.14703 -85.73484 0.26107201
108.65135 -85.728249 -0.197192
113.98112 -85.733215 -0.028979
114.17839 -85.69989 -0.13985901
106.90913 -85.644249 -0.45109999
113.72528 -85.780312 -0.56720501
106.90712 -85.707047 -0.67073399
108.57674 -85.628746 -0.63529402
115.26037 -85.708099 -0.94098699
113.70312 -85.670319 -1.0030839
108.66881 -85.653137 -1.289366
113.71603 -85.755211 -1.329241
113.91867 -85.64299 -1.340276
115.10277 -85.653656 -1.3144341
114.28006 -85.681671 -1.574809
115.42354 -85.673126 -1.5050679
108.68124 -85.640518 -1.646155
113.70645 -85.773987 -1.8483649
113.96034 -85.61866 -1.896023
114.09867 -85.621613 -1.897298
114.25731 -85.633514 -1.883866
114.61781 -85.647156 -1.826123
115.06775 -85.722496 -1.837178
113.73265 -85.736206 -2.266217
114.58099 -85.622093 -2.2583561
114.97874 -85.63588 -2.257746
113.86552 -85.605476 -2.4805789
114.17715 -85.624176 -2.502533
108.6973 -85.641708 -2.6964369
114.0062 -85.687019 -2.7983861
114.7815 -85.693314 -2.6296771
106.9229 -85.730309 -2.9762859
108.55135 -85.741287 -2.9781549
109.09154 -85.784531 -2.96543
115.33379 -85.708832 -2.9436109
108.75807 -85.74408 -3.1097989
112.4149 -85.728554 -3.1732309
114.6402 -85.647171 -3.1085391
115.4156 -85.729019 -3.149946
109.02278 -85.727646 -3.2270241
109.38596 -85.614716 -3.353245
109.7523 -85.643494 -3.3482111
110.59618 -85.635788 -3.349961
114.14325 -85.630554 -3.3060861
113.77054 -85.754715 -3.4942501
114.65215 -85.614059 -3.4983361
115.06422 -85.649536 -3.4748149
115.30405 -85.64209 -3.469398
108.92021 -85.768616 -3.7723751
114.10023 -85.653496 -3.755821
115.38081 -85.643997 -3.631742
106.92423 -85.789604 -3.858403
108.50887 -85.749664 -3.877579
108.47807 -85.703445 -4.0784578
108.65129 -85.721725 -4.1143761
109.03159 -85.749084 -4.0842838
112.97017 -85.748062 -4.03161
113.81973 -85.630447 -4.1388712
114.88844 -85.629036 -4.0640702
115.40892 -85.64447 -4.0725551
109.02673 -85.645218 -4.2780809
112.66898 -85.640526 -4.4587841
108.55363 -85.673065 -4.6820331
108.87904 -85.688782 -4.654355
110.95206 -85.621887 -4.6953659
106.90419 -85.751114 -5.0337019
107.09438 -85.688118 -5.131165
106.90929 -85.755386 -6.5626349
106.9705 -85.733322 -8.5889683
106.99223 -85.733688 -9.477397
107.0023 -85.77533 -10.62405
107.01491 -85.739929 -12.351968
116.82817 -85.573776 0.67920297
118.59648 -85.51358 0.663881
108.58223 -85.502518 0.291031
117.05766 -85.432961 0.27760401
115.35154 -85.473892 0.121403
106.88434 -85.418594 -0.495727
108.19061 -85.415527 -0.639844
108.52755 -85.548195 -0.702124
115.36089 -85.477043 -0.72705197
108.66522 -85.545921 -0.88152599
115.37666 -85.474266 -0.94870502
106.94551 -85.585876 -1.038661
115.38318 -85.487686 -1.119776
108.68623 -85.54187 -1.267941
106.91999 -85.477463 -1.449023
108.64775 -85.505234 -2.122973
113.84059 -85.576721 -2.1515379
113.882 -85.590729 -2.2862761
115.36486 -85.485382 -2.2643571
108.51505 -85.552948 -2.497673
108.66212 -85.562592 -2.6583149
114.90619 -85.579369 -2.761359
109.04799 -85.47596 -3.259284
109.47182 -85.534348 -3.388983
113.88882 -85.59137 -3.399929
109.86366 -85.407196 -3.459569
111.81805 -85.436974 -3.492101
112.24564 -85.425476 -3.529928
115.41476 -85.533592 -3.492445
106.9516 -85.460175 -3.7258811
113.8461 -85.571846 -3.738138
108.35175 -85.573761 -3.8579819
109.56216 -85.409637 -3.80548
112.8423 -85.584 -3.9308729
109.07848 -85.508957 -4.132153
114.11832 -85.555908 -4.1398358
106.97461 -85.456963 -4.3051801
113.88023 -85.54895 -4.2471781
115.41331 -85.5093 -4.3100061
110.32453 -85.524879 -4.4828129
110.63199 -85.532639 -4.5095139
111.00726 -85.541321 -4.474699
111.30005 -85.555046 -4.5256071
111.81494 -85.584373 -4.4707012
110.07877 -85.511734 -4.7531772
113.81226 -85.490631 -4.8219552
106.94585 -85.442688 -8.3334694
107.02255 -85.432236 -10.246147
107.03392 -85.480652 -12.392135
107.04395 -85.478088 -12.898623
117.79213 -85.317856 0.65043902
108.18443 -85.375771 0.52360898
107.37035 -85.301331 0.28989801
116.95041 -85.296936 0.244323
117.43837 -85.268158 0.26654401
116.17471 -85.347267 0.168364
116.28085 -85.29084 0.168496
116.47376 -85.35083 0.073007002
117.0309 -85.363571 0.180243
115.38832 -85.226212 -0.039772999
106.90757 -85.35186 -0.449231
108.70831 -85.322952 -0.483576
106.93721 -85.362114 -0.65247601
107.49279 -85.30777 -0.67561501
107.41011 -85.270065 -0.900415
106.98737 -85.260406 -1.040663
107.4187 -85.24218 -1.3219
115.4727 -85.218567 -1.34505
108.23967 -85.346558 -1.47333
106.95518 -85.289787 -1.884261
106.94029 -85.250694 -2.068722
115.33729 -85.360474 -2.0953071
103.63907 -85.339066 -2.3225579
108.20592 -85.331322 -2.241086
106.9552 -85.322662 -2.5136559
108.68848 -85.276413 -2.532819
108.02223 -85.273834 -2.9638519
115.4304 -85.312416 -2.8856151
107.04991 -85.257431 -3.010951
107.88696 -85.269806 -3.1330049
106.97936 -85.358971 -3.468199
107.85087 -85.251678 -3.4505191
110.65343 -85.318192 -3.4628389
115.3951 -85.291214 -3.7871361
106.93346 -85.284256 -3.8789921
109.0882 -85.358398 -3.911211
106.93742 -85.345352 -4.1062078
108.0347 -85.389877 -4.3604832
109.13289 -85.367447 -4.2628112
109.76543 -85.363335 -4.2551708
107.40779 -85.356468 -4.5172639
107.79317 -85.328484 -4.6139421
115.57153 -85.201538 -4.772285
107.68247 -85.396652 -4.8170438
106.9809 -85.224487 -9.318243
107.00525 -85.358414 -9.5261555
107.04283 -85.332001 -10.847353
107.02248 -85.370499 -11.001101
107.03622 -85.339859 -11.433592
107.04864 -85.302872 -12.718426
107.04718 -85.363724 -14.207499
117.05064 -85.023369 0.66752499
117.59669 -85.110001 0.60674798
108.72435 -85.042038 0.536699
117.32088 -85.115173 0.32435399
117.42894 -85.142296 0.34029701
116.37498 -85.154526 0.054745
117.44626 -85.165009 0.167852
116.37498 -85.151642 -0.031815998
108.72739 -85.086411 -1.032353
107.85202 -85.190323 -2.958461
110.61817 -85.090103 -3.2715211
107.1861 -85.179657 -3.874553
107.06033 -85.149986 -4.1467748
115.57169 -85.067444 -4.6901751
106.98022 -85.096756 -8.6964054
106.99669 -85.165146 -8.8555984
107.03224 -85.069839 -9.2176714
107.04932 -85.035217 -11.438013
107.0575 -85.045364 -13.382925
110.76938 -84.81456 0.64402902
115.89491 -84.953522 0.68569303
118.4649 -84.960152 0.64064199
118.99811 -84.94796 0.658714
108.70324 -84.971436 0.49160099
108.80913 -84.837173 0.551669
117.85248 -84.920708 0.409298
115.37444 -84.988319 0.26359701
116.46723 -84.946762 0.170954
115.40359 -84.921028 -0.106856
115.38903 -84.868607 -0.87557101
107.8589 -84.853973 -1.092504
115.50479 -84.945984 -1.161767
107.90701 -84.835129 -1.377562
115.41958 -84.901611 -1.875679
108.74162 -84.927467 -2.088989
107.85934 -84.824898 -2.616852
109.13205 -84.831711 -3.1036811
115.42206 -84.908539 -3.111814
109.51462 -84.957069 -3.317831
109.87567 -84.868515 -3.6895311
110.17429 -84.891289 -3.6648879
115.44304 -84.879082 -3.9041071
107.00269 -84.97126 -5.5485911
106.9848 -84.941353 -5.7724719
107.14303 -84.90332 -5.7337699
106.96078 -84.905167 -5.8831768
107.23982 -84.940208 -6.173398
107.40615 -84.908409 -6.111351
107.01297 -84.967125 -6.6028209
107.51907 -84.83252 -6.6245379
107.28088 -84.876228 -7.1145511
107.48051 -84.872162 -7.0475469
107.08044 -84.839859 -8.6981544
107.27664 -84.820648 -8.8629646
107.39185 -84.832054 -9.3888369
106.98927 -84.883308 -9.7129688
107.51955 -84.858376 -9.6903191
107.03354 -84.915497 -10.000171
107.40383 -84.814903 -10.383323
106.98311 -84.95742 -10.841712
107.0427 -84.948265 -12.477455
119.39705 -84.786407 0.69798303
119.51197 -84.606186 0.68048799
117.55428 -84.701675 0.48121801
116.84753 -84.693787 -0.100852
107.85712 -84.643112 -0.67905098
108.5899 -84.723183 -1.393189
115.3772 -84.743286 -1.368295
115.37701 -84.714462 -1.720109
108.68912 -84.713547 -2.188621
107.3489 -84.693237 -2.575949
106.89422 -84.606987 -2.965723
109.12932 -84.757584 -3.255861
115.59894 -84.681747 -4.6659751
115.65456 -84.693115 -4.6437569
107.4776 -84.742691 -4.9645171
107.46088 -84.647217 -6.0646262
107.02637 -84.683434 -7.7784748
107.49246 -84.694695 -7.881371
107.09302 -84.788345 -9.1019325
107.06847 -84.761505 -9.6957951
107.37382 -84.738449 -10.113113
107.46812 -84.663788 -10.470429
107.15138 -84.712074 -10.923637
107.10073 -84.722588 -11.092104
107.04617 -84.748398 -13.761827
107.06605 -84.761566 -14.222923
107.11111 -84.712845 -14.408996
117.57014 -84.565826 0.64857799
119.66843 -84.484283 0.66596901
117.79356 -84.588074 0.57144803
117.27898 -84.511833 0.024320999
117.55016 -84.438614 0.198327
117.24452 -84.495514 -0.27230999
107.46834 -84.475494 -1.4814579
115.44416 -84.47316 -2.2009201
109.02216 -84.496933 -3.1528289
105.41467 -84.533356 -6.7168012
105.02792 -84.506332 -6.9355559
106.2039 -84.533455 -6.9058142
105.78574 -84.512428 -7.3605289
107.59675 -84.575073 -7.571208
106.15433 -84.53997 -7.822619
107.52364 -84.547638 -9.0547142
107.59373 -84.50341 -10.914946
106.56826 -84.441162 -11.299503
