# .PCD v0.7 - Point Cloud Data file format
VERSION 0.7
FIELDS x y z
SIZE 4 4 4
TYPE F F F
COUNT 1 1 1
WIDTH 1602
HEIGHT 1
VIEWPOINT 0 0 0 1 0 0 0
POINTS 1602
DATA ascii
110.68484 21.384033 -0.33433601
108.92912 21.345533 -1.165972
108.16479 21.397373 -1.850413
106.41119 21.302391 -2.397613
114.96046 21.367987 -2.293098
100.73933 21.341339 -2.5516329
108.94475 21.243784 -2.584177
115.29349 21.34561 -2.4484029
106.3838 21.334007 -2.7850089
108.43321 21.395041 -3.099551
109.76193 21.338369 -3.536665
109.86761 21.360268 -5.9718261
114.47026 21.266357 -6.492589
110.12376 21.58383 3.758415
114.1282 21.477055 3.7354629
101.32442 21.483219 3.2729161
100.93448 21.548069 3.0735021
101.00191 21.59589 3.0287099
101.69406 21.485577 3.1252921
101.37206 21.557312 2.793366
101.64841 21.549564 2.698437
101.11842 21.525009 1.457875
101.828 21.596479 1.213012
101.704 21.540888 1.172015
111.73972 21.441751 1.117107
101.32393 21.462044 0.80827802
110.68202 21.567808 -0.77519202
100.3462 21.549759 -1.520576
102.09242 21.529724 -1.809068
110.09029 21.413752 -2.4662509
107.54888 21.497173 -3.0013771
116.92795 21.575478 -3.024262
112.51 21.434835 -3.919239
109.34291 21.593866 -5.840766
112.24138 21.546539 -7.3375988
101.0033 21.627977 2.5071571
101.74849 21.730518 2.137687
107.21568 21.779678 1.562434
101.045 21.716873 0.58163601
101.01585 21.79353 0.037425999
108.54272 21.694874 -0.51138502
101.07223 21.779499 -0.63886702
110.52312 21.689783 -0.91114098
117.43097 21.76231 -0.89690697
117.9464 21.607298 -1.227338
118.14678 21.704367 -1.304085
100.18713 21.785 -1.554713
101.43974 21.708977 -1.468454
114.09385 21.765511 -1.6352071
108.10942 21.704048 -2.0667579
108.84143 21.708109 -4.1993709
112.63492 21.796707 -4.2626572
106.12112 21.87118 3.726449
119.68362 21.987724 3.4592891
107.42165 21.949673 3.375083
114.04582 21.888842 3.259851
102.08114 21.990633 2.8739519
119.5472 21.963383 2.8795509
107.83325 21.985371 2.604146
107.26427 21.979574 2.250772
107.2851 21.949455 2.074188
100.85878 21.850697 1.859795
102.01099 21.893585 1.925863
113.17247 21.87332 1.880795
119.88 21.978214 1.958855
107.94978 21.995518 1.704169
101.97721 21.942574 1.4176199
107.47473 21.943775 1.5312901
108.04852 21.926781 1.472322
107.15142 21.823593 1.390758
110.85255 21.996422 1.236222
112.00038 21.823244 1.393183
110.95545 21.979231 1.1744961
102.04449 21.97648 0.82949501
107.49072 21.992723 0.036205001
118.63365 21.854507 -0.63442802
112.64621 21.888363 -3.819149
108.23027 21.888039 -4.3246908
105.03523 21.930004 -7.1590719
119.93204 21.968937 -7.3904748
103.10439 22.113344 3.616415
107.9984 22.043127 3.6390879
113.90199 22.101627 3.6033411
104.36166 22.159088 3.5915711
105.88408 22.193565 3.5736921
107.8247 22.042542 3.435194
107.1144 22.123152 3.329021
119.57894 22.051353 3.3843911
119.79951 22.149086 3.2315781
107.8492 22.056551 2.7133141
107.88811 22.05508 2.5016279
119.8785 22.073704 2.3025999
107.48872 22.049141 2.1642959
101.8817 22.008858 1.826877
107.32642 22.044125 1.8735141
107.48743 22.04088 1.763387
112.25425 22.115036 1.7932301
107.88954 22.033731 1.4519171
101.90199 22.133396 1.230792
108.06796 22.055996 1.082706
101.94962 22.108471 0.80116498
119.48241 22.112858 0.454045
110.80554 22.081839 0.22869299
101.23212 22.123697 0.14783999
119.15742 22.071476 0.044822
102.09036 22.115383 -0.014083
107.42424 22.050655 -0.058834001
108.326 22.191975 -0.30154601
119.50868 22.075787 -0.71942401
106.95239 22.170206 -1.193597
119.35631 22.07761 -1.411945
107.81235 22.047962 -1.607742
114.31528 22.08386 -1.866307
103.58712 22.09029 -2.7203281
101.46885 22.184923 -3.5029459
118.11824 22.09243 -6.9096909
118.64997 22.147076 -7.6028662
105.00021 22.380232 3.6458571
105.2924 22.221262 3.631511
113.4174 22.217926 3.7339699
106.92396 22.380363 3.4341929
112.68462 22.324257 3.4243059
107.91663 22.256765 3.005233
107.48392 22.306355 2.7918389
119.11793 22.371527 2.6749411
119.47792 22.210308 2.6741879
102.00586 22.397734 2.235955
119.15748 22.327261 2.303967
107.18462 22.22966 2.106029
112.86925 22.379097 1.94362
108.00503 22.222664 1.567204
112.4796 22.308163 1.543143
111.03588 22.210781 1.283886
113.50719 22.2314 1.333272
119.33078 22.366188 1.307511
119.83859 22.234205 1.054664
111.69203 22.255787 0.673648
102.50937 22.262472 -0.012784
111.24832 22.335739 -0.097108997
119.40258 22.345457 -0.154615
102.18501 22.273357 -0.682437
102.55431 22.268007 -0.63085502
100.7442 22.337128 -0.88536501
113.88747 22.357306 -1.0991549
114.11797 22.239674 -1.346301
102.82536 22.287979 -1.455088
102.00393 22.292618 -2.0844109
114.6741 22.259003 -2.2898149
112.37262 22.299704 -4.5596652
115.35058 22.32386 -5.5728779
115.13477 22.383968 -5.615519
115.10858 22.384594 -6.4305391
113.72887 22.266941 -7.013422
100.32815 22.46315 3.647058
102.07951 22.576242 3.2439079
113.51404 22.447224 3.3545909
119.29443 22.446451 3.029278
119.40514 22.497097 3.0805919
101.91434 22.531614 2.9226699
119.86227 22.469282 2.6424389
119.20336 22.411259 2.4504659
101.0537 22.527731 1.864603
119.90347 22.566753 1.8199379
107.55299 22.576458 1.776582
112.89627 22.506477 1.793709
111.41879 22.493595 1.375602
107.55661 22.447561 -0.246235
114.13293 22.467186 -1.124523
102.64494 22.488981 -1.3579251
108.80916 22.427515 -1.23728
100.62875 22.507502 -1.622956
100.90935 22.531075 -1.872764
115.74358 22.400602 -5.1546688
116.08594 22.487829 -5.4564271
114.84824 22.434441 -5.6672211
105.48441 22.520037 -6.0323482
111.78236 22.619858 3.6846571
108.26294 22.79044 3.521806
110.27053 22.739801 3.3311689
112.31789 22.644279 3.3036129
118.90726 22.677168 3.3583331
111.46205 22.781654 3.060838
119.31216 22.649921 1.58866
112.91904 22.618248 1.332306
100.89183 22.600231 -2.2700701
107.41551 22.7097 -4.4050741
110.14041 22.689236 -7.5153942
106.84076 22.885536 3.4082141
110.27899 22.838604 3.331743
107.87412 22.831608 3.0572481
108.71751 22.961544 3.0679519
110.22871 22.874222 3.0551491
110.69257 22.891655 3.0276749
111.05418 22.896526 3.072958
110.17218 22.896795 2.9807341
119.1696 22.840599 2.5123711
111.75778 22.924658 0.608217
108.30856 22.870718 -0.57632703
119.64152 22.984091 -1.006846
101.36865 22.897926 -3.9560449
104.62022 23.009338 3.6743691
101.97741 23.090981 3.3469601
106.23229 23.023785 2.7506449
119.86353 23.053579 2.3119969
119.18121 23.061741 0.74499297
119.18802 23.034931 0.534486
106.48061 23.145428 -1.153368
114.9177 23.151869 -6.6192141
105.71178 23.195927 -7.4887528
118.34258 23.331512 3.5084989
119.0388 23.208406 1.391578
119.45042 23.398727 -0.95020097
108.13646 23.255159 -1.002758
109.71191 23.285847 -1.995152
109.67052 23.275934 -2.0473509
114.52766 23.237484 -6.3271418
105.13482 23.236509 -7.5216331
114.89851 23.536442 3.8566849
105.1466 23.400959 3.7823091
102.40211 23.499063 2.9910619
107.99152 23.50629 -1.99553
110.45045 23.436821 -7.5735011
106.92207 23.759111 -1.091645
108.32426 23.765125 -1.28677
108.50715 23.652962 -1.350262
108.1557 23.6301 -1.985471
109.46806 23.622206 -2.1520579
110.90912 23.791637 -7.7497101
102.68374 23.728806 -9.5884571
119.98334 24.098534 3.842329
109.20547 24.03937 -2.773335
105.43016 24.497089 3.7386241
110.78543 25.130039 -7.7789412
109.22404 25.391388 -7.9435549
110.19028 25.240585 -7.9478512
110.4236 25.206861 -8.0633144
104.35371 25.49139 3.64346
105.23004 25.90712 3.778357
119.09024 26.241077 4.0378022
116.66049 26.315205 3.842175
106.08737 26.307236 3.6742401
106.53558 26.216387 3.7478089
105.40769 26.714527 1.24242
102.32172 26.767845 0.85739899
102.6714 26.781124 0.97052902
103.02937 26.772179 0.98972702
104.1431 26.755512 0.953219
105.90424 26.662582 0.951222
119.52335 26.760527 0.84175903
119.78717 26.780806 0.84189802
104.30006 26.765537 0.79509503
104.79777 26.734051 0.79360998
104.50699 26.9165 3.8257401
106.25806 26.92502 3.7643831
115.79903 26.960005 3.586704
116.0526 26.982822 3.466217
119.97987 26.831404 3.5857661
116.21169 26.982113 2.9399769
119.7506 26.90469 2.6354811
117.49928 26.966032 2.584604
119.48962 26.899239 2.4555731
119.8063 26.843102 2.5105469
119.86033 26.893131 2.070024
119.52551 26.948755 1.837455
119.71432 26.870541 1.828774
116.16623 26.997459 1.657949
119.79636 26.88208 1.650946
118.64441 26.961338 1.220276
102.62178 26.904879 0.946096
117.75063 26.979534 0.98500299
119.83051 26.931213 0.92203301
115.4246 26.978716 0.60758197
118.55412 26.912952 0.61761099
119.72536 26.82597 0.68870199
116.48242 26.940895 0.50255102
118.98448 26.835577 0.597238
117.42603 26.931442 0.29959401
117.85815 26.912331 0.27341199
118.50928 26.917032 0.148151
116.79189 26.955299 -0.01551
119.73672 26.990505 -0.215058
119.79823 26.942564 -0.69164097
119.89491 26.987419 -2.513993
119.32811 26.949661 -3.329798
118.69754 26.996361 -3.445128
119.1105 26.972271 -3.4508231
118.94682 26.985512 -3.681397
119.46379 26.968334 -6.6575699
119.85271 26.999218 -6.6094708
112.31264 27.126301 3.7318759
112.41508 27.177662 3.639359
113.92331 27.074865 3.6563079
119.89385 27.047491 3.6993771
114.00794 27.072758 3.4322419
116.06255 27.081642 3.5028801
117.7002 27.092121 3.445581
112.10299 27.044109 3.2319601
113.94851 27.068359 3.293714
112.27263 27.12574 3.006284
115.93652 27.0222 2.8255041
117.66981 27.096413 2.615494
113.92531 27.100445 2.532912
114.29871 27.042212 2.582552
115.89844 27.021774 2.445313
119.88683 27.03219 2.4447501
113.76055 27.011017 2.360085
114.08244 27.106359 2.305387
116.10068 27.114422 2.3480699
114.10159 27.094299 2.1545031
112.34938 27.187622 1.696951
116.05914 27.029739 1.741876
114.0802 27.124445 1.450104
116.13965 27.041004 1.51108
114.26353 27.120003 1.377983
103.77222 27.182201 1.103719
111.96972 27.180235 1.036624
114.15909 27.147293 1.139056
116.09207 27.070131 1.09628
116.26058 27.021 1.077594
103.46479 27.034878 0.94101298
116.26558 27.044991 0.885683
117.52673 27.097385 0.908737
118.11743 27.015945 0.98592502
110.10396 27.146122 0.63064802
110.60449 27.135681 0.651438
114.08246 27.086691 0.75619203
116.20029 27.028786 0.72622901
108.74077 27.17141 0.493846
109.0805 27.154938 0.40927401
109.80145 27.157038 0.49520901
112.21556 27.079762 0.59681201
113.05095 27.103207 0.53618199
113.86639 27.084686 0.565207
109.8325 27.181515 0.328538
110.94783 27.155626 0.21805499
109.08344 27.183821 0.132338
112.57008 27.14114 0.131016
112.98265 27.130417 0.112644
113.71835 27.094082 0.093199998
110.26917 27.169441 -0.119682
112.5585 27.101007 -0.114844
112.93807 27.097446 -0.055734999
114.10325 27.099617 -0.103712
115.86512 27.030254 -0.144059
119.58884 27.046394 -0.139584
116.20786 27.1085 -0.62786502
114.06007 27.182312 -0.888978
116.11597 27.15597 -1.356889
117.72188 27.089666 -1.889076
113.93259 27.188267 -2.2841771
119.87178 27.0065 -2.242588
115.84949 27.162525 -2.526772
113.14903 27.134155 -2.9464929
114.10588 27.115974 -2.964735
116.11084 27.105972 -2.882035
117.7471 27.004074 -2.9011519
112.45815 27.145744 -3.0869989
112.94308 27.155376 -3.061769
115.62003 27.052071 -3.126219
110.7635 27.196484 -3.2156219
112.65865 27.174942 -3.3432701
113.01233 27.158487 -3.316329
114.23612 27.11904 -3.345993
114.95863 27.139381 -3.43852
114.14902 27.12743 -3.645189
115.67431 27.080059 -3.770467
112.78789 27.147369 -3.806601
116.22014 27.194733 -4.2074099
117.71156 27.13658 -4.203074
119.86142 27.193357 -5.742074
117.74029 27.136196 -6.5902948
118.16836 27.120445 -6.5777278
117.53334 27.065655 -6.9229202
118.08731 27.083668 -6.8579412
114.94421 27.120844 -7.1822648
114.65514 27.152119 -7.261785
117.84285 27.308619 3.926096
114.17799 27.39304 3.7593989
110.31654 27.378122 3.4739361
114.04011 27.399714 3.411104
116.07631 27.307117 3.414995
119.69536 27.344273 3.415385
112.46931 27.375792 3.31055
112.45386 27.337601 2.8942289
119.73183 27.234377 2.617507
114.08693 27.387287 2.5576169
119.09631 27.340336 2.49052
119.54708 27.354752 2.4868619
114.10703 27.313206 2.26179
117.69263 27.334667 2.330575
112.28129 27.395462 2.1545761
110.32839 27.259285 1.885106
110.29411 27.256828 1.714749
110.53092 27.240128 1.65575
110.28381 27.359955 1.4507051
113.91657 27.338158 1.519912
116.22443 27.288479 1.595229
110.91354 27.306263 1.204066
112.51591 27.370813 1.381389
114.08547 27.284794 1.367831
115.44006 27.272608 1.238086
117.55272 27.297163 1.386539
110.92358 27.295521 1.154446
111.78268 27.258017 1.118232
112.45013 27.333923 1.055763
113.96763 27.378172 1.12157
116.15268 27.397156 1.083474
104.55418 27.264776 0.85708302
108.61783 27.39991 0.98671502
112.32426 27.202297 0.80499798
107.40915 27.354012 0.66502702
107.77545 27.348698 0.68407702
111.03493 27.245155 0.60248899
114.01677 27.341705 0.73793602
108.86854 27.251419 0.58394599
109.30549 27.259178 0.47857901
107.4449 27.274035 0.29943901
107.75083 27.256298 0.33043501
108.55225 27.279654 0.351509
109.80862 27.217199 0.17709699
110.5162 27.299446 -0.195774
112.32769 27.306843 -0.170173
116.33518 27.394005 -0.54311198
112.41462 27.214184 -0.89707398
113.84604 27.225174 -0.96462399
114.10217 27.292685 -1.051743
113.93509 27.387201 -1.358475
119.76799 27.371861 -1.303265
113.97312 27.201473 -1.517835
112.29018 27.290009 -2.210938
113.92683 27.360531 -2.2043331
110.29983 27.329823 -2.5290101
110.27289 27.330673 -2.9950559
111.86086 27.234913 -2.9874091
117.81386 27.383488 -2.8674221
107.09388 27.38419 -3.0062931
110.54945 27.24712 -3.1284399
109.73199 27.303209 -3.3772819
114.11884 27.275211 -3.2035849
109.30339 27.283192 -3.4155531
110.60721 27.283216 -3.40411
110.54343 27.337873 -3.792501
112.49249 27.347382 -4.629981
117.39786 27.204033 -6.0145841
115.71553 27.211527 -6.6208491
110.12309 27.361626 -6.9991822
114.53243 27.325136 -6.9562721
112.26602 27.376724 -7.1351938
115.0559 27.205605 -7.1663518
109.50536 27.368618 -7.216948
112.57217 27.300323 -7.260046
114.48138 27.52676 3.8710721
119.95657 27.421278 3.6782179
100.96333 27.599583 3.598042
101.30882 27.571741 3.465188
100.5445 27.556944 3.3884079
113.90081 27.485905 3.0108631
119.47979 27.575994 3.0162289
114.12303 27.455475 2.987536
113.90932 27.427731 2.7171299
110.4341 27.459974 2.2997789
107.02768 27.46583 1.874706
109.36652 27.408241 1.8537461
106.1251 27.540665 1.71689
107.43272 27.48793 1.7882611
107.87616 27.471371 1.72332
109.3299 27.468788 1.7552
106.60287 27.559675 1.433639
107.86491 27.485785 1.4716671
109.49743 27.46249 1.444859
107.11556 27.519341 1.207845
107.44721 27.492477 1.305339
109.41133 27.436426 1.307864
110.5045 27.412264 1.340597
102.70879 27.492046 0.627891
106.71079 27.430965 0.64971203
101.41386 27.533295 0.53012198
101.83374 27.547596 0.488731
103.84554 27.453308 0.45750901
103.75735 27.439877 0.228076
104.3532 27.439602 0.20276
101.07402 27.558285 -0.146157
106.16251 27.545227 -0.17055801
109.01615 27.446663 -0.160271
106.54939 27.541378 -0.228091
107.71124 27.440369 -0.29286301
119.50789 27.513697 -0.245653
106.541 27.556614 -0.53995502
107.77074 27.505688 -0.54799497
108.62701 27.4897 -0.51427603
119.85109 27.509033 -0.59977001
101.56902 27.571095 -0.96094602
108.95261 27.53705 -1.137838
109.28133 27.503319 -1.141683
109.46516 27.505783 -1.115944
105.08029 27.516928 -1.3104711
107.46178 27.544516 -1.445472
110.26489 27.478191 -1.53579
114.07076 27.408649 -1.487666
106.07834 27.536043 -1.728357
106.62645 27.527496 -1.738941
107.07361 27.568811 -1.670079
107.31757 27.533529 -1.6866471
108.57109 27.455271 -1.669288
108.9429 27.427284 -1.654796
107.35589 27.583694 -2.1529329
105.09943 27.567852 -2.222688
116.12224 27.416647 -2.2000711
110.52928 27.419615 -2.5285051
111.44391 27.460674 -2.4490249
104.56458 27.522095 -2.7782099
107.07329 27.53735 -2.6530559
107.76511 27.55217 -2.696342
109.1114 27.495348 -2.6921909
107.33345 27.400959 -2.93311
101.81618 27.596966 -3.1312799
103.69647 27.503036 -3.0348649
106.50859 27.415787 -3.068073
101.26376 27.543659 -3.338825
102.2883 27.581459 -3.3421171
105.34753 27.48241 -3.363282
106.24301 27.436483 -3.347584
106.96208 27.400854 -3.3605909
104.47527 27.515957 -3.405333
102.70538 27.510324 -3.6473091
112.48355 27.446484 -3.7544169
115.79365 27.425493 -3.6879089
110.33825 27.455715 -3.9403911
112.52281 27.430664 -4.0527921
119.79103 27.540401 -4.2229371
108.65438 27.566811 -4.588316
110.52498 27.536348 -4.7280588
107.40729 27.579655 -4.9554238
107.76767 27.563265 -4.9148021
113.9762 27.404774 -5.0206938
114.11843 27.514816 -5.1200652
108.91939 27.543015 -5.3134189
109.31905 27.586052 -5.3954668
110.51662 27.51952 -5.3200212
107.74852 27.524263 -5.406569
114.79619 27.466253 -5.969162
110.92361 27.52309 -6.210278
112.60776 27.514935 -6.2702332
108.84927 27.512083 -6.58148
109.39337 27.598309 -6.4033828
110.97969 27.400028 -6.554285
111.32717 27.410721 -6.4622388
107.2199 27.50753 -6.7744331
105.29121 27.564213 -6.8509159
109.11433 27.449707 -6.9277401
109.35947 27.4354 -6.9688959
109.80663 27.405062 -6.9049058
108.53404 27.440746 -7.348774
116.48041 27.633469 3.806515
100.05005 27.630079 3.7346859
101.39478 27.752899 3.652313
100.54205 27.624557 3.4990101
118.91801 27.788586 3.434046
119.54314 27.733337 3.4100189
119.75771 27.724926 3.494128
117.09431 27.65296 3.23858
117.41843 27.744961 3.047132
113.30577 27.788422 2.943187
119.47883 27.710651 2.860625
119.75909 27.788246 2.2606931
110.3422 27.66046 1.7894551
112.58934 27.790007 1.796124
110.50336 27.676876 1.447655
112.48635 27.670902 1.089543
101.90979 27.608707 0.80109203
106.62271 27.648838 0.91989398
109.13937 27.60902 0.83261198
100.30232 27.631657 0.62971902
106.40681 27.651983 0.61159098
100.48087 27.640419 0.52609003
102.70065 27.603598 0.58763999
101.52079 27.601255 -0.14557099
112.57591 27.690926 -0.17798799
106.65286 27.603384 -0.325712
107.39441 27.633965 -0.55942202
110.33775 27.684656 -0.454799
116.70627 27.746593 -0.51322901
101.47929 27.700218 -0.60206598
112.32413 27.78413 -0.64830601
102.95478 27.602768 -1.008509
107.57304 27.603636 -1.178521
101.62099 27.748701 -1.375384
103.11095 27.614094 -1.561349
109.47694 27.752811 -1.597665
110.45007 27.75358 -1.484305
105.23268 27.762379 -1.732632
106.50289 27.668301 -1.737784
106.85033 27.618227 -1.795193
107.41013 27.646191 -1.741667
108.21201 27.629335 -1.7011
113.99974 27.600786 -1.643447
101.54744 27.620934 -1.9671251
101.55022 27.728186 -2.079881
112.31816 27.634922 -2.1831369
113.93678 27.657917 -2.076869
117.10233 27.796783 -2.197377
107.26801 27.624937 -2.250829
104.93182 27.722557 -2.5382121
112.57864 27.666718 -2.582401
119.71918 27.647778 -2.402719
100.95386 27.762199 -2.6967349
107.06824 27.634109 -2.7346189
108.25487 27.630997 -2.686388
108.68613 27.621347 -2.6656089
107.06828 27.616528 -2.9330211
100.23759 27.726685 -3.0852101
102.60358 27.605997 -3.7605
106.99294 27.681118 -4.1769629
106.69318 27.711536 -4.309679
109.45422 27.745567 -4.392128
107.51814 27.683361 -4.5334878
107.80415 27.671547 -4.5315251
106.22687 27.730179 -4.6830149
107.01898 27.665796 -4.6668119
110.45022 27.69227 -4.7084508
107.77514 27.684717 -4.9982519
108.25092 27.688583 -4.9657912
109.12907 27.635798 -4.9040122
106.31181 27.734341 -5.0200891
106.61267 27.700424 -5.0115919
108.60799 27.632206 -5.0445938
109.4559 27.66465 -5.108407
113.97717 27.675354 -5.0474191
116.41618 27.68585 -5.1443071
108.54667 27.649826 -5.2648201
108.89563 27.632929 -5.3781538
108.15554 27.683966 -5.4946351
108.58214 27.639099 -5.6358962
111.54156 27.660751 -5.9854531
107.26476 27.750139 -6.4509411
108.04977 27.639313 -6.4837108
102.54343 27.973534 3.7769539
104.60194 27.919651 3.78089
113.83983 27.878202 3.6648979
114.14371 27.950909 3.6625071
114.62006 27.882168 3.718338
118.92373 27.913256 3.7266669
119.37392 27.849022 3.6645069
111.26575 27.986456 3.4206851
113.86357 27.941994 3.417717
115.34285 27.910412 3.343277
115.8463 27.873844 3.309659
112.65265 27.955521 3.004349
114.26525 27.867783 3.0624111
114.57693 27.863117 3.057466
115.77673 27.912878 3.099226
116.59659 27.833536 3.095154
109.64907 27.982538 2.8640101
113.13979 27.824224 2.8917849
114.46758 27.957905 2.6868279
114.94918 27.946838 2.729243
117.48555 27.823891 2.6950171
117.81277 27.87608 2.6236091
118.93147 27.950615 2.5781879
111.86979 27.897182 2.235059
116.28284 27.897635 2.2861631
116.62529 27.865429 2.3220389
117.49702 27.874027 2.365236
112.14423 27.912804 2.183826
113.08858 27.877369 2.1695261
113.2382 27.844479 2.1968229
116.55479 27.871035 1.8990099
109.69429 27.902729 1.790658
115.49632 27.936121 1.776596
115.69569 27.980526 1.493166
117.19989 27.885334 1.578974
113.08293 27.909794 1.117834
113.30248 27.896027 1.0545731
109.28521 27.90214 0.84150302
116.3957 27.955347 0.89867997
117.65968 27.888268 0.83978897
118.16177 27.830688 0.88031799
117.42499 27.87985 0.78371298
118.5865 27.881676 0.786439
117.81345 27.916702 -0.190956
119.44336 27.857788 -0.199205
103.07536 27.961594 -0.216116
115.87441 27.976604 -0.278438
116.70791 27.828434 -0.212383
118.6497 27.871204 -0.21541899
117.28906 27.900534 -0.548338
118.13083 27.966972 -0.532489
103.13942 27.834312 -0.71497202
117.82491 27.911848 -0.62522501
101.38358 27.804768 -1.1794651
114.76938 27.911076 -1.041039
117.4705 27.988352 -1.153275
112.25977 27.804489 -1.358045
114.76149 27.890738 -1.390625
116.91257 27.821856 -1.347042
116.21146 27.973795 -1.495474
117.7245 27.9618 -1.420061
116.32088 27.998312 -1.644987
101.51328 27.828693 -1.863616
113.16664 27.950243 -2.2432539
100.08895 27.811392 -2.608326
113.72035 27.9583 -2.7637279
113.02985 27.966803 -2.9613171
116.72545 27.99239 -2.9175911
117.2756 27.906206 -2.9085929
117.84784 27.935249 -2.8464539
119.77995 27.915497 -4.2169328
119.38177 27.884689 -4.484868
102.98962 27.8592 -5.331912
110.44234 27.817503 -5.3983898
105.15114 27.902523 -5.4211369
105.07353 27.953838 -5.7822499
110.48271 27.816456 -6.5051379
115.09095 28.111704 3.838377
110.66747 28.111301 3.747112
102.42305 28.196339 3.592582
105.80098 28.106741 3.440928
111.32433 28.114376 3.440295
112.62231 28.043562 3.4291301
100.07721 28.182541 3.3582311
107.45524 28.191437 3.307838
109.0141 28.150131 3.044347
110.5437 28.153206 2.9311891
112.90952 28.029953 2.8025501
113.54463 28.007227 2.888473
114.23763 28.017479 2.8484099
114.65434 28.023237 2.8405039
115.04401 28.010189 2.8946879
105.95039 28.102318 2.791095
109.76645 28.154797 2.722167
110.6093 28.128328 2.7275159
100.19592 28.184952 2.581054
100.87927 28.17329 2.4658811
101.0272 28.172485 2.46293
112.82784 28.059467 2.589797
115.02969 28.078964 2.5904169
115.46292 28.03336 2.5720651
116.06746 28.080853 2.5335751
117.87518 28.026093 2.509382
118.7065 28.029215 2.4858301
105.714 28.118608 2.3635111
114.12971 28.099913 2.27707
115.64488 28.059223 2.3267629
116.16901 28.04845 2.316344
117.35593 28.049662 2.3293221
100.30608 28.178566 2.0969319
110.26566 28.145287 2.1582661
114.66715 28.037434 2.1396861
115.31738 28.054638 2.1792271
119.1456 28.046099 2.1080251
101.93948 28.170277 1.71829
118.88881 28.035233 1.619437
112.97427 28.014343 1.405522
115.67297 28.027584 1.525544
112.62796 28.099146 1.397576
114.25145 28.099255 1.355522
100.65431 28.173857 1.07752
112.27161 28.109436 1.078068
112.60748 28.082888 1.101984
115.0071 28.096966 1.169873
104.94098 28.197971 0.84863001
112.92595 28.056475 0.93242902
109.38835 28.032963 0.75774199
110.53295 28.191896 0.74249202
113.4015 28.072533 0.738231
111.8196 28.165611 -0.174771
113.53257 28.107 -0.191052
115.05192 28.168596 -0.13947
119.06887 28.100218 -0.052519999
117.91124 28.02157 -0.243127
102.93433 28.058783 -0.467489
116.49304 28.043255 -0.58280301
103.10279 28.008455 -0.78806001
114.94087 28.084553 -0.887335
116.56085 28.059669 -0.94168103
109.47903 28.126608 -1.057091
111.05273 28.113874 -1.103416
112.31685 28.139675 -1.026163
113.73753 28.118835 -1.053867
116.30935 28.062855 -1.1684279
101.37247 28.024029 -1.272525
102.91241 28.085075 -1.31486
106.09779 28.199097 -1.305832
112.31578 28.127222 -1.350807
119.30907 28.168192 -1.372589
114.11456 28.161167 -1.44805
115.60962 28.164331 -1.502375
113.89417 28.155193 -1.764312
119.6801 28.197086 -1.769477
103.11308 28.178391 -1.890632
105.99384 28.114634 -1.907148
112.99732 28.039078 -1.8233711
115.22893 28.189316 -1.8018759
117.52495 28.014824 -1.845554
103.06967 28.063862 -2.119523
116.66986 28.084862 -2.1769991
117.40179 28.067728 -2.066165
117.94202 28.141937 -2.133029
112.93523 28.076544 -2.2704489
113.90448 28.160706 -2.301122
109.48573 28.165031 -2.5000491
112.61729 28.156313 -2.584733
115.9938 28.045704 -2.6601031
109.48129 28.151358 -2.96838
110.21932 28.191046 -2.891824
113.227 28.029659 -2.9455471
115.28763 28.095791 -2.897661
116.12451 28.040096 -2.9608631
117.15611 28.055939 -2.8887219
117.86927 28.030291 -2.876699
118.17117 28.029869 -2.873786
111.55389 28.161139 -3.017524
112.91635 28.161009 -3.9742839
114.87496 28.129547 -3.926888
115.22169 28.164663 -3.8204279
113.06211 28.132502 -4.153368
114.71132 28.152426 -4.1833138
103.00253 28.162457 -4.2953281
114.17504 28.087919 -4.2390032
113.93092 28.175304 -4.5730438
115.80659 28.112782 -4.5206008
116.14913 28.093897 -4.5215502
117.41029 28.05299 -4.5266781
112.46805 28.127634 -5.1291661
113.92878 28.183781 -5.381959
101.52529 28.190708 -5.9662399
112.83545 28.195349 -5.8366852
116.32966 28.197536 -6.4614668
118.16403 28.161381 -6.4508662
118.2556 28.166594 -7.7790089
118.82009 28.132511 -7.607512
103.33673 28.344421 3.7296319
104.25506 28.287172 3.7444811
105.4679 28.228516 3.6045461
102.20213 28.245684 3.429496
102.44652 28.260258 3.4200649
106.15423 28.273222 3.373327
107.81703 28.239521 3.298959
108.27441 28.235867 3.2797019
102.29585 28.24407 3.0555689
101.33467 28.238712 2.8857689
102.31332 28.260956 2.910995
106.28548 28.299252 2.8301871
107.36033 28.26561 2.886965
107.75369 28.254269 2.8909509
100.50241 28.221043 2.6167231
101.37939 28.234871 2.4635479
102.35378 28.265945 2.5467329
105.17543 28.39205 2.457685
106.38363 28.299454 2.5922401
106.46511 28.326284 2.4435239
106.1722 28.262077 2.2810459
107.30013 28.314693 2.2357421
111.31611 28.387161 2.2777171
101.52119 28.307913 2.126694
102.15929 28.303493 2.1374691
102.26057 28.275398 2.140857
107.83958 28.281639 2.1157529
108.95856 28.265577 2.0672369
101.63187 28.326805 1.920302
102.10185 28.272703 1.8775311
102.33913 28.308651 1.874446
107.3814 28.297205 1.941661
108.65076 28.222492 1.903046
101.91879 28.211346 1.728538
110.58286 28.220156 1.689796
100.92786 28.255013 1.444455
102.41547 28.294643 1.481967
110.96391 28.292896 1.41243
101.06714 28.210728 1.287228
101.47028 28.332752 1.318969
102.45219 28.355213 1.358634
101.46243 28.337366 1.144949
101.45153 28.335281 0.89747399
101.90652 28.272228 0.85788602
104.11147 28.234077 0.825023
101.93582 28.246994 0.71590298
102.9625 28.258627 0.74140298
103.79279 28.243801 0.72980797
103.03148 28.205872 -0.91703999
114.12315 28.220579 -0.90929598
102.23919 28.37587 -1.035066
117.91038 28.296745 -1.103583
102.29271 28.382324 -1.340336
105.93367 28.245773 -1.291845
104.19656 28.332577 -1.412403
115.05363 28.287897 -1.4971631
110.21916 28.312233 -1.7679631
118.88656 28.272415 -1.7855231
105.42804 28.295986 -1.919457
110.52914 28.277811 -1.854941
110.95494 28.34639 -1.872422
118.27649 28.230392 -2.079113
118.44692 28.254833 -2.0925319
118.98912 28.295124 -2.28986
119.65958 28.234928 -2.298774
102.27967 28.396278 -2.518739
101.54324 28.282179 -2.665282
103.95444 28.269627 -2.6947479
111.3978 28.287506 -2.611758
102.4991 28.358126 -2.8308311
110.91676 28.21006 -2.8603661
110.59898 28.329735 -3.9292181
109.52439 28.219452 -4.0869751
111.1118 28.357851 -4.5028448
110.23587 28.304207 -4.6262279
109.57869 28.274708 -5.0963759
114.18097 28.230623 -5.096024
118.30818 28.335659 -5.1749802
118.77307 28.349606 -5.1429148
109.51655 28.202507 -5.2813692
110.25053 28.266293 -5.3395119
112.61442 28.231964 -5.474771
112.6635 28.328638 -6.2411499
109.51345 28.223387 -6.5487442
109.62738 28.26664 -6.4417648
110.19441 28.344257 -6.5774789
111.90866 28.396809 -6.5457721
112.55993 28.362925 -6.4943128
112.85091 28.233948 -6.4520402
117.04908 28.207687 -7.8302641
105.6239 28.502762 3.2858739
105.24474 28.56341 2.689517
105.15238 28.594067 2.5573599
111.11934 28.485807 2.4931631
111.32475 28.445518 2.3055179
106.54076 28.422939 2.008136
102.32402 28.513481 1.30186
114.99886 28.409077 1.26218
104.2263 28.587364 1.040324
101.50372 28.528557 -0.25772801
102.56924 28.539301 -0.26064301
103.0453 28.49464 -0.25140899
104.57102 28.479755 -0.28023601
105.28918 28.428577 -0.36519301
102.17338 28.441669 -0.57320201
105.67023 28.417213 -0.57079399
103.89523 28.519049 -0.66973299
104.19437 28.481346 -0.724877
103.06303 28.528236 -0.85828698
103.32416 28.521547 -0.91061503
104.12057 28.493683 -0.95658898
102.25266 28.439489 -1.3072391
101.67148 28.587547 -1.410006
110.3616 28.533255 -1.4539599
112.19898 28.45845 -1.709554
102.6481 28.516262 -1.848004
104.55372 28.598858 -1.938849
104.5721 28.5965 -2.187083
103.01217 28.54248 -2.4260099
111.82058 28.576599 -2.5098391
103.38701 28.53038 -2.99388
111.44014 28.582479 -4.7922902
111.77394 28.52212 -4.7580762
105.44604 28.522223 -4.9437432
105.60921 28.597523 -4.8340149
111.02838 28.496172 -4.8074479
109.98457 28.40659 -5.165864
110.47466 28.426674 -5.9278622
111.15867 28.422918 -6.113049
111.80431 28.444647 -6.0471268
112.38335 28.415102 -6.539887
105.32866 28.542397 -6.8446169
111.41167 28.500431 -7.7322078
103.02087 28.709137 2.623112
102.88911 28.714752 2.5806589
103.0053 28.710709 2.3619969
102.59813 28.71155 1.12293
104.56793 28.611984 1.0470181
105.37016 28.636351 1.095451
103.38689 28.701609 0.81268901
100.26465 28.625235 -0.228689
100.17809 28.678551 -0.97966897
103.78822 28.654655 -1.526585
103.69492 28.62586 -1.6902339
100.99197 28.755886 -1.830464
103.34013 28.620672 -2.0626881
104.3885 28.605005 -2.085448
110.53725 28.608263 -2.1791739
101.51405 28.653936 -2.5185449
111.52628 28.637259 -2.4896021
101.41194 28.704664 -4.1584082
104.31694 28.613184 -4.245019
100.28697 28.75004 -4.5408168
105.03216 28.646658 -4.4592552
100.86403 28.696266 -4.679184
102.93495 28.683987 -4.918839
101.41157 28.74362 -5.2842069
102.66735 28.721338 -5.2645402
103.02888 28.710701 -5.338943
104.3326 28.693262 -7.7709899
103.43831 28.691931 -8.1151295
105.58311 28.647245 -8.0001688
105.21771 28.849407 2.5131609
102.4702 28.955103 1.375751
100.58624 28.899263 -1.972555
100.54445 28.977654 -2.244293
100.41896 28.825237 -4.5150328
102.4189 29.021637 2.912169
112.90578 29.146872 1.8625081
102.5284 29.356384 1.782637
103.82173 29.479939 3.515511
102.36911 29.446995 2.937624
102.51189 29.487202 2.364028
109.43262 29.562937 2.0932529
106.11459 29.423676 1.643644
105.13942 29.673494 2.7001519
102.50116 29.780912 1.713701
102.52567 29.749275 1.458268
105.20288 29.74086 0.87577701
103.0165 29.863148 3.226579
102.43555 29.819004 2.541055
109.63405 29.858488 2.505044
113.28774 30.183994 2.6193211
102.52328 30.164795 2.574477
102.48108 30.140934 1.466146
109.46774 30.07086 1.467297
105.84877 30.178469 -5.1158948
106.39694 30.316393 3.127259
112.99775 30.332991 1.854318
105.77305 30.241751 -5.9114852
104.7508 30.501158 3.654151
103.04456 30.528879 2.90978
102.35899 30.429611 1.620173
102.54079 30.684368 2.887718
102.97192 30.624632 2.324996
113.24463 30.616091 2.136234
102.47006 30.680145 1.7939219
102.51758 30.641811 1.434848
102.64513 30.637949 1.166087
102.54675 30.919769 2.454823
113.24945 30.988445 2.060544
102.4825 30.986139 1.680689
109.62039 30.900581 1.590917
113.13877 30.972816 -2.309155
102.58391 31.034851 1.133863
109.64667 31.302177 -2.376966
109.5443 31.426113 1.958691
102.61143 31.497509 -1.594787
113.26848 31.524532 -2.701674
102.53553 31.688904 2.575876
110.07207 31.75329 2.2457099
102.54391 31.770588 1.809123
103.16848 31.959614 3.2356579
117.10892 31.857269 2.8209989
117.28059 31.865509 2.8269191
102.70415 31.830095 1.194455
109.72565 31.887192 -2.1972599
102.87469 32.16581 2.8257649
110.14597 32.015862 1.341125
103.18782 32.246784 3.2569251
102.55502 32.210171 2.1248491
116.00528 32.393845 2.0405271
103.28238 32.514389 3.0239811
115.73688 32.533817 2.6339631
118.20622 32.443104 2.612581
116.94518 32.55706 2.5589941
118.71455 32.432682 2.21873
119.43472 32.41024 1.8710999
119.71049 32.439655 1.758168
115.85434 32.557907 1.497815
116.11404 32.531616 1.512954
102.66648 32.567291 1.35417
103.37651 32.497639 -5.5247712
116.18114 32.628654 2.6470771
102.58505 32.632679 2.136833
111.70872 32.66111 2.111212
114.30935 32.608601 1.634981
111.42687 32.732094 1.284723
116.11523 32.628231 -1.8594019
114.65733 32.715496 -2.723923
115.49604 32.66806 -2.767309
116.03126 32.627712 -2.7269731
116.55745 32.614082 -2.702498
111.75422 32.796711 -3.0522201
112.0935 32.788387 -3.0302031
102.68149 32.968445 1.36411
111.09097 32.858047 -2.0936329
102.70367 33.076836 2.142772
103.9376 33.142448 -1.749378
117.9729 33.148266 -6.1251488
102.70762 33.362049 2.0676739
103.34633 33.212799 -1.638198
102.83078 33.202549 -2.780863
103.82303 33.817482 3.5985751
103.56064 34.171707 3.6065819
102.38763 34.383072 2.445497
102.68718 34.712532 2.3014519
111.88332 35.33741 2.1988471
102.76796 35.379333 1.579723
102.85992 35.370903 1.278529
109.81551 35.430725 1.771862
109.75417 35.450008 1.471949
102.66789 35.608246 3.480042
111.12603 35.608543 -6.1396699
109.73342 35.818077 2.919255
109.73774 35.842815 1.746304
109.76245 36.137917 2.9079239
102.81021 36.115215 2.607481
109.6359 36.126083 2.5545311
102.82849 36.178383 1.589764
109.59241 36.213715 1.406931
102.7725 36.590984 1.712391
102.81078 36.748276 3.7310801
102.8316 36.628887 1.785987
109.80048 36.924026 2.8924839
102.82387 37.142639 3.762018
102.75493 37.008961 3.5922041
109.5345 37.199902 3.541621
109.66383 37.014969 3.547873
102.83701 37.034813 2.743274
108.93772 37.232422 3.698343
109.32703 37.228283 3.5279689
106.46757 37.355957 3.196697
106.68102 37.388855 2.2397621
107.40713 37.308891 2.307029
109.41803 37.285789 1.366501
109.62755 37.236557 1.3932821
102.83466 37.468899 1.686579
105.38248 37.426376 1.617919
105.79299 37.401619 1.643109
102.85767 38.1726 1.70621
102.91529 38.174793 1.5732
102.84203 38.333809 2.679039
102.85814 38.958344 2.7209439
102.90205 39.019203 1.750306
102.9511 39.05183 1.592379
102.91413 39.757889 3.917594
102.94753 39.936752 1.738068
115.64735 20.168911 3.3626151
101.2227 20.020784 3.127548
115.36932 20.188984 2.90591
111.02158 20.123634 1.052429
110.62046 20.038589 0.50501198
109.8325 20.138777 -0.52946299
115.69276 20.007393 -0.849639
116.22558 20.052723 -2.395782
119.71103 20.094305 -2.344506
101.02126 20.094446 -2.7523749
119.72215 20.112404 -2.85306
111.2659 20.13868 -5.3603492
112.41474 20.041975 -7.5452671
112.89288 20.095892 -8.589159
104.60418 20.302889 3.611099
108.87314 20.380623 3.282809
108.92677 20.203968 3.0696199
109.03632 20.37192 3.018043
109.09739 20.32045 2.8900881
110.97379 20.2342 2.675559
110.27161 20.201094 0.63710397
114.53419 20.258923 0.082362004
111.36136 20.307266 -0.27938601
108.97506 20.325985 -0.865381
107.51585 20.310286 -1.692299
115.38248 20.229027 -2.107439
115.82812 20.274143 -2.1291959
115.74153 20.239996 -2.485476
110.62019 20.318949 -4.0863352
102.73328 20.266773 -4.3258791
110.99257 20.278439 -4.5062461
105.70555 20.562973 3.7645271
102.93175 20.5865 3.5546291
104.56907 20.498463 3.5492401
110.93823 20.567041 3.4971559
108.76971 20.506552 3.33025
115.30208 20.431835 3.121316
102.07011 20.46476 -0.88964897
100.88797 20.544321 -1.242342
109.9593 20.464634 -1.206511
107.31227 20.496805 -2.254055
110.49155 20.530298 -3.4087119
105.48038 20.616383 3.666729
110.26456 20.694723 3.744339
117.79446 20.739559 3.7153211
118.20902 20.719969 3.722775
102.84872 20.672098 3.554563
104.53767 20.667904 3.5525031
105.49216 20.730459 3.49228
106.65901 20.616592 3.241997
110.61868 20.605688 0.653826
108.55659 20.635109 0.094495997
113.91088 20.759266 -0.35850799
119.78217 20.720028 -0.48643801
101.0546 20.634323 -0.98632902
115.07463 20.679895 -2.740504
102.54732 20.675964 -3.396632
116.6759 20.614464 -6.037662
103.65915 20.987801 3.609623
109.68092 20.946154 3.718204
112.49931 20.992416 3.706589
109.93102 20.882774 3.3677731
108.64822 20.838955 0.088202
108.70622 20.945881 -0.20451599
100.32338 20.809729 -1.748067
105.73499 20.90876 -3.2257149
100.85603 20.977978 -3.4478569
100.66056 20.924147 -3.621489
116.87807 20.931557 -5.8927259
117.14409 20.997585 -6.0234218
116.22215 20.906521 -6.3746018
119.68526 20.905146 -7.843864
104.51013 21.112949 3.5662711
107.92679 21.104393 3.5708959
114.70635 21.110479 3.095681
101.09259 21.114452 0.29466799
101.12966 21.109165 0.145219
114.17941 21.002779 -0.95740098
109.06026 21.115675 -1.430369
104.87774 21.130552 -3.141557
108.44659 21.099659 -3.1391461
106.99942 21.149679 -3.286633
114.14378 21.046967 -6.3809652
103.44815 21.272827 3.6552501
117.06059 21.271755 3.6903811
111.43112 21.371437 1.032236
101.14803 21.282434 0.63001698
101.29213 21.256983 0.70280898
101.44711 21.367487 0.632276
107.71102 21.301363 0.62499601
101.14574 21.258507 0.55358499
114.53462 21.348528 -0.31830999
101.80418 21.2251 -0.411147
119.53792 21.275963 -1.331321
119.98639 21.315929 -1.261991
101.90195 21.392387 -2.1687069
108.26939 21.377365 -2.548907
100.63392 21.317902 -2.867557
102.08022 21.313351 -2.994427
109.4706 21.204634 -2.8942499
108.23933 21.377377 -3.0535469
100.46481 21.239145 -3.5057769
117.34636 21.359074 -6.0639062
114.90605 21.399185 -7.0891252
118.91972 21.371128 -7.546351
108.67242 21.461479 3.735631
110.61853 21.44733 3.6515779
100.24771 21.46767 3.544425
100.90869 21.494665 3.299938
101.49525 21.470602 3.2007079
101.81316 21.528128 2.9757221
101.53113 21.567108 2.513674
101.6373 21.557632 2.5040629
101.46149 21.524563 2.122025
101.71526 21.55315 2.1160259
101.8134 21.503687 2.0687239
101.42092 21.45508 1.879571
101.66734 21.508228 1.4841959
101.35178 21.426239 1.313257
111.76778 21.498249 0.924079
101.51148 21.481205 0.71203899
101.79604 21.501646 0.45631999
118.05103 21.52895 -1.647079
100.52578 21.4741 -1.811088
100.98456 21.516006 -1.806855
117.37128 21.540649 -2.2528291
116.74937 21.529831 -2.985388
108.67509 21.429367 -3.819514
112.11893 21.459969 -3.984035
112.53052 21.560646 -4.618238
108.87341 21.587221 -5.2401729
109.34723 21.770182 3.7620399
113.78081 21.710258 3.767554
100.76535 21.683357 3.238409
114.18413 21.766479 3.0555129
100.73492 21.772194 2.6281841
101.28557 21.685266 2.6382411
100.98267 21.688868 2.2869611
101.68134 21.670435 2.302747
101.07281 21.714968 1.855786
101.72252 21.755001 1.890505
101.22932 21.667259 1.605567
101.70873 21.626064 1.491889
111.5245 21.681534 1.167401
102.03455 21.680754 0.68980098
101.91522 21.71096 0.54471201
101.92445 21.639994 0.227955
101.45957 21.728788 0.113155
100.18159 21.79595 -0.128242
100.79082 21.638062 -0.66823
101.39341 21.772896 -0.60192698
113.89971 21.781151 -1.4078389
117.10815 21.615843 -2.6783481
107.13553 21.790909 -3.2980809
108.72493 21.702993 -4.107471
105.05028 21.748463 -5.004456
112.44514 21.766766 -5.4456239
108.05382 21.936953 3.765399
119.12088 21.862206 3.6920221
105.83847 21.810234 3.57549
102.0992 21.991594 3.165271
119.51048 21.99011 1.849908
107.7897 21.963058 1.74383
112.3278 21.986782 1.472581
102.00227 21.807423 1.263115
107.33836 21.968838 1.219032
112.20529 21.918545 1.274081
107.78072 21.852678 0.89576399
108.07748 21.852421 0.67800099
101.87727 21.800203 0.253077
119.56198 21.959913 -0.794074
110.10078 21.923244 -0.83978999
118.85409 21.822958 -0.87300301
107.45232 21.862223 -1.070345
107.86549 21.853054 -2.4784141
114.57598 21.844524 -2.4311399
112.75587 21.832462 -3.490025
112.84664 21.987152 -5.83494
112.74281 21.864204 -6.7592449
117.8136 21.964256 -6.9971561
119.00458 21.843527 -7.6859012
106.48591 22.127537 3.697643
108.25051 22.146214 3.7829731
110.77452 22.086069 3.7237091
116.32224 22.051989 3.740952
107.00496 22.173225 3.420985
119.27157 22.15064 3.47543
119.52321 22.042624 3.4935601
107.31995 22.139999 3.340471
113.7131 22.163212 3.3114049
119.93596 22.060064 3.159112
119.83038 22.136524 2.624243
100.96469 22.100546 2.472158
107.65295 22.098808 2.5052431
119.3628 22.167156 2.416209
119.97305 22.07655 2.5246191
107.82863 22.083578 2.163238
119.75365 22.013325 2.1395521
107.91223 22.084015 1.8436691
107.37322 22.062696 1.76693
112.18995 22.104361 1.446911
119.60545 22.005041 1.25122
101.90303 22.150135 1.173779
111.32026 22.129944 1.15448
119.90346 22.174673 0.60872197
101.93492 22.042059 0.55356199
102.16551 22.122791 0.49858299
107.4386 22.140841 0.32786301
119.98328 22.046968 0.063781999
119.50728 22.106857 -0.15974601
119.68254 22.127901 -0.123844
111.38615 22.1922 -0.49274299
101.00601 22.179512 -0.74050999
118.6114 22.189375 -1.0724109
101.76247 22.089481 -2.1461899
103.32005 22.160168 -2.078023
101.67284 22.046341 -2.4758601
103.69336 22.078535 -2.6438191
112.97598 22.131262 -3.5293331
116.08852 22.057524 -4.4675689
101.55179 22.118511 -6.1459332
112.75104 22.146763 -6.5078602
104.28077 22.248571 3.630271
107.98936 22.355648 3.671515
119.72543 22.240902 3.647223
112.97969 22.283794 2.9644811
113.42627 22.266314 2.9990649
119.93666 22.293842 2.9357679
112.71003 22.343536 2.5143671
113.04167 22.342331 2.5007889
101.14206 22.275511 2.2362731
119.31233 22.301434 2.2874291
119.88271 22.3363 2.3158851
107.23456 22.23098 2.078402
112.92439 22.334295 2.1274841
113.24356 22.3305 2.12784
112.28935 22.253084 1.9543639
119.96268 22.280842 1.7444431
101.91104 22.306736 1.507537
101.89447 22.230324 1.2641439
113.11791 22.372065 1.32627
119.50558 22.325569 0.97086298
113.3345 22.325665 0.76778698
102.11982 22.257717 0.53669399
107.61772 22.221268 0.56783998
107.74116 22.363716 -0.20082
108.19613 22.340382 -0.445802
103.20085 22.205711 -1.879992
101.47205 22.209677 -2.9624619
101.4937 22.205048 -3.7961819
108.04575 22.39142 -4.6971679
116.03541 22.333984 -5.108808
114.90735 22.232368 -5.4874492
102.71279 22.439426 3.6828201
112.22986 22.549477 3.6634541
102.43911 22.567072 3.509635
118.96033 22.519171 3.4067271
119.0293 22.418447 3.505888
112.61616 22.487457 3.2652211
113.33326 22.457268 3.1428061
101.23474 22.426479 2.807328
119.51709 22.433687 2.6864901
119.10695 22.431133 2.4599769
107.51412 22.56654 2.2108309
112.56297 22.490019 2.3768129
112.74144 22.494556 2.338156
113.05129 22.471258 1.825945
101.95564 22.444319 1.515227
113.12524 22.530891 0.71774697
113.64332 22.560524 0.67853302
113.30896 22.525291 0.15919299
101.12627 22.423416 -0.035032999
113.51558 22.423782 -0.056752
119.38588 22.476999 -0.281975
114.12019 22.544592 -0.70721
100.79182 22.432316 -1.496171
101.16 22.449015 -3.066066
103.46973 22.400057 -3.1625581
113.26108 22.473774 -3.059628
101.0816 22.479446 -3.760628
103.64491 22.448946 -4.649765
112.82111 22.545849 -6.187418
114.19238 22.435551 -6.4886069
117.89135 22.40461 -6.7971702
108.12817 22.697134 3.709604
111.34456 22.656593 3.664829
117.56963 22.792398 3.783896
117.84202 22.715284 3.777097
109.4184 22.733225 3.5504761
102.00916 22.685425 3.240931
107.70619 22.626621 3.010627
112.61949 22.650246 3.16891
107.4666 22.729015 2.968976
109.77068 22.796131 2.9788699
119.93613 22.601519 2.5297511
107.47596 22.698486 2.3065641
113.56513 22.641785 0.66337001
119.41018 22.685551 0.29188699
108.51257 22.63468 -0.31066701
102.97218 22.679665 -1.055506
103.04682 22.749403 -1.383207
113.86614 22.76774 -2.3447051
100.63975 22.693615 -2.5840261
112.72691 22.657465 -2.716924
103.63335 22.747837 -4.8016629
110.48653 22.763252 -8.0791187
110.7843 22.709955 -8.9496937
100.15589 22.833275 3.6731901
106.49271 22.829063 3.6689479
110.04302 22.901361 3.611208
105.86573 22.991774 3.2813101
108.18987 22.958961 3.291286
108.96359 22.965157 3.30128
109.46705 22.944746 3.304287
110.73422 22.899075 3.3007619
112.06895 22.837509 3.3190839
105.52328 22.88092 3.087157
106.87045 22.843435 3.082552
118.76239 22.829739 3.0662749
105.51096 22.926819 2.947273
109.43795 22.891296 2.9530859
118.88821 22.848881 2.9503591
118.90177 22.85857 2.628509
118.7467 22.874733 2.359807
112.74319 22.842922 1.365873
119.96225 22.937555 0.64283001
108.90077 22.92057 -1.481773
102.83803 22.926752 -1.794904
114.16245 22.943949 -1.847324
102.67844 22.925579 -2.191916
107.96072 22.960333 -2.0793741
100.29712 22.866838 -2.7714391
103.32478 22.950811 -3.2769051
101.15717 22.922876 -3.86817
105.5171 23.022865 3.631515
100.19284 23.163063 3.4664249
105.82867 23.124861 3.3839209
106.10748 23.098351 3.049077
119.89144 23.067869 2.671273
103.28228 23.004345 -1.437052
108.05524 23.024094 -1.5349931
114.57375 23.182529 -6.543714
105.40224 23.036097 -7.365941
101.03955 23.270565 3.255728
101.76465 23.387001 3.2934361
102.25316 23.258455 3.262455
100.61431 23.2736 3.131151
102.20182 23.267035 2.7710099
118.68478 23.2689 1.1423531
108.98466 23.357054 -1.9307261
107.7281 23.345131 -2.3100729
109.07765 23.212259 -3.1398349
114.69207 23.305593 -5.3615198
110.05797 23.336369 -7.698143
114.19102 23.560352 3.8624101
108.13835 23.581421 -1.439081
108.68248 23.502041 -2.1247339
106.88741 23.588596 -6.5148969
114.09941 23.668858 -3.1417689
104.87489 24.155243 3.627898
115.88458 24.200947 3.8606689
103.4911 24.216013 3.7036691
104.03983 20.167248 3.6037381
111.00717 20.174522 3.6876681
115.67276 20.073402 3.0786459
111.03291 20.142941 2.9155641
100.97133 20.071854 2.7259631
110.94381 20.192564 1.257187
110.91536 20.167118 -0.52760202
115.73199 20.123905 -0.67417598
110.52467 20.097719 -0.870803
115.76141 20.170784 -2.9175861
106.08476 20.008015 -3.7068939
101.92368 20.039091 -9.1533937
105.57278 20.240191 3.635345
111.34409 20.30925 3.7103169
114.36847 20.392061 3.771636
108.87995 20.337488 2.6654561
109.07805 20.322105 2.736587
110.42293 20.344713 -0.56694603
107.57506 20.211498 -1.387316
109.76646 20.310471 -1.2062449
101.32608 20.299101 -1.5014859
101.63287 20.329079 -1.995728
119.93191 20.237965 -1.959121
107.74438 20.326887 -2.03567
101.11889 20.260715 -2.268126
107.15535 20.308374 -2.498076
115.62244 20.296124 -6.1646738
113.2138 20.296848 -8.5246019
102.95013 20.577358 3.6277349
106.57883 20.595837 3.7332599
108.92397 20.450523 3.40412
108.77705 20.458916 3.126514
109.01305 20.527376 3.0133979
108.94257 20.498436 2.7182939
111.5305 20.486053 0.207507
110.56481 20.458059 0.025023
108.51072 20.581543 -0.090130001
101.25185 20.596218 -0.56282002
115.23125 20.578842 -0.56384099
109.69006 20.427319 -1.07348
110.13966 20.46273 -1.068336
101.07124 20.542093 -1.732168
101.0743 20.437763 -2.1163709
106.52255 20.573242 -2.485177
115.88081 20.542725 -5.915576
106.83934 20.778004 3.618598
106.93808 20.774197 2.9352951
109.65477 20.701231 -0.19701201
109.32371 20.73234 -0.256466
108.73836 20.783579 -0.43934599
114.46804 20.644739 -0.44704801
114.67451 20.684483 -0.96060801
108.14437 20.782875 -2.065125
108.55789 20.73365 -2.513406
110.09848 20.654049 -2.783953
115.50316 20.769947 -2.6450241
110.33651 20.731323 -4.0943961
116.30337 20.637589 -6.1221499
104.62286 20.938164 3.6102149
105.82106 20.967793 3.729275
106.89676 20.857288 3.693954
116.13769 20.811256 3.7531011
102.19956 20.931454 3.536906
111.05293 20.931377 0.88621902
108.92584 20.968849 -0.211349
110.35701 20.927055 -0.585208
110.99115 20.843092 -0.47169399
115.34687 20.80702 -0.53362399
100.94614 20.908453 -0.723818
101.56305 20.992046 -0.85282701
101.6287 20.841099 -1.088657
119.57529 20.81008 -1.815794
102.14105 20.97706 -4.2053151
115.91389 20.940472 -6.5218372
115.70361 20.994411 -7.0298409
101.89762 21.058151 3.6268139
109.8306 21.080631 3.729315
115.72106 21.069189 3.783654
118.4567 21.073381 3.656193
118.8719 21.110729 3.668875
111.29218 21.027372 0.69976097
100.1953 21.104843 -0.30624399
111.32304 21.000744 -0.21789899
113.74811 21.099899 -1.306964
107.64754 21.002998 -2.0625169
114.72008 21.184834 -2.251384
101.99265 21.149019 -3.5135331
110.13187 21.040188 -4.1864471
115.33895 21.008986 -6.7197242
114.49397 21.028378 -7.1650681
119.09982 21.052433 -7.5985699
107.08635 21.391724 3.7618649
114.40525 21.298731 3.6447771
118.32034 21.209146 3.6955099
101.85134 21.298281 3.498477
103.08039 21.322483 3.5471611
109.33511 21.367416 3.589191
114.48327 21.373194 3.1201501
114.68534 21.220942 2.9251821
101.30453 21.371059 2.0373671
101.34206 21.35474 1.668793
101.20476 21.218925 0.56782401
101.45398 21.267319 0.268498
107.94778 21.395824 -0.98897702
108.98157 21.343904 -1.339139
107.78983 21.299137 -1.468457
109.63095 21.271049 -1.785921
108.93092 21.280418 -1.8931251
106.14919 21.278618 -3.947767
107.61366 21.291241 -4.700758
114.23537 21.30407 -6.3602772
