# .PCD v0.7 - Point Cloud Data file format
VERSION 0.7
FIELDS x y z
SIZE 4 4 4
TYPE F F F
COUNT 1 1 1
WIDTH 82
HEIGHT 1
VIEWPOINT 0 0 0 1 0 0 0
POINTS 82
DATA ascii
102.97738 40.160751 3.6638031
102.95815 41.701782 3.7643001
102.96196 41.771507 1.966562
103.3354 41.933746 3.8018439
103.00787 41.818775 3.0411019
103.07838 41.879875 2.722115
103.05417 42.16029 3.800184
103.18774 42.004089 3.065681
103.05757 42.025845 1.811313
103.11118 43.152168 1.681677
103.25194 43.213596 3.128727
103.23435 44.141293 2.8282399
103.1624 44.275536 1.706625
104.25592 48.068565 3.432821
103.1801 48.866608 1.796623
103.73362 49.069382 3.0696969
105.27351 49.010475 2.9243309
104.12952 49.078873 2.228241
105.41006 49.049923 2.331068
103.03578 41.002792 1.635383
105.0972 41.211128 3.7143159
102.95294 41.720921 3.8187649
102.92809 41.791065 2.938916
103.00921 41.817215 2.7536299
103.40898 42.64365 3.8530741
105.1048 42.990967 3.8121719
103.18097 43.135105 2.7819819
103.1825 43.231945 2.865237
105.00661 43.826092 2.7443261
105.41129 43.840408 2.7709081
103.20578 45.459061 2.072675
103.23685 46.204033 1.831159
104.47779 48.17482 3.4476371
104.52758 49.042637 3.117867
105.12713 49.010025 2.914906
102.97279 40.114006 1.8730789
102.95724 40.209351 3.8289349
105.41552 41.587906 2.700532
103.02005 41.484119 1.814659
103.36368 41.966812 3.8449471
103.10899 43.312611 1.760831
103.4742 43.750828 3.9300599
104.90929 43.849178 3.8459899
104.89236 43.843407 2.9179571
103.51104 46.217979 2.118062
104.55292 48.909351 3.7846229
104.66444 48.979141 3.5030811
105.09712 48.918247 3.532902
103.38168 49.136909 1.81453
105.18016 41.222473 3.173301
102.8813 41.784538 1.823204
103.24502 41.982784 3.08249
103.13757 42.010025 2.976038
103.05647 42.577309 3.909421
103.13402 42.548126 2.8728681
103.06976 43.029228 1.754083
103.08395 43.533546 3.9761441
103.05589 43.696659 1.8467931
103.23482 44.151337 2.869163
103.53745 44.621365 3.9913299
105.1402 48.451645 4.1134548
103.18343 48.868191 3.02724
103.21639 48.837189 3.1198421
103.85255 49.039318 3.4538021
105.06179 49.050049 2.2776639
102.92076 40.37487 2.8009219
102.98315 40.297192 2.721961
102.98074 40.491356 2.932281
103.00201 40.701355 1.7944731
105.3047 41.216072 3.7286389
103.04986 41.808758 2.0032849
103.03596 42.166534 1.79087
104.83998 43.811169 3.273535
103.15439 44.24744 1.744671
103.31955 44.49091 3.195313
103.19547 45.229359 1.807544
103.3204 48.960457 3.4138169
103.15001 48.881714 1.839735
103.76086 49.047966 3.115324
103.74012 49.096657 2.2074449
104.60332 49.063755 2.2615471
103.76972 49.100086 1.838272
