# .PCD v0.7 - Point Cloud Data file format
VERSION 0.7
FIELDS x y z
SIZE 4 4 4
TYPE F F F
COUNT 1 1 1
WIDTH 1521
HEIGHT 1
VIEWPOINT 0 0 0 1 0 0 0
POINTS 1521
DATA ascii
120.88419 -219.77176 -7.96736
121.57211 -219.62894 -8.2305393
123.17595 -219.76228 -8.6034012
128.48299 -219.74785 -9.3711777
121.1139 -219.75549 -9.6209278
128.23639 -219.62627 -9.6787395
121.26051 -219.65015 -9.9099903
127.49429 -219.75066 -9.8711901
127.07332 -219.63037 -10.189155
127.50176 -219.6824 -10.096344
121.39282 -219.64581 -10.296131
138.74081 -219.48535 -3.188904
125.49149 -219.45758 -3.386102
127.75266 -219.40283 -3.344281
130.37091 -219.48982 -3.396709
136.45259 -219.43762 -3.3550031
136.67038 -219.46826 -3.322567
128.5033 -219.51779 -3.410445
130.88112 -219.51952 -3.423202
131.1189 -219.52713 -3.4176121
125.19418 -219.57111 -3.775136
123.12163 -219.45554 -3.8677821
120.24891 -219.54376 -4.5376759
121.51868 -219.49689 -4.6636
121.16636 -219.57179 -6.0290341
121.17108 -219.49496 -7.9767489
121.6535 -219.51479 -8.1853237
121.50531 -219.54796 -9.0729876
121.38219 -219.43239 -9.6585159
121.46037 -219.50082 -9.8426437
126.79409 -219.40494 -10.13799
121.3289 -219.50919 -10.275009
124.60493 -219.4335 -10.238682
126.45404 -219.31006 -3.3895099
126.62804 -219.3956 -3.314981
130.04202 -219.27597 -3.3871419
132.02567 -219.29984 -3.313581
132.68929 -219.30765 -3.366533
133.84366 -219.37975 -3.3713541
139.11432 -219.26828 -3.2841959
125.50024 -219.27026 -3.4297509
128.05426 -219.3192 -3.4185309
129.5094 -219.2681 -3.4167819
125.75529 -219.25085 -3.7371311
121.84998 -219.33435 -4.5618458
120.62003 -219.39415 -4.7515979
134.05394 -219.3205 -4.9690428
120.71211 -219.39789 -5.0134158
121.31863 -219.24716 -5.0513449
120.73096 -219.35748 -7.9479818
128.19168 -219.28723 -8.0973406
120.19096 -219.23657 -8.567688
127.9023 -219.24484 -8.4744616
128.46678 -219.23805 -9.0053711
128.21759 -219.25623 -9.3380308
127.95804 -219.37033 -9.5069971
121.79631 -219.33025 -9.9059048
126.68163 -219.31952 -9.8963842
125.76553 -219.36386 -10.317248
121.4276 -219.36641 -10.548388
125.87058 -219.38373 -10.567907
138.71173 -219.07365 -3.1726019
130.77386 -219.16512 -3.369303
130.92746 -219.09055 -3.377136
131.06392 -219.16113 -3.374289
131.27722 -219.08595 -3.381979
132.20465 -219.09909 -3.3184659
137.3502 -219.18535 -3.3020589
139.38474 -219.0072 -3.3509941
123.34619 -219.0332 -3.549597
125.8343 -219.12883 -3.45029
120.19816 -219.07082 -4.485642
122.44221 -219.14609 -4.4482861
121.07402 -219.11852 -4.6839709
121.21432 -219.14359 -5.041225
120.17802 -219.10321 -8.3351431
120.50894 -219.04886 -8.2357445
125.65511 -219.12099 -8.2501659
128.01303 -219.16135 -8.3028316
123.52299 -219.10965 -8.5272484
125.39333 -219.15656 -8.6120195
125.95243 -219.10585 -9.5774822
127.11401 -219.19588 -9.5744133
121.81855 -219.16946 -9.784833
128.12279 -219.09785 -9.7160091
122.0058 -219.11716 -9.8669987
127.39432 -219.10309 -9.830162
121.92189 -219.0416 -10.206349
122.18082 -219.0009 -10.253971
122.06949 -219.04097 -10.435992
125.9093 -219.10745 -10.58786
128.23013 -218.82806 -3.3984129
129.84637 -218.93939 -3.3572459
137.40639 -218.96625 -3.2806151
138.25485 -218.88277 -3.230221
138.83356 -218.99158 -3.2900131
125.09218 -218.94218 -3.451664
125.89365 -218.88947 -3.439013
128.7196 -218.89233 -3.4125161
129.87378 -218.99333 -3.4000151
130.63599 -218.92276 -3.407552
122.82434 -218.90581 -3.9051411
139.3663 -218.8427 -3.9022119
122.09672 -218.86607 -4.4796419
121.12547 -218.92513 -4.646903
139.38315 -218.84796 -5.3159742
139.72646 -218.85016 -5.3877058
139.69312 -218.86169 -5.4520702
139.29901 -218.82581 -5.6992192
120.23275 -218.95471 -8.4790754
126.77576 -218.99567 -9.8581657
122.48339 -218.81372 -10.361406
126.5253 -218.87996 -10.289253
127.76109 -218.87018 -10.891094
128.08304 -218.84592 -10.954966
122.06316 -218.80212 -11.422763
138.64789 -218.6666 -3.18858
126.25668 -218.69073 -3.3787849
128.27657 -218.65652 -3.3610871
131.65793 -218.60472 -3.3637359
134.73032 -218.61594 -3.3064761
136.27826 -218.66397 -3.3093231
137.7364 -218.72171 -3.2900889
125.69505 -218.73001 -3.4491429
127.13452 -218.647 -3.5300219
129.76144 -218.69815 -3.4168279
129.8663 -218.71307 -3.4344299
139.28375 -218.67577 -3.511131
139.50056 -218.69667 -3.4988639
139.38306 -218.71765 -3.6899481
139.55687 -218.75815 -3.8918419
139.36386 -218.68971 -4.1369758
121.30606 -218.71158 -4.5388789
139.42584 -218.72447 -4.485229
139.15231 -218.69638 -5.5066471
139.34654 -218.73212 -5.71277
139.43723 -218.68964 -5.7455239
139.43861 -218.75427 -6.3017201
139.43927 -218.63187 -6.634418
139.41806 -218.61227 -7.0791001
138.88321 -218.63091 -7.25068
121.3494 -218.6799 -8.2870064
121.48826 -218.63782 -8.2545662
121.34184 -218.679 -8.9675951
121.84288 -218.68987 -9.4382086
125.16171 -218.65372 -9.8285341
122.52299 -218.6192 -10.386697
126.65594 -218.68341 -10.324678
139.56116 -218.53958 -3.148989
126.10365 -218.57623 -3.3786199
128.5054 -218.47905 -3.376368
129.70737 -218.43973 -3.3728659
133.91742 -218.59354 -3.323849
138.13397 -218.59479 -3.2501831
125.25124 -218.46133 -3.4766369
127.12706 -218.50412 -3.516618
128.74596 -218.50957 -3.4047761
129.09663 -218.48433 -3.41785
129.82184 -218.58197 -3.427145
126.78562 -218.56345 -3.852144
120.31328 -218.48717 -4.2629442
120.50154 -218.49628 -4.2887869
122.52097 -218.57309 -4.2832952
127.2789 -218.517 -4.2945838
139.13847 -218.46629 -4.5852432
130.97325 -218.50516 -4.7986331
127.25938 -218.48445 -4.9238491
134.87328 -218.58324 -4.9319372
139.46652 -218.58507 -4.921658
127.02261 -218.4838 -5.4313021
139.50989 -218.56914 -5.7588911
127.30633 -218.40512 -5.823523
127.07134 -218.4662 -6.467042
139.18175 -218.40875 -6.4405832
139.41342 -218.59207 -6.5377431
127.43217 -218.49814 -7.2161789
128.12245 -218.43031 -8.1458492
128.97623 -218.54698 -8.0633106
128.90463 -218.48543 -8.5338364
121.34963 -218.40689 -8.6051769
123.71129 -218.55096 -8.7659245
121.16356 -218.51567 -8.9966621
121.27384 -218.52374 -9.387702
128.59625 -218.4577 -9.2924662
125.39377 -218.53519 -9.7727966
121.42743 -218.55994 -9.9101686
125.03841 -218.46458 -10.421831
123.54265 -218.56258 -10.689625
138.17517 -218.27965 -3.192225
128.1149 -218.2728 -3.358434
137.72849 -218.30362 -3.248019
138.18787 -218.34436 -3.2436261
138.62297 -218.26559 -3.2302251
127.34607 -218.36931 -3.5600729
127.82348 -218.26591 -3.4071641
128.23401 -218.23376 -3.424026
120.53671 -218.29138 -4.160491
121.49572 -218.34201 -4.2902799
127.28857 -218.39124 -5.7711959
138.67776 -218.36253 -5.7031102
139.01375 -218.36555 -5.6504312
121.62765 -218.33937 -8.4926796
128.65503 -218.38083 -8.5976658
128.5047 -218.34647 -9.3086624
128.9599 -218.34424 -9.2452412
121.15936 -218.24342 -9.4095402
121.95284 -218.29333 -9.44063
123.29488 -218.20355 -9.5489492
121.31242 -218.25919 -9.6955318
127.47693 -218.21248 -9.7742119
122.60614 -218.28294 -9.863575
125.43617 -218.2305 -9.9166851
121.28518 -218.30716 -10.167782
125.03764 -218.34431 -10.456062
128.16302 -218.3429 -10.520428
128.25211 -218.33229 -10.537424
126.72144 -218.12141 -3.3685279
128.48819 -218.10683 -3.372601
133.42139 -218.15741 -3.3310809
134.63788 -218.12195 -3.312676
135.43594 -218.18002 -3.309319
138.27237 -218.15228 -3.2393119
122.62253 -218.08972 -3.564687
126.79934 -218.00839 -3.41521
127.89719 -218.16559 -3.432251
124.96223 -218.02124 -3.79737
121.49417 -218.11732 -3.9367161
121.69162 -218.07835 -3.885406
125.05055 -218.02066 -3.918345
121.65533 -218.144 -4.0098219
121.77307 -218.0916 -8.7167034
121.87709 -218.05362 -8.9627934
121.29387 -218.01198 -9.5706348
122.51998 -218.15967 -9.4551773
123.37953 -218.08066 -9.6586857
127.38741 -218.17429 -10.19691
128.63336 -218.15778 -10.061367
129.09883 -218.09244 -10.31682
127.36423 -218.13617 -10.543385
126.1114 -218.18338 -10.783373
127.83688 -218.11871 -10.61498
128.05032 -218.04565 -10.865905
139.50916 -217.82936 -3.1189289
125.62952 -217.83266 -3.3945861
126.90775 -217.9456 -3.3796339
129.77293 -217.81555 -3.3345611
122.21636 -217.86975 -3.550339
123.28896 -217.81073 -3.4769909
125.68633 -217.92145 -3.4517829
125.85667 -217.90009 -3.434622
126.33424 -217.97099 -3.452172
120.63467 -217.83627 -3.640419
124.98581 -217.92511 -3.6777129
125.25996 -217.8335 -3.9365799
122.87907 -217.9368 -8.5155277
121.81555 -217.9097 -8.7605896
122.67653 -217.90332 -8.7313709
122.66548 -217.87808 -9.0383492
122.52628 -217.94402 -9.4137144
128.89073 -217.88779 -9.8615417
124.90485 -217.9061 -10.497733
128.13644 -217.86514 -10.505524
129.29977 -217.91888 -10.440403
120.1178 -217.75745 -3.5741279
121.84271 -217.68169 -3.495774
129.52661 -217.62271 -3.8452749
125.25179 -217.72734 -4.1081328
127.80405 -217.64787 -9.1508179
126.52917 -217.66437 -9.9298
127.83337 -217.79059 -10.229626
125.11198 -217.60864 -10.846311
132.09964 -217.40654 -3.1881399
136.17973 -217.44527 -3.198524
139.94061 -217.41895 -3.073144
126.73705 -217.43802 -3.35587
127.38059 -217.45355 -3.3368161
135.86249 -217.52156 -3.271265
137.37013 -217.41579 -3.214349
122.90614 -217.57138 -9.0677357
127.85631 -217.47525 -9.3437357
121.43201 -217.50372 -9.8288078
127.37884 -217.49818 -10.567754
125.73721 -217.58478 -10.648325
137.02737 -217.30838 -3.1637161
139.07742 -217.31342 -3.1513381
124.26791 -217.3933 -3.38481
130.17523 -217.37914 -3.268245
130.6078 -217.33646 -3.285825
136.59647 -217.36563 -3.255764
126.81211 -217.30746 -9.4077377
139.94926 -217.24277 -9.6665726
128.66606 -217.28067 -9.8391838
126.2067 -217.31551 -10.023514
126.60236 -217.36992 -10.052133
130.19643 -217.03156 -3.2780049
131.84552 -217.11266 -3.292311
132.6702 -217.02328 -3.22157
121.80681 -217.03293 -3.413588
139.92043 -217.03452 -3.6869111
126.82961 -217.18109 -9.3314142
139.53915 -217.00166 -9.8681993
139.95129 -217.02243 -10.083593
126.21216 -217.08447 -10.47611
126.65329 -217.05083 -10.660521
128.06064 -217.13885 -11.447205
129.07065 -216.99768 -3.318275
131.37634 -216.98041 -3.3022511
132.3499 -216.86902 -3.278127
132.63759 -216.862 -3.2749691
134.56166 -216.97174 -3.2421751
134.92856 -216.89767 -3.2557011
134.9765 -216.95189 -4.2177629
128.45456 -216.8172 -9.0164719
128.27228 -216.95715 -9.3264952
129.10208 -216.93202 -9.791337
129.29883 -216.94202 -9.7238827
127.10941 -216.90359 -9.8881655
127.28736 -216.97203 -9.9382744
128.31039 -216.87508 -9.9327984
127.82465 -216.8821 -10.112823
128.47968 -216.87541 -10.069724
139.5358 -216.92734 -10.226727
139.75381 -216.93851 -10.615276
139.93805 -216.93623 -10.701103
138.19957 -216.85983 -12.393811
128.94781 -216.62048 -3.2631209
135.40115 -216.65337 -3.237582
121.54033 -216.6039 -3.4069281
139.53189 -216.69312 -3.441474
139.55194 -216.76656 -3.626029
127.00488 -216.71661 -4.794733
129.01115 -216.66592 -4.612586
128.8925 -216.75887 -9.6707888
127.31345 -216.76617 -10.094733
128.26566 -216.77502 -10.077198
126.35548 -216.66824 -10.517507
128.08961 -216.70729 -10.759508
129.28845 -216.75739 -10.757965
128.69315 -216.7413 -10.864845
139.53406 -216.66202 -10.821352
138.43219 -216.78386 -12.435776
137.52563 -216.58757 -3.1672249
125.15211 -216.52171 -3.3816121
128.66237 -216.59497 -3.2771499
135.75208 -216.51852 -3.2248271
136.62462 -216.48564 -3.2180569
139.40402 -216.57576 -3.6500549
137.88 -216.403 -9.7065496
139.71397 -216.49149 -10.574446
139.90921 -216.52426 -11.065188
132.18037 -216.21875 -3.1846521
133.8145 -216.38799 -3.1274121
135.83826 -216.26654 -3.164994
137.34741 -216.25697 -3.175144
137.8002 -216.22975 -3.156117
124.67145 -216.20439 -3.352777
129.38271 -216.22188 -3.277498
139.84549 -216.29568 -3.645052
121.27567 -216.22475 -9.339982
139.53436 -216.29655 -10.339801
139.47862 -216.31593 -10.904877
120.48036 -216.31998 -11.330014
132.354 -216.14052 -3.184262
132.48566 -216.02753 -3.179446
132.8412 -216.0816 -3.187866
134.24239 -216.14331 -3.1115119
139.06345 -216.1337 -3.1520691
124.20441 -216.10434 -3.3728459
129.7639 -216.12126 -3.2832201
132.93867 -216.18738 -3.2372401
138.30855 -216.12645 -9.2230797
137.88486 -216.10849 -9.4377098
137.69084 -216.07123 -9.9522524
138.08426 -216.07387 -9.9557781
137.95251 -216.1209 -10.041011
138.11772 -216.11646 -10.13431
126.5798 -216.10786 -10.990185
139.14673 -216.10321 -10.898864
126.29408 -216.00693 -11.125714
139.86948 -216.12405 -11.481306
137.92371 -216.01425 -12.624756
136.97319 -215.81273 -3.1852019
138.45309 -215.96941 -3.131855
120.67083 -215.84741 -3.386369
131.45123 -215.82364 -3.2628269
133.41196 -215.82074 -3.212889
136.99954 -215.94362 -3.204787
127.75291 -215.94911 -4.5838599
127.52934 -215.90251 -9.3146381
127.74171 -215.94951 -9.7696581
137.68515 -215.95314 -9.6008301
138.78133 -215.93449 -9.9063454
138.28006 -215.88446 -10.488838
139.46054 -215.87262 -10.686148
121.85478 -215.95656 -10.895207
139.54008 -215.83032 -11.034996
139.88451 -215.96669 -11.343143
139.94455 -215.86581 -11.72956
134.93703 -215.71779 -3.1147621
137.30748 -215.75656 -3.1618309
138.78381 -215.67049 -3.1784029
139.09171 -215.71684 -3.1414461
126.5671 -215.75851 -3.3192229
130.11606 -215.73227 -3.2422769
131.45847 -215.75331 -3.251375
134.26532 -215.71515 -3.211772
121.04114 -215.76611 -9.4198275
137.96355 -215.79489 -10.387468
138.1626 -215.78142 -10.545847
122.8629 -215.67496 -11.040102
138.98589 -215.60643 -11.657076
138.33521 -215.7397 -12.974701
138.8945 -215.49956 -2.9391091
130.25938 -215.48166 -3.199419
132.36656 -215.45737 -3.1855991
132.51584 -215.44101 -3.1779881
134.1286 -215.47914 -3.1359789
126.12791 -215.472 -3.3209591
131.388 -215.42952 -3.2334111
132.51343 -215.42868 -3.2125571
133.45287 -215.51266 -3.2077391
135.00281 -215.5097 -3.2163229
137.51927 -215.55138 -9.1137953
120.98964 -215.41336 -9.4978104
127.48923 -215.44788 -9.6732168
128.10991 -215.53156 -9.9931383
137.69888 -215.47736 -9.8745728
128.09955 -215.47205 -10.047729
137.85722 -215.45529 -10.105389
138.99361 -215.54295 -10.28196
138.51306 -215.5567 -10.684883
138.72292 -215.44217 -11.010503
139.63565 -215.53242 -11.00127
139.82082 -215.50691 -11.476649
132.57457 -215.37329 -3.1667981
136.1725 -215.32498 -3.1209741
128.87183 -215.30234 -3.2616539
132.78064 -215.38914 -3.206224
127.01662 -215.31134 -9.3094759
138.03729 -215.25449 -10.427216
136.76414 -215.21754 -11.193303
139.60852 -215.35681 -12.327116
136.69507 -215.11299 -3.1167741
137.0338 -215.02435 -3.069531
137.71173 -215.1073 -3.06426
130.24442 -215.00656 -3.2190211
127.02286 -215.13739 -9.1126881
127.07269 -215.13689 -9.4554119
137.96574 -215.0742 -10.278999
138.14305 -215.04214 -10.976194
138.28523 -215.02661 -10.896158
136.65314 -215.09561 -11.098873
137.49019 -215.12503 -11.525149
137.81401 -215.04031 -11.760956
137.3208 -214.89442 -3.1193299
124.66315 -214.94455 -3.3067601
139.6842 -214.9043 -3.252866
139.69229 -214.82812 -3.4685991
120.99634 -214.90547 -9.4319801
138.09058 -214.99469 -10.213303
137.5181 -214.93475 -10.695921
128.26215 -214.96289 -10.915964
136.54169 -214.93094 -11.118509
138.32788 -214.83408 -11.134991
138.00447 -214.89372 -11.575261
139.0051 -214.98587 -11.930702
139.84381 -214.98395 -12.073899
130.6758 -214.7009 -3.192327
136.2323 -214.63214 -3.1071119
120.9144 -214.66656 -3.3247271
121.85771 -214.67996 -3.3275361
123.38921 -214.70834 -3.3187151
123.82837 -214.66708 -3.287961
124.57247 -214.69849 -3.2676461
122.42208 -214.74011 -3.652056
139.6998 -214.64717 -3.7546599
123.80745 -214.64072 -4.124989
139.81552 -214.65649 -4.0622482
139.83727 -214.74722 -4.2969322
139.85178 -214.6958 -4.5436592
139.74413 -214.71176 -5.183207
139.51424 -214.6199 -6.1018338
123.47284 -214.70464 -11.00289
136.98514 -214.60266 -11.021446
139.04695 -214.65662 -11.339542
136.21191 -214.73636 -11.562321
139.39287 -214.64307 -11.509357
138.48659 -214.71135 -11.797003
137.07056 -214.76715 -12.237221
138.56389 -214.70944 -12.289526
139.56949 -214.62213 -12.326484
137.47005 -214.6581 -12.576269
129.92941 -214.50916 -3.1962619
135.88921 -214.59045 -3.1571491
139.25043 -214.48358 -3.1493549
130.97221 -214.57213 -3.2094469
139.60793 -214.59315 -3.254113
139.62216 -214.54068 -3.5938201
139.52411 -214.50806 -3.76702
139.51666 -214.43373 -3.9005761
139.62668 -214.59497 -3.9853809
139.53792 -214.49304 -4.2939181
139.69046 -214.57272 -4.2881079
139.55914 -214.45746 -4.9511838
139.52756 -214.49396 -5.0920501
139.5107 -214.47659 -5.249115
139.91075 -214.52626 -5.673665
139.56976 -214.4548 -5.868948
139.71823 -214.52031 -6.2939858
139.96739 -214.43166 -6.277318
139.67084 -214.4646 -6.6866159
139.71094 -214.46725 -7.077569
139.5538 -214.41623 -7.2195282
139.88329 -214.47591 -7.249289
139.54048 -214.45267 -7.500958
139.48152 -214.47644 -8.1153507
137.89043 -214.44125 -8.4763317
138.17487 -214.4007 -8.6637678
139.68588 -214.46869 -8.6014099
139.70064 -214.49275 -8.8965492
139.88316 -214.58519 -8.8483105
139.74878 -214.45728 -9.3634872
139.81017 -214.586 -9.2557011
139.57623 -214.52481 -9.8018332
138.86575 -214.41348 -10.776802
136.91528 -214.54822 -11.32612
138.08731 -214.55991 -11.521028
135.36229 -214.23982 -3.135519
139.45865 -214.35007 -3.1572249
120.98351 -214.24849 -3.2826159
122.69122 -214.21661 -3.2805059
122.94659 -214.25555 -3.261035
123.29194 -214.32581 -3.2894981
127.09521 -214.31033 -3.2233319
129.51678 -214.22639 -3.2070551
129.91537 -214.27884 -3.206517
139.97211 -214.27621 -3.3085999
139.25861 -214.29584 -3.749979
139.47089 -214.32454 -3.921385
139.61972 -214.30655 -3.9386461
120.15279 -214.20076 -4.014174
139.08026 -214.22578 -4.1143088
139.51717 -214.28397 -4.1153278
139.48773 -214.31827 -4.3013721
139.51001 -214.25758 -4.9689932
139.72592 -214.2982 -5.1113281
139.526 -214.29834 -5.3014121
139.88422 -214.2598 -5.3248448
139.9108 -214.24973 -5.9186449
139.64455 -214.24341 -6.3168421
139.80093 -214.33423 -6.4533238
139.6824 -214.27066 -7.375937
139.21057 -214.36806 -7.6456108
139.54619 -214.3399 -8.1076241
137.72205 -214.27226 -8.2310448
138.08946 -214.23555 -8.316473
139.1102 -214.20131 -8.2990704
137.76334 -214.28207 -8.5250244
139.74371 -214.21486 -8.5448666
137.72841 -214.31766 -8.6195107
139.52565 -214.21484 -8.669425
137.26013 -214.23393 -8.8458023
137.71263 -214.27301 -8.9054461
137.75638 -214.24368 -9.0611439
139.51593 -214.25774 -9.0468206
139.91747 -214.30434 -9.0909996
138.16338 -214.33673 -9.7483969
138.44078 -214.31308 -10.194956
139.73483 -214.33235 -10.284333
139.50864 -214.29617 -11.754332
139.83009 -214.30565 -11.857291
139.43524 -214.20979 -12.09067
139.90897 -214.2652 -12.061813
139.73315 -214.37692 -13.327412
132.51942 -214.12585 -3.128211
138.44753 -214.05771 -3.03388
139.76152 -214.09125 -3.309541
139.13516 -214.06847 -4.1699619
139.84323 -214.13461 -4.2922969
139.10178 -214.16632 -4.9014039
139.42894 -214.19141 -5.1222801
139.68201 -214.11792 -5.0747638
139.58791 -214.10033 -5.940392
139.12531 -214.16542 -7.079895
139.46918 -214.15759 -7.0371799
137.65308 -214.13351 -8.3084488
137.87711 -214.19983 -9.0831966
139.03384 -214.0632 -9.0004768
120.69765 -214.0574 -9.7479191
137.81442 -214.08267 -9.7249689
138.64658 -214.01703 -9.6189308
139.07022 -214.06313 -9.6985455
139.33183 -214.10547 -10.174321
138.46945 -214.12805 -11.471476
127.75133 -213.90915 -3.1489589
128.1088 -213.84369 -3.1360979
129.20044 -213.96074 -3.1315639
132.47968 -213.84415 -3.100322
138.66998 -213.85278 -3.053957
139.83379 -213.88229 -3.0645981
124.46102 -213.87703 -3.2278681
139.82687 -213.9798 -6.9450102
138.99933 -213.95738 -7.1215272
139.56873 -213.98793 -8.2301483
138.15796 -213.92264 -8.6659546
137.33321 -213.94504 -8.9683599
137.41757 -213.99509 -8.8911324
137.14731 -213.94081 -9.2141314
139.33234 -213.9585 -10.647507
138.29965 -213.87869 -11.45957
123.04565 -213.64651 -3.1912129
125.50436 -213.70174 -3.1601281
128.53091 -213.78966 -3.1224451
129.31451 -213.68518 -3.117121
134.22705 -213.73438 -3.1139269
134.70558 -213.7859 -3.120312
137.38246 -213.65782 -3.083461
137.95514 -213.60333 -3.0603039
139.79675 -213.74428 -3.0182481
120.08858 -213.73723 -3.265424
121.39247 -213.72571 -3.2661531
128.82718 -213.79665 -3.4507539
128.98538 -213.78278 -4.147934
128.61873 -213.69157 -4.2549868
122.85038 -213.6272 -5.32231
136.72318 -213.66457 -8.9181929
137.86057 -213.72806 -8.9827156
138.48346 -213.79375 -8.9772406
138.31128 -213.78731 -9.0920544
123.52924 -213.77155 -9.7675161
123.66709 -213.74463 -9.7331676
121.76939 -213.62288 -9.8283834
123.06744 -213.78055 -9.8433933
121.9014 -213.74493 -10.131836
121.59189 -213.6149 -10.505829
122.68131 -213.64764 -10.510744
138.32761 -213.70488 -10.667658
138.65765 -213.71123 -11.334826
138.68665 -213.66881 -12.852804
129.68854 -213.42839 -3.0866749
133.01981 -213.46848 -3.132633
122.30888 -213.54172 -3.2389901
129.1257 -213.50777 -3.4721379
130.46484 -213.47299 -3.4513431
130.08102 -213.479 -3.733813
121.71152 -213.58237 -9.8320112
138.11282 -213.40746 -9.9208031
122.22739 -213.54991 -10.020683
122.9686 -213.5092 -10.255822
122.3696 -213.51704 -10.50325
122.96073 -213.42136 -10.634274
139.40678 -213.43195 -12.100082
138.59068 -213.34457 -2.9919281
122.29288 -213.28915 -3.1819351
127.43608 -213.27312 -3.1636
129.47037 -213.3049 -3.1133609
133.51134 -213.37254 -3.1692431
136.70747 -213.38843 -3.101151
137.80408 -213.39185 -3.0255139
130.85278 -213.25433 -3.4105289
130.39542 -213.36475 -3.6602399
130.28967 -213.33868 -4.174129
122.91164 -213.34445 -5.5382581
124.21554 -213.254 -6.2449389
137.71782 -213.3611 -9.5159359
120.80852 -213.3958 -9.8182926
137.55115 -213.3215 -9.9632149
121.73707 -213.37746 -10.210375
137.97401 -213.25574 -10.567472
138.59644 -213.38173 -10.664171
137.80994 -213.37357 -11.027208
138.45888 -213.20956 -12.009152
138.64886 -213.05881 -2.878124
139.74113 -213.09982 -2.9204431
126.7112 -213.14206 -3.1441841
130.33241 -213.04173 -3.0920579
131.65448 -213.05495 -3.099288
130.70456 -213.18544 -3.7886591
130.91922 -213.11931 -3.892817
137.66948 -213.06108 -10.288343
137.72818 -213.15752 -10.402569
139.01674 -213.10074 -10.55496
137.58424 -213.07986 -10.886788
138.54893 -212.82568 -2.974508
138.9642 -212.99274 -2.925169
121.43152 -212.92828 -3.176672
123.44452 -212.93678 -3.1351111
130.63307 -212.80771 -3.0992219
131.26721 -212.92374 -3.105304
132.22032 -212.96417 -3.110316
135.6691 -212.87404 -3.0650151
138.4892 -212.81697 -3.005043
120.20663 -212.91017 -3.201375
131.24048 -212.97379 -3.251946
131.16652 -212.98457 -3.527241
131.20612 -212.90979 -4.200788
122.76008 -212.88596 -5.93961
122.74148 -212.95406 -6.1044879
123.9496 -212.91586 -6.1157789
137.15668 -212.91698 -9.2733326
138.27197 -212.9502 -9.4696808
121.46201 -212.81572 -10.338157
139.36215 -212.93051 -10.295048
139.69363 -212.92044 -10.613656
122.21152 -212.98827 -10.837053
138.74272 -212.91505 -11.462861
125.26077 -212.70294 -3.0893061
131.4725 -212.68103 -3.34796
121.7266 -212.67203 -4.9818659
122.63489 -212.73273 -5.9068089
122.66634 -212.6411 -6.133194
123.97369 -212.75327 -6.0886922
138.09236 -212.75629 -9.0074615
138.88934 -212.61908 -9.712636
139.39252 -212.60579 -10.499629
123.80211 -212.7442 -10.883213
123.57799 -212.77806 -11.156693
130.91098 -212.52315 -2.9973979
137.4017 -212.57515 -2.9968929
139.29388 -212.54819 -2.978286
127.70115 -212.57088 -3.0330551
128.88824 -212.53265 -3.032378
129.19711 -212.44012 -3.031081
139.87402 -212.46965 -3.3480999
123.4868 -212.58665 -4.7073741
122.10872 -212.51724 -5.429749
122.74503 -212.45265 -6.0052862
123.72294 -212.54666 -6.0685372
125.55663 -212.53233 -6.0008349
139.42828 -212.52341 -8.7461834
138.95752 -212.45486 -9.1649828
139.71518 -212.55664 -9.3734026
138.96144 -212.49275 -9.4223089
121.44388 -212.56647 -10.638729
121.69093 -212.51965 -10.871712
139.40961 -212.54784 -11.559457
126.56802 -212.3111 -2.98755
129.41489 -212.25121 -2.9158361
139.73738 -212.30914 -2.944607
120.93648 -212.29886 -3.1211481
130.26968 -212.25125 -3.023752
131.42413 -212.30585 -3.0544879
133.81862 -212.30937 -3.0713351
134.9511 -212.39941 -3.0821669
139.39836 -212.36043 -3.043345
139.85272 -212.30658 -3.4380541
131.9115 -212.36011 -3.747786
131.44978 -212.27052 -3.9455881
131.92548 -212.37137 -3.9203539
132.15411 -212.35477 -3.8873789
124.17912 -212.29218 -4.9509592
123.87329 -212.26407 -6.1283879
124.0706 -212.23288 -6.099185
125.52948 -212.28304 -6.0644879
125.86633 -212.22438 -6.1679311
122.54657 -212.22314 -6.2047992
126.06006 -212.21318 -6.2397199
124.26135 -212.27496 -6.505506
139.01064 -212.2249 -9.7444334
122.89279 -212.27852 -10.89463
122.84625 -212.33659 -12.620173
125.29104 -212.13144 -2.9700551
125.89532 -212.15442 -2.934458
132.22379 -212.10869 -2.9933851
130.25732 -212.03244 -3.0127599
130.5033 -212.1068 -3.017158
135.44366 -212.12466 -3.0637431
135.72733 -212.17929 -3.0845039
139.86307 -212.1134 -3.3441501
122.57912 -212.03375 -5.1676812
123.39698 -212.12064 -5.4926991
124.65498 -212.16803 -6.1584392
125.54032 -212.1125 -6.072505
125.4655 -212.07645 -6.2194171
123.85974 -212.18224 -6.5022349
138.35432 -212.10219 -9.1385679
139.6402 -212.04474 -9.451685
121.72774 -212.07428 -10.586214
122.26314 -212.06833 -10.53056
125.36885 -211.97551 -2.9920349
126.33739 -211.98856 -2.983006
127.17855 -211.96704 -2.976192
129.42136 -211.8183 -2.977735
132.14111 -211.92191 -2.975807
122.07748 -211.82454 -3.0294931
130.41579 -211.82034 -3.0063169
132.48648 -211.89417 -3.033958
135.86212 -211.83209 -3.0296891
127.77876 -211.92253 -3.4399631
128.1256 -211.88591 -3.4757321
139.58864 -211.87498 -3.4410119
128.11761 -211.94067 -3.6976249
128.32272 -211.80954 -3.8373449
124.71997 -211.93158 -5.1586642
124.61259 -211.93942 -5.3670888
123.11385 -211.88391 -5.759202
122.7184 -211.84694 -5.8693829
124.19379 -211.87683 -6.1766028
123.45203 -211.89709 -6.3499069
125.40208 -211.9093 -6.2347388
123.33423 -211.82211 -6.428637
138.73663 -211.86751 -9.1808319
139.31769 -211.96313 -9.0680332
121.52586 -211.8898 -10.73328
123.9065 -211.81454 -11.693064
130.30698 -211.75064 -2.931829
132.36246 -211.78722 -2.96576
120.28987 -211.67152 -3.041451
120.54375 -211.70111 -3.0417781
127.72321 -211.72321 -3.1557369
131.72058 -211.62024 -3.1022069
133.85834 -211.67773 -3.047596
125.80756 -211.63008 -3.2825329
127.812 -211.6785 -3.3620031
131.80894 -211.7843 -3.300467
139.61424 -211.78639 -3.4058869
131.73474 -211.74268 -3.749259
124.99397 -211.75494 -5.599751
125.11547 -211.60294 -5.414732
124.60958 -211.79781 -5.667685
122.35368 -211.76936 -5.834465
126.26651 -211.63329 -5.9746652
126.50182 -211.62897 -6.1867399
122.93274 -211.72633 -6.2275181
122.1852 -211.71814 -10.656172
137.89774 -211.66139 -11.084974
138.74808 -211.78342 -11.535731
138.99319 -211.77078 -11.699392
131.20038 -211.56673 -2.9502649
132.22282 -211.42123 -2.9470811
137.79124 -211.59151 -2.968565
139.11305 -211.40636 -2.926677
120.16873 -211.42368 -3.0488119
122.30257 -211.50708 -3.0633309
133.41794 -211.42509 -3.014184
135.76486 -211.44949 -3.021503
135.85555 -211.44223 -3.0148239
125.71724 -211.535 -3.362798
126.10909 -211.41548 -3.2711959
128.15497 -211.52905 -3.3136251
124.50555 -211.46698 -3.585165
125.6534 -211.54187 -3.4079361
127.84164 -211.41235 -3.4366419
128.12436 -211.53297 -3.4828069
131.53304 -211.50165 -3.4080601
131.66992 -211.54883 -3.50705
125.57059 -211.47348 -3.6970611
127.07154 -211.44748 -3.7175
128.24919 -211.52319 -3.6984589
128.35568 -211.51492 -3.875077
128.40187 -211.46594 -3.856353
129.10626 -211.52502 -3.8425879
131.66544 -211.56015 -3.9273829
120.91273 -211.53107 -4.6644812
135.3502 -211.52202 -4.6348648
126.03864 -211.49484 -4.9793911
121.14253 -211.56786 -5.0223312
125.46432 -211.47589 -5.1193142
125.686 -211.50356 -5.091176
126.06639 -211.44882 -5.0381718
125.40601 -211.48959 -5.261857
121.83415 -211.47469 -5.4368382
123.53429 -211.42206 -5.5349202
121.24748 -211.45349 -5.6135931
122.14993 -211.44368 -5.7258468
122.9301 -211.41757 -5.7066469
122.5228 -211.47594 -6.1906338
125.15737 -211.47189 -6.0908079
121.89692 -211.47113 -6.6560192
122.14375 -211.47784 -6.64292
122.88778 -211.50056 -7.8386631
137.84375 -211.48505 -11.37965
124.16023 -211.44928 -11.741334
131.56244 -211.24355 -2.912215
134.18274 -211.30551 -2.9838841
139.43671 -211.3297 -2.978647
120.90525 -211.34247 -3.1734869
126.28767 -211.31668 -3.0766649
127.35361 -211.34796 -3.0880461
120.93907 -211.30954 -3.3358591
121.08672 -211.21745 -3.208895
123.35945 -211.20433 -3.2641599
125.52877 -211.34796 -3.3165419
126.74934 -211.27655 -3.2691801
120.74731 -211.3911 -3.5088251
121.24204 -211.27658 -3.457834
123.134 -211.22801 -3.4265881
123.36014 -211.2811 -3.4157979
123.51656 -211.25537 -3.5014341
124.82555 -211.24936 -3.529181
126.14631 -211.34088 -3.5162649
129.32703 -211.32596 -3.5026629
129.8551 -211.32005 -3.54144
125.73036 -211.32993 -3.7617469
129.53023 -211.35133 -3.743484
129.30481 -211.30278 -3.8610189
123.86118 -211.37482 -5.7190728
124.2585 -211.29773 -5.9405961
125.13695 -211.24747 -5.9597168
125.23073 -211.28419 -5.9455891
125.3774 -211.24872 -6.2342238
125.40898 -211.22215 -6.373394
123.22197 -211.35587 -6.4939981
125.07473 -211.27328 -6.5849028
124.43813 -211.3353 -7.0115981
123.3231 -211.24707 -7.9728708
124.904 -211.07716 -3.1027191
126.10862 -211.13058 -3.126586
126.51591 -211.11588 -3.1108789
132.8985 -211.06053 -3.054877
136.98221 -211.05833 -3.005542
121.25729 -211.05981 -3.3617959
123.07225 -211.09106 -3.392134
123.39964 -211.19255 -3.272342
127.42661 -211.11758 -3.3543799
127.77701 -211.09108 -3.3186829
123.46684 -211.10262 -3.4588139
125.50294 -211.0808 -3.4397371
125.74202 -211.02081 -3.5392721
125.88069 -211.0817 -3.4618559
123.08449 -211.00859 -3.6812871
123.34118 -211.05859 -3.792793
125.53077 -211.07115 -3.7164149
125.74313 -211.0999 -3.706809
126.73521 -211.08398 -3.7519419
127.11305 -211.11673 -3.7108181
128.14386 -211.15466 -3.7030759
128.60629 -211.1881 -3.6513629
127.11471 -211.05652 -3.821805
128.4801 -211.15518 -3.8510189
134.62955 -211.15369 -4.6128192
125.58154 -211.04315 -5.0071421
121.0862 -211.06468 -5.2919779
123.24655 -211.07614 -5.3693528
121.5057 -211.02902 -5.6977959
123.15414 -211.01741 -5.941565
122.89894 -211.09756 -6.1003799
123.2254 -211.01802 -6.478837
125.42297 -211.13965 -6.458004
123.1151 -211.1783 -6.6738
125.10745 -211.19765 -6.6608748
122.72365 -211.03609 -7.6613169
122.93665 -211.05005 -7.7533021
123.29453 -211.18539 -8.0380373
137.94119 -211.12292 -11.098037
138.27347 -211.16672 -11.187267
124.32857 -211.18234 -11.801481
130.45456 -210.94034 -2.949276
131.87271 -210.90701 -2.955755
138.69089 -210.9798 -2.9982109
121.68839 -210.97449 -3.115057
127.02358 -210.91463 -3.1541591
127.45245 -210.95462 -3.104651
128.69864 -210.91022 -3.056854
131.46478 -210.89224 -3.1210909
120.64058 -210.94511 -3.2715139
120.8502 -210.99318 -3.3056231
127.98753 -210.96022 -3.215178
131.38898 -210.81796 -3.3705969
120.9249 -210.95923 -3.458313
121.50137 -210.84749 -3.417002
127.79017 -210.95888 -3.592906
128.13556 -210.98293 -3.508358
128.63359 -210.87102 -3.4703071
129.09698 -210.93654 -3.595685
129.84898 -210.90236 -3.54862
130.09654 -210.84393 -3.549799
130.25867 -210.82971 -3.5450511
125.72818 -210.94717 -3.7140329
127.72963 -210.98495 -3.6304259
126.75967 -210.9635 -3.8048649
129.71118 -210.94034 -3.819145
120.7661 -210.99214 -5.1725888
125.95656 -210.90866 -5.1331182
122.17239 -210.97046 -5.3043981
123.99879 -210.80157 -5.4661179
125.748 -210.8681 -5.4633641
125.9281 -210.91005 -5.4648538
125.34872 -210.9926 -5.6052699
125.49736 -210.89645 -5.8492041
125.85983 -210.96228 -5.8876748
123.407 -210.86725 -6.226408
124.73367 -210.84361 -6.5085282
124.305 -210.96204 -6.9079881
122.48054 -210.89709 -7.1712422
122.70987 -210.97581 -7.5325079
122.87908 -210.91098 -7.4048629
122.99795 -210.8849 -9.9020977
123.06137 -210.91747 -10.760159
130.39395 -210.60384 -2.9914451
131.54602 -210.65036 -2.995841
135.38567 -210.66472 -2.9566801
137.82268 -210.77124 -2.9546161
138.5426 -210.77301 -2.923337
139.86069 -210.71976 -2.8413551
123.55023 -210.67145 -3.068001
124.5863 -210.60495 -3.165355
125.43275 -210.60147 -3.0810809
129.73538 -210.73547 -3.0710721
130.08275 -210.7478 -3.0483861
131.81699 -210.62172 -3.029825
122.98769 -210.68793 -3.3719089
125.33208 -210.62189 -3.2304981
128.30923 -210.69568 -3.382093
125.88924 -210.62311 -3.410466
130.26682 -210.78131 -3.426518
131.64056 -210.69971 -3.444128
120.66685 -210.68436 -3.640893
123.12795 -210.6181 -3.6697459
126.95164 -210.72244 -3.6439359
127.84377 -210.75467 -3.711369
120.03521 -210.73055 -3.897717
123.77956 -210.68001 -5.0614319
122.07352 -210.74008 -5.2879248
125.3092 -210.75 -5.447125
123.01476 -210.6776 -5.809238
124.0844 -210.69614 -6.5610819
123.73722 -210.62431 -6.7068372
124.71002 -210.62396 -6.8782992
124.96838 -210.66554 -6.8387561
122.56982 -210.70709 -7.2734108
124.23146 -210.79088 -11.150585
136.10938 -210.54483 -2.9683959
136.98242 -210.53212 -2.9176891
138.16302 -210.57446 -2.9719479
122.89177 -210.48563 -3.18698
125.43864 -210.57643 -3.089359
130.67508 -210.54247 -3.006671
132.93193 -210.52719 -3.0209529
120.57298 -210.52699 -3.2987051
125.11612 -210.58963 -3.3817999
131.76028 -210.54117 -3.2979801
131.84525 -210.4733 -3.334125
131.82574 -210.46561 -3.471004
122.99815 -210.52687 -4.900063
125.11702 -210.5919 -5.381619
126.1033 -210.52982 -5.3100052
126.25966 -210.45096 -5.210146
125.51095 -210.52585 -5.7381248
122.64642 -210.48283 -5.8042121
125.49945 -210.47014 -6.1797628
125.5461 -210.59445 -6.2085629
123.38597 -210.50671 -6.4263358
120.97232 -210.4798 -7.1128769
122.56883 -210.53027 -7.149766
123.25429 -210.43378 -7.1733241
124.16427 -210.55696 -7.1032162
121.93405 -210.49286 -7.2744241
122.31886 -210.42671 -7.4657931
122.23349 -210.42055 -7.735713
123.07217 -210.5358 -9.4085312
122.97027 -210.57822 -11.027657
121.51116 -210.40617 -11.286757
130.22388 -210.29993 -2.976083
135.37808 -210.2269 -2.961031
139.45032 -210.3515 -2.888767
139.84769 -210.29848 -2.834316
120.09996 -210.28604 -3.116087
122.58115 -210.3237 -3.125073
121.12836 -210.36716 -3.296823
122.97678 -210.31198 -3.365201
123.28777 -210.2926 -3.5095229
120.22959 -210.3042 -3.6730151
123.00435 -210.21097 -4.2441282
135.44531 -210.24753 -4.5895729
125.07832 -210.25351 -5.1670399
122.85397 -210.20357 -5.7239752
123.92506 -210.37279 -6.2067428
124.17893 -210.21362 -6.3596692
121.30334 -210.24846 -7.0948572
121.42405 -210.22015 -7.0151482
121.9073 -210.23486 -7.2403688
122.11607 -210.24335 -7.2729502
122.54765 -210.36794 -7.4454842
121.98793 -210.38077 -7.8416948
123.72146 -210.38391 -9.367753
122.60098 -210.20494 -10.250785
139.87883 -210.06938 -2.798583
129.50204 -210.02892 -2.996366
135.78015 -210.18958 -2.9376349
139.03609 -210.09109 -2.8721189
139.38283 -210.14424 -2.844398
120.57935 -210.16278 -3.1092939
122.66666 -210.04703 -3.1397309
123.90735 -210.15324 -3.1046059
134.2177 -210.10716 -3.0081351
123.21219 -210.15678 -3.6769011
123.09941 -210.10983 -3.9151659
122.97354 -210.16837 -4.238328
120.8519 -210.09438 -5.4985032
122.54485 -210.03763 -6.1787028
125.34111 -210.13754 -6.1905851
124.89128 -210.12564 -6.3578558
125.75694 -210.14185 -6.353662
122.50697 -210.02151 -6.4091439
123.10423 -210.09721 -6.5727592
123.24461 -210.13791 -6.6173248
124.7525 -210.16348 -6.8251791
124.42191 -210.00014 -7.1094089
122.68564 -210.08035 -9.0333385
122.6894 -210.15698 -10.546001
123.28804 -210.15141 -11.016396
132.22137 -209.81268 -2.9740701
135.43829 -209.84058 -2.9871049
136.67621 -209.90659 -2.939955
121.49816 -209.9054 -3.0976801
131.97656 -209.89151 -3.313508
131.97742 -209.88681 -3.44994
120.65693 -209.83498 -5.3744631
124.25059 -209.88477 -5.3345919
120.98537 -209.9278 -5.5430589
121.03226 -209.81021 -5.6287332
121.78492 -209.80347 -5.7385931
122.15784 -209.93103 -5.7384601
125.29802 -209.90005 -6.1613898
122.51873 -209.94624 -6.2515159
124.88627 -209.96999 -6.3026791
121.82584 -209.81393 -6.4794059
123.4165 -209.83733 -6.567111
125.78087 -209.9758 -6.4676218
124.23482 -209.81381 -6.6630821
122.70004 -209.96454 -6.9011321
122.27371 -209.88077 -7.1011372
124.1734 -209.87599 -7.006228
122.72124 -209.98694 -9.3985205
122.09141 -209.81815 -10.950916
131.66745 -209.62494 -2.989625
135.10339 -209.72467 -2.9794829
136.97568 -209.76469 -2.902487
137.94092 -209.75089 -2.9032481
121.4104 -209.79614 -3.095588
125.47086 -209.72128 -3.0611119
130.12794 -209.76384 -3.001502
131.58305 -209.64232 -3.020247
132.03537 -209.68393 -3.1102171
124.61787 -209.74179 -4.9757099
120.27861 -209.63744 -5.1233301
122.14915 -209.78645 -5.4644051
125.24895 -209.78003 -5.6603022
124.36243 -209.66631 -5.828043
123.39043 -209.78792 -6.2943382
122.28349 -209.71451 -6.58707
122.51668 -209.79858 -6.462811
122.97243 -209.71957 -6.4582801
124.20514 -209.64369 -6.8944178
121.06443 -209.74518 -7.3321791
122.5214 -209.79236 -11.571318
130.242 -209.46547 -2.969167
131.84778 -209.44592 -2.998733
137.78316 -209.4136 -2.889924
123.18106 -209.46404 -3.1191969
132.1048 -209.48083 -3.051722
131.98724 -209.51602 -3.4609101
135.50262 -209.45822 -3.8963411
124.84515 -209.40501 -4.6637111
123.37202 -209.42386 -5.7149272
121.79089 -209.41803 -6.3474698
122.04559 -209.44675 -6.344872
123.68546 -209.59393 -6.5230808
123.85597 -209.48538 -6.6840372
121.36398 -209.452 -7.3940749
121.02928 -209.47644 -7.4873242
122.31755 -209.43295 -7.4531412
121.87935 -209.42905 -9.8755074
122.16451 -209.42018 -10.720432
122.7338 -209.41388 -10.815119
121.50842 -209.48187 -11.099529
121.85144 -209.4248 -11.022186
139.29219 -209.26501 -2.7967801
128.54562 -209.35135 -2.9869931
133.25626 -209.38185 -2.960695
134.20479 -209.38744 -2.9860189
135.11539 -209.23909 -2.970376
121.91084 -209.26193 -3.0801549
127.80408 -209.30971 -3.0206649
123.28721 -209.29114 -3.2001009
132.02536 -209.34222 -3.4277151
121.66961 -209.33917 -5.8420491
122.59289 -209.24619 -6.3948421
122.57623 -209.35156 -6.4433298
123.39369 -209.33711 -6.7519312
124.10232 -209.30797 -6.630692
123.45609 -209.23088 -7.3002882
122.51291 -209.28117 -7.4342861
121.91757 -209.3485 -7.7961078
122.80042 -209.21844 -7.7046471
121.1401 -209.29131 -10.290373
122.63243 -209.25949 -10.533219
130.27032 -209.01733 -2.9467061
139.00961 -209.13892 -2.881592
139.47552 -209.11053 -2.9049599
121.07662 -209.13348 -3.067605
125.69975 -209.06314 -3.09796
127.5031 -209.18582 -3.006387
128.10051 -209.06177 -3.0059371
131.88234 -209.12422 -3.036752
132.03246 -209.09276 -3.098598
131.99828 -209.05315 -3.2493069
124.68916 -209.02621 -4.4354649
125.04774 -209.01065 -5.3098159
124.88365 -209.09918 -5.463829
124.64035 -209.01056 -6.1399231
121.69295 -209.08957 -6.4915318
122.29259 -209.06937 -6.5084648
121.04983 -209.1366 -7.3112431
122.30353 -209.04041 -7.5153308
122.73048 -209.01825 -7.7766471
122.49356 -209.05544 -10.50861
126.92165 -208.99731 -2.9813671
129.77663 -208.96159 -2.9711759
131.87866 -208.9715 -2.9926109
135.03094 -208.94247 -2.9552209
135.42828 -208.98074 -2.9487989
136.93768 -208.91925 -2.875802
139.47238 -208.9256 -2.891094
128.50784 -208.95883 -3.0138471
123.99991 -208.90373 -5.473341
122.20108 -208.99042 -6.1643639
124.13911 -208.93307 -6.199183
121.34695 -208.86447 -6.45647
122.95013 -208.94608 -7.56671
123.39774 -208.94934 -7.7216001
123.51478 -208.97343 -7.7005868
122.24984 -208.90985 -9.9874477
130.90474 -208.69203 -2.9390631
132.53934 -208.78006 -2.972774
133.31271 -208.65103 -2.9739649
137.79675 -208.65373 -2.851558
139.4653 -208.67078 -2.866869
123.33992 -208.71375 -3.1564219
125.08183 -208.67094 -3.0492761
125.54637 -208.74765 -3.0446489
132.09894 -208.71112 -3.054626
124.36746 -208.65356 -5.400476
122.57972 -208.75232 -5.7080269
124.40154 -208.65973 -5.621244
124.70353 -208.79689 -5.7344298
124.17725 -208.67986 -6.1202321
124.2484 -208.72423 -6.0635948
129.36017 -208.42081 -2.9986041
131.76929 -208.44545 -2.9767239
132.60014 -208.43063 -2.9346409
135.04501 -208.58572 -2.8923609
139.5192 -208.51822 -2.8868091
120.254 -208.57298 -3.1396389
123.04507 -208.46254 -3.115298
124.90335 -208.56903 -3.0487511
128.332 -208.57434 -3.008142
132.06879 -208.52657 -3.30811
124.92673 -208.57118 -5.372992
122.89584 -208.42308 -6.2565608
123.77379 -208.47797 -7.3977432
123.84542 -208.49622 -7.3422322
123.84539 -208.48868 -7.4042878
122.18002 -208.53094 -10.106418
128.63828 -208.26358 -2.9667721
129.89536 -208.23724 -2.9749579
132.46869 -208.30145 -2.926754
133.3356 -208.29645 -2.9499581
138.20399 -208.32245 -2.8567581
139.0097 -208.22485 -2.8147819
139.92651 -208.27847 -2.854934
120.24261 -208.2198 -3.1301041
121.48351 -208.20474 -3.1065869
132.48758 -208.26302 -3.215903
132.10387 -208.23993 -3.4859729
122.4905 -208.22603 -5.9089499
123.0974 -208.26379 -7.3100071
127.34086 -208.1264 -2.9280839
128.44897 -208.01006 -2.908633
132.51155 -208.13879 -2.9644179
132.6169 -208.18895 -2.8525269
135.83942 -208.16541 -2.85464
136.6507 -208.18698 -2.8607061
138.22028 -208.18036 -2.8618219
138.68216 -208.09419 -2.808883
139.32562 -208.07799 -2.8344879
139.87589 -208.10452 -2.9186749
123.31572 -208.06732 -3.1639619
124.2282 -208.13872 -3.0910521
131.97606 -208.09937 -3.0138071
132.29407 -208.10919 -3.1279621
139.92856 -208.06183 -3.1696889
132.43866 -208.15373 -3.4923489
132.37656 -208.11246 -3.912575
132.46246 -208.11931 -4.105083
132.3559 -208.108 -4.505383
132.43799 -208.08957 -4.693202
132.37 -208.08943 -5.7574682
132.40096 -208.08968 -6.0513759
132.49088 -208.07022 -6.3401108
132.46994 -208.04414 -6.698205
132.94995 -208.06247 -6.745811
120.22002 -208.04575 -7.5180821
122.25784 -208.13173 -7.5250459
121.88869 -208.08249 -7.7750139
122.13991 -208.17874 -7.691082
120.52603 -208.07523 -8.5341482
120.4916 -208.0069 -9.1444731
120.51418 -208.00568 -9.2229843
127.45708 -207.85333 -2.9515619
128.63251 -207.83337 -2.91659
132.70375 -207.86824 -2.932714
133.112 -207.92706 -2.888273
133.30878 -207.86078 -2.916456
139.91583 -207.86523 -2.9348149
124.16996 -207.82443 -3.050525
132.0383 -207.87794 -3.03847
132.24078 -207.98868 -5.2974768
132.39523 -207.98331 -5.874197
132.39359 -207.99353 -6.2342091
131.89062 -207.88121 -6.5773311
132.25 -207.98541 -6.6520162
120.104 -207.85638 -7.470675
120.1849 -207.83336 -7.8338642
120.23875 -207.99274 -8.5938721
121.91388 -207.86482 -10.706686
122.09183 -207.89304 -10.68239
139.73824 -207.66968 -2.7756691
126.6232 -207.79622 -2.9986169
137.83646 -207.78421 -2.866792
121.38004 -207.76608 -3.065309
121.86462 -207.79047 -3.101294
123.10388 -207.78949 -3.070765
139.79668 -207.78584 -3.1876941
132.08208 -207.71016 -3.3377891
122.22913 -207.71513 -7.1583819
122.62228 -207.79744 -7.2641392
120.47676 -207.65497 -9.1387367
120.04651 -207.72523 -9.4375763
123.29861 -207.65329 -11.678549
136.74991 -207.5697 -2.796108
124.48497 -207.4951 -2.9943781
125.73399 -207.41855 -2.9966869
128.1425 -207.57626 -2.984489
128.25232 -207.43762 -2.959753
130.27841 -207.49506 -2.9275129
134.55217 -207.45705 -2.908617
135.35045 -207.45674 -2.819716
121.73579 -207.50165 -3.0585151
122.14129 -207.44168 -3.069571
125.13037 -207.40353 -3.0194061
132.06268 -207.5128 -3.0700221
139.92496 -207.4368 -3.0407929
132.06918 -207.4729 -3.329962
132.06447 -207.50446 -3.4037111
122.39436 -207.53189 -7.3233161
122.49247 -207.57947 -7.2652812
121.79539 -207.55537 -7.591403
120.10895 -207.45694 -7.9560332
120.07914 -207.4211 -8.0626507
139.86223 -207.55811 -8.633276
122.50512 -207.48145 -10.869299
121.29322 -207.51633 -11.51883
139.49207 -207.28656 -2.7638199
139.97192 -207.24365 -2.7400441
128.60179 -207.29068 -2.9054971
131.41342 -207.37622 -2.8892391
133.04539 -207.30783 -2.8719571
121.02006 -207.34476 -3.096843
126.24935 -207.3522 -3.0215111
121.69424 -207.2442 -8.5810089
121.08917 -207.38831 -8.6241684
120.55165 -207.2959 -9.3173704
121.07838 -207.27438 -9.4743843
121.3671 -207.36275 -9.526248
120.62389 -207.319 -11.338653
121.20168 -207.271 -11.747481
138.70123 -207.07565 -2.793968
125.67377 -207.04424 -2.937427
131.04726 -207.02516 -2.922559
132.09433 -207.06522 -2.9558821
132.54561 -207.04289 -2.911411
135.04761 -207.10446 -2.878231
132.12016 -207.0298 -3.3199301
120.05521 -207.01178 -7.3386669
120.21352 -207.05569 -9.4132767
121.01435 -207.12448 -9.5156708
120.7034 -207.07025 -10.23665
120.69003 -207.14511 -10.429892
120.47758 -207.13339 -11.294651
121.21909 -207.04401 -11.848574
129.31235 -206.8226 -2.7979259
136.36659 -206.99644 -2.7585139
129.84811 -206.93359 -2.936698
137.05769 -206.94739 -2.845258
137.7847 -206.99294 -2.8264041
122.14021 -206.85953 -8.54072
139.40356 -206.90668 -9.6536484
120.38628 -206.83307 -11.086451
120.78358 -206.88812 -12.823666
139.89142 -206.63354 -2.7323351
124.43069 -206.6906 -2.9865999
137.10074 -206.74185 -2.8511419
139.54065 -206.69954 -2.8308179
120.90959 -206.65596 -3.0278649
121.69955 -206.63251 -6.9947972
120.49454 -206.73189 -7.8266969
139.32619 -206.75621 -9.5765057
120.24597 -206.68219 -9.8577232
120.16802 -206.6066 -10.497812
123.91496 -206.61873 -12.978099
139.46918 -206.52625 -2.737694
139.61261 -206.55981 -2.77178
131.30609 -206.56079 -2.867744
138.07758 -206.4879 -2.8197629
139.55206 -206.51358 -2.8237181
121.47861 -206.51111 -7.1065631
121.48715 -206.5549 -7.3004141
122.12662 -206.5759 -8.1825733
121.92493 -206.52338 -8.2137318
121.01596 -206.51549 -8.6848583
139.4565 -206.4353 -8.7028818
120.99437 -206.50826 -8.9508133
120.50307 -206.57632 -9.908432
120.19785 -206.50391 -10.203604
120.51465 -206.51343 -10.956951
139.12926 -206.43236 -12.625523
139.97321 -206.34827 -2.7142529
127.25798 -206.29984 -2.95398
128.18144 -206.31604 -2.915818
133.30072 -206.27026 -2.8843889
123.45073 -206.25255 -3.0422809
121.37674 -206.31433 -7.2833471
121.78185 -206.31024 -8.1773109
120.33727 -206.27051 -9.4286118
120.27403 -206.20088 -9.6775484
120.48 -206.39154 -10.732905
120.88077 -206.2916 -10.79607
139.2984 -206.39612 -12.430704
138.90295 -206.05315 -2.7084329
139.73917 -206.19662 -2.700695
124.90167 -206.15451 -2.9906881
131.83847 -206.13666 -2.9015441
138.7052 -206.16429 -2.815809
120.63774 -206.17599 -3.0554471
122.86536 -206.06287 -3.047224
134.86658 -206.03195 -4.4519939
120.75684 -206.02223 -6.4245129
120.93401 -206.14183 -7.2583628
120.6327 -206.10506 -8.2317257
138.77008 -206.14629 -8.7363262
120.61096 -206.06387 -9.1137152
120.55466 -206.14236 -9.4683409
120.98837 -206.09424 -9.411602
121.65184 -206.11038 -9.4452572
121.6673 -206.09648 -10.696473
138.1649 -205.84888 -2.7717481
138.93843 -205.85291 -2.7372279
123.76463 -205.85565 -2.982718
126.48552 -205.89645 -2.9628961
132.66714 -205.85727 -2.865454
123.01095 -205.84308 -3.0590489
120.10051 -205.88702 -7.347609
120.51472 -205.93881 -8.2517099
120.52406 -205.84625 -9.0556879
122.46709 -205.84702 -9.9634438
120.1203 -205.81219 -10.199402
121.45174 -205.83696 -10.526354
122.50504 -205.8067 -10.725662
131.06487 -205.73267 -2.7369609
135.76669 -205.74681 -2.797087
123.45655 -205.79384 -2.9724531
123.60036 -205.62502 -2.993541
132.55687 -205.66017 -2.8878169
122.06207 -205.65506 -3.0246789
120.74047 -205.683 -5.0738788
120.80721 -205.62325 -5.9406009
121.95074 -205.67412 -6.307291
122.50957 -205.66534 -6.5327382
120.98131 -205.79425 -6.9841218
139.41699 -205.69098 -8.9774799
121.0567 -205.73965 -9.16675
121.31645 -205.7637 -9.3374214
120.226 -205.71793 -9.5262232
122.8987 -205.63831 -10.339741
121.82953 -205.76801 -10.682783
122.98596 -205.79712 -10.86472
121.96715 -205.60512 -11.314918
139.04591 -205.72501 -11.696001
130.63756 -205.5477 -2.736239
130.21448 -205.40732 -2.8784931
132.57329 -205.47318 -2.8673339
120.73267 -205.52455 -5.1445398
120.19921 -205.43321 -6.1125951
122.23215 -205.59608 -6.5232248
120.37506 -205.51552 -9.370657
122.12428 -205.43484 -10.522326
121.82076 -205.4174 -11.124515
123.06256 -205.41978 -11.076773
122.09131 -205.45627 -11.295347
122.05782 -205.43396 -11.909945
138.91487 -205.49091 -12.476353
139.37527 -205.3638 -2.713954
129.50117 -205.3931 -2.8645861
120.55237 -205.33682 -6.0923009
120.44234 -205.35733 -6.9191742
120.84267 -205.23265 -10.429178
121.92187 -205.27158 -10.565075
123.11825 -205.33783 -10.62514
123.24863 -205.3013 -10.642771
139.17557 -205.36935 -11.616451
123.72163 -205.02399 -2.9595599
126.554 -205.11984 -2.856818
128.2196 -205.11023 -2.8787961
131.02676 -205.06149 -2.852787
135.04701 -205.03967 -2.851913
138.172 -205.09747 -2.802623
123.37595 -205.07675 -3.0550711
120.94913 -205.1407 -5.104588
120.94176 -205.04361 -5.9688482
120.30213 -205.18402 -9.5858021
120.97633 -205.09605 -10.59902
121.66814 -205.07948 -11.775355
121.05414 -205.11826 -11.804524
133.4929 -204.88602 -2.7555029
135.81454 -204.89186 -2.7601061
137.47754 -204.93994 -2.766933
139.86186 -204.98608 -2.6786129
121.92571 -204.8792 -2.9958169
124.101 -204.98203 -2.939332
