# .PCD v0.7 - Point Cloud Data file format
VERSION 0.7
FIELDS x y z
SIZE 4 4 4
TYPE F F F
COUNT 1 1 1
WIDTH 586
HEIGHT 1
VIEWPOINT 0 0 0 1 0 0 0
POINTS 586
DATA ascii
136.5519 -303.66843 -12.792857
135.85866 -303.50797 -11.556963
136.00291 -302.81824 -12.711643
132.69502 -319.03955 -7.524879
132.88913 -319.09167 -7.581913
132.69627 -319.02856 -7.7474642
133.04932 -319.10791 -7.7321248
137.45609 -316.86792 -13.463222
139.82927 -313.21582 -9.5611591
139.76497 -313.01428 -9.4254684
139.1011 -312.72467 -9.235939
139.46053 -312.77936 -9.2457809
132.14638 -308.5679 -7.5064778
132.24258 -308.52988 -7.768774
139.78448 -307.88098 -12.692696
139.54309 -307.5491 -12.656376
138.23535 -306.98041 -14.258644
136.96046 -306.21973 -11.016237
139.12457 -306.05768 -12.308026
137.17345 -305.90622 -10.988191
137.28494 -305.97876 -11.118778
138.91658 -305.94681 -12.293163
137.90088 -305.65588 -11.230703
137.78516 -305.50452 -10.797501
138.2606 -305.22705 -12.894428
137.5498 -305.09637 -12.939852
137.73776 -305.13632 -12.916761
137.91235 -304.83893 -12.369707
138.13132 -304.86737 -12.377281
138.02773 -304.86975 -12.514512
138.95656 -304.16028 -13.788025
137.75134 -303.83368 -11.002739
138.08447 -303.80643 -11.014441
136.93675 -303.88306 -12.739835
136.61389 -303.75366 -12.722795
136.61737 -303.70929 -12.842455
134.88086 -303.73083 -13.811008
135.33514 -303.2337 -11.9748
136.24043 -303.3241 -12.254217
136.23889 -303.21826 -12.475279
136.64044 -303.25903 -13.806681
137.00581 -303.25131 -14.48744
136.214 -303.11694 -12.308362
136.62259 -303.11679 -14.299756
136.59938 -303.01117 -14.462324
136.14708 -302.8996 -12.57783
136.83618 -302.87103 -14.506529
139.97357 -302.78598 -10.697857
138.55115 -302.60583 -10.94051
138.80283 -302.73746 -10.933146
135.88083 -302.68713 -11.898277
135.95079 -302.79718 -12.639893
135.64102 -302.42126 -12.09999
135.81308 -302.30023 -12.157978
134.98898 -302.112 -13.467321
135.5296 -301.79999 -12.204135
137.48946 -301.73923 -15.19372
135.40747 -301.49792 -12.101085
135.14362 -301.46744 -13.73984
135.81181 -301.42599 -14.986492
135.23544 -301.39746 -11.998148
135.67538 -301.25546 -12.39196
135.87785 -301.28937 -14.199017
136.11922 -301.29669 -14.251308
132.3627 -301.24683 -19.000408
135.0387 -301.05087 -12.35155
135.33475 -301.05441 -12.514634
135.57867 -301.1261 -13.523857
136.01707 -301.14316 -13.722748
135.85983 -301.13162 -14.233561
136.29326 -300.80658 -14.112419
135.11029 -300.78183 -12.553408
132.21669 -300.5679 -13.576763
136.59776 -300.40836 -15.681165
127.84803 -300.32346 -10.30125
136.67711 -300.33334 -15.738586
131.06683 -300.10876 -14.850794
132.94505 -319.10291 -7.5581861
132.20024 -319.19388 -8.3981237
137.90262 -316.97034 -7.7863569
138.21597 -315.97479 -13.630886
139.68205 -313.21362 -7.6819739
139.89529 -313.0816 -7.7416348
139.84521 -313.06876 -9.3672657
139.10806 -312.71539 -9.2402458
139.18114 -312.05017 -7.7534728
135.38007 -311.07309 -14.292274
135.57591 -309.75305 -14.14705
132.70541 -308.69196 -8.2068729
127.1952 -306.8522 -7.8597722
126.75009 -306.8078 -8.5786362
126.90875 -306.82336 -9.4188004
138.12032 -306.96594 -14.284034
137.91862 -306.84918 -14.410318
127.09058 -306.77618 -9.3856764
137.33704 -306.50217 -10.737512
138.8645 -306.51904 -14.947104
136.94034 -306.20007 -11.061293
136.71713 -306.24622 -11.225729
138.43547 -306.22003 -11.32147
127.53735 -306.38498 -11.488062
138.31062 -306.19305 -11.29719
139.00916 -306.19525 -11.857368
137.40677 -306.02563 -12.321267
139.1015 -306.11591 -12.220131
137.70291 -306.16309 -13.40952
137.86876 -306.18536 -13.643841
138.65579 -305.89499 -13.535063
139.63051 -305.75174 -13.354963
138.1346 -305.54282 -11.592659
139.41913 -305.41925 -13.415274
138.30093 -305.22986 -12.867545
138.29643 -305.07507 -12.652498
137.91281 -304.86111 -12.306264
139.35568 -304.8327 -15.491761
138.58205 -304.40332 -13.214365
137.57942 -303.83633 -11.091567
139.79372 -303.60812 -9.7487717
137.96379 -303.73206 -10.39192
138.62093 -303.73087 -11.128395
138.87019 -303.79462 -11.181224
136.3204 -303.23718 -12.44428
136.99767 -303.26505 -14.559799
139.92258 -303.01105 -7.9669738
139.92096 -303.05328 -8.2779121
135.53519 -303.09174 -11.966304
135.97789 -303.07175 -12.493302
139.89743 -302.96704 -9.3542061
139.93108 -302.82782 -9.6624994
135.40756 -302.81149 -10.925936
136.09488 -302.90051 -12.555902
138.89473 -302.61829 -10.987898
135.8952 -302.66504 -11.806318
136.05479 -302.63959 -12.128245
138.13029 -302.75696 -13.981018
139.55879 -302.50674 -11.806084
135.78337 -302.53403 -12.265537
139.26678 -302.41156 -12.462397
139.76871 -302.5744 -12.53944
139.72 -302.56897 -13.798044
136.84706 -302.46613 -15.090269
139.14224 -302.25916 -10.371979
134.98175 -302.26813 -13.728567
134.96805 -302.19507 -13.533474
138.62454 -302.13596 -14.53406
139.81058 -301.98447 -11.773665
135.08109 -301.63702 -12.201229
135.60161 -301.71014 -12.246527
135.94879 -301.74078 -13.459204
137.81361 -301.66617 -14.590197
139.67834 -301.55096 -10.982511
139.27698 -301.41812 -11.33626
135.70538 -301.56906 -14.49061
135.02161 -301.29208 -12.922282
135.91083 -301.27625 -14.221675
134.79025 -301.08997 -12.308241
135.4341 -301.03442 -12.686693
135.54944 -301.04993 -12.83704
136.04066 -301.12494 -13.378967
139.43881 -301.01407 -15.096134
135.94882 -301.06912 -15.738015
135.81305 -300.94052 -13.701544
135.50601 -300.95792 -15.759206
127.87461 -300.76187 -10.9554
127.6411 -300.42844 -11.61552
136.86324 -300.4411 -15.658546
137.26691 -300.40109 -16.708118
131.60742 -300.31439 -15.11484
137.33366 -300.35535 -16.358685
127.95797 -300.11621 -10.495292
130.69498 -300.13477 -14.788813
136.62637 -300.01294 -16.192968
133.0899 -319.22479 -7.82688
133.08751 -319.0813 -10.072811
136.43802 -316.64481 -8.561842
138.57471 -316.05768 -13.580714
138.07593 -315.7236 -14.493602
139.77425 -313.21866 -9.5033922
139.89508 -313.05267 -8.6314564
139.79013 -313.1535 -10.259214
139.39383 -313.14859 -12.04252
139.29544 -313.15536 -13.485287
139.25262 -312.93777 -14.094236
139.09631 -312.08734 -7.6833329
138.44254 -306.84781 -14.913038
127.0514 -306.7663 -8.5718269
138.23273 -306.65326 -10.44339
137.7981 -306.69864 -14.549089
126.69864 -306.47675 -7.0738492
137.93486 -306.40149 -12.106771
139.2644 -306.30289 -11.873648
137.17752 -305.88181 -11.044201
138.46893 -305.97125 -11.371696
137.9668 -305.75052 -11.25561
137.72961 -305.52643 -10.739269
137.83862 -305.3689 -11.470592
138.22606 -305.35968 -11.829949
138.30292 -305.06042 -12.574024
139.09229 -304.73175 -15.703814
138.56158 -304.23541 -13.146437
138.84512 -304.04248 -13.342133
137.11224 -303.87823 -7.0121698
137.72726 -303.81445 -11.036751
136.00938 -303.68314 -11.402235
136.59444 -303.75424 -12.596961
136.61241 -303.69177 -12.914784
134.72382 -303.70416 -13.761313
134.82271 -303.65796 -13.772923
138.89513 -303.54102 -11.287897
136.13757 -303.55804 -11.763409
138.69034 -303.20865 -10.231814
136.98729 -303.39227 -14.334394
139.90073 -303.05292 -7.93397
138.91264 -303.12976 -10.416375
136.60349 -303.12698 -13.759233
137.00363 -303.01965 -14.557631
139.92815 -302.98965 -9.2758303
139.87511 -302.81754 -9.7023907
136.14445 -302.87753 -12.918638
136.72952 -302.97003 -14.467833
137.85266 -302.91071 -15.37077
138.69153 -302.64026 -10.966084
138.97952 -302.69495 -11.064616
139.76157 -302.62146 -12.628807
138.25665 -302.74838 -13.921088
136.89407 -302.65106 -14.510167
139.01228 -302.41635 -10.199333
136.27666 -302.5845 -13.547125
139.87656 -302.31647 -11.621488
138.45363 -302.39999 -12.405241
139.0177 -301.85718 -10.956521
135.66278 -301.43915 -12.460836
135.34183 -301.34351 -12.228161
135.49673 -301.28986 -13.730567
136.61427 -301.37662 -14.545913
136.68723 -301.39731 -15.254452
139.40817 -301.2536 -15.230783
135.02464 -301.01431 -12.327955
135.61176 -301.04251 -12.715405
136.03336 -301.11972 -13.514458
138.99472 -300.9808 -11.488922
135.68591 -300.98077 -12.916348
135.91603 -300.98758 -12.861846
128.51797 -300.72043 -8.17875
139.1497 -300.62497 -11.446396
132.13823 -300.51895 -13.531001
139.71545 -300.06583 -7.7346611
127.4306 -300.18948 -10.327305
132.34357 -319.02496 -7.5193729
132.62363 -319.00873 -7.6882839
124.40049 -319.02286 -16.402641
124.36446 -319.01257 -16.700226
121.6405 -317.57629 -17.584707
139.61002 -317.0412 -8.6755953
139.82802 -313.98816 -15.236732
139.69775 -313.23712 -7.689105
139.58026 -313.28265 -11.878869
139.78374 -313.11438 -7.0307631
139.82373 -313.05377 -9.3111935
139.74734 -312.93683 -8.853075
139.5269 -312.78253 -9.2356014
139.03697 -312.08737 -8.542634
139.20116 -312.10327 -10.186562
126.00882 -310.79858 -17.525076
122.91571 -310.49533 -15.571873
123.76543 -308.99359 -13.57992
122.78682 -308.84442 -13.814848
122.57365 -308.46149 -12.804586
132.24561 -307.86768 -7.9214611
139.1963 -307.87283 -12.075441
122.95307 -307.29034 -15.942034
127.19185 -306.88919 -8.0491714
127.28738 -306.89551 -9.9685249
138.92426 -306.72116 -10.992746
129.51321 -306.70496 -11.566259
137.02348 -306.47086 -10.728851
137.32437 -306.51013 -10.856748
138.7016 -305.97153 -12.128399
138.90274 -305.89813 -12.177144
139.38181 -305.86069 -12.938923
137.85777 -305.30936 -11.769756
123.87054 -305.3255 -15.01115
124.66902 -305.0979 -16.513401
138.8557 -304.27643 -13.158455
137.07176 -303.75528 -9.5569096
138.14783 -303.7998 -11.001795
136.02855 -303.6962 -11.612687
125.15245 -303.43622 -7.0687451
136.41345 -303.48041 -12.322883
136.33292 -303.51575 -13.114943
136.5459 -303.50818 -13.064495
139.87134 -303.23557 -8.6178932
139.92348 -303.23999 -9.0609035
138.59877 -303.3382 -10.415388
136.26569 -303.3205 -12.272955
139.91844 -303.06827 -8.1288366
139.94119 -303.09308 -8.7317848
136.13702 -303.039 -12.298776
138.71736 -303.02499 -14.03717
139.90866 -302.81625 -9.7994184
139.29633 -302.68103 -10.227754
139.08719 -302.69827 -11.087048
139.07806 -302.75543 -14.131828
139.48282 -302.22742 -10.297129
135.80315 -302.28799 -12.182366
136.4191 -301.92117 -14.566078
139.43652 -301.67322 -11.029651
135.52827 -301.64594 -14.494143
137.33658 -301.73932 -15.045004
139.14963 -301.49875 -11.166712
135.29785 -301.4646 -11.941874
135.52547 -301.46057 -12.488255
139.16124 -301.36713 -11.410105
135.09409 -301.21707 -13.489895
139.7374 -301.33655 -15.134616
135.38441 -301.18225 -13.414837
135.74649 -301.12445 -14.575092
136.22105 -301.04697 -14.990251
136.10007 -300.97388 -13.67226
135.46895 -300.98914 -14.165304
136.50496 -300.96954 -14.291372
128.28513 -300.56891 -10.344605
138.63483 -300.57404 -15.774324
127.22496 -300.33578 -11.006762
139.39017 -300.23883 -11.602863
128.10956 -300.11957 -10.30552
128.20441 -300.0907 -10.633064
132.68739 -319.03781 -7.5240188
122.47675 -318.76923 -16.283203
123.85895 -318.51617 -8.0690165
137.42029 -316.93079 -13.392483
138.53604 -316.06421 -13.746716
139.62138 -313.22586 -11.903074
139.05515 -312.7359 -9.177372
134.0244 -312.58929 -22.196297
139.14868 -312.09174 -10.15297
125.95808 -310.42105 -17.220444
132.14934 -310.27933 -7.6588612
123.80074 -309.44214 -12.316364
132.50337 -308.83185 -8.4956417
132.63684 -308.74719 -8.5830355
132.3454 -308.34967 -8.1310501
126.71715 -308.37531 -13.612404
132.4489 -308.10876 -8.5581503
139.716 -307.90625 -12.62595
139.49619 -307.54471 -12.268391
139.61842 -307.46649 -12.286547
139.09402 -307.22464 -10.235081
127.90932 -307.08121 -10.677926
120.04198 -307.19308 -13.116708
137.47229 -306.94769 -14.254456
122.63052 -306.89716 -16.252352
126.74304 -306.64587 -7.8545151
126.73326 -306.70984 -8.0275249
137.76895 -306.76968 -14.273367
139.1738 -306.31894 -11.067899
138.95319 -306.36008 -14.865562
125.41138 -306.31491 -18.337336
122.74035 -306.07153 -13.540554
137.82217 -306.12244 -15.021117
125.89738 -306.12274 -18.344551
139.00146 -305.8989 -12.588894
138.63655 -305.73849 -12.901123
139.16917 -305.70453 -13.341152
138.23631 -305.22598 -12.733569
139.74956 -305.2099 -13.516859
123.90459 -305.36539 -15.058294
124.0425 -305.20111 -16.530182
138.43365 -305.07544 -12.697143
138.25813 -303.82111 -10.756437
136.85719 -303.9353 -12.562113
137.10826 -303.77692 -10.370526
136.37 -303.64777 -13.068998
139.87566 -303.57782 -9.7103825
139.13745 -303.53894 -11.169939
139.63197 -303.54727 -14.002344
139.90489 -303.06644 -7.5852909
139.94269 -303.07825 -8.983408
138.82524 -303.15057 -13.847595
135.12431 -302.90485 -11.324362
139.93692 -302.72321 -10.706315
139.30276 -302.70459 -13.910282
139.70961 -302.59341 -12.197009
138.80275 -302.46707 -13.746472
136.62421 -302.32227 -15.094591
137.68449 -302.21173 -15.657097
135.82184 -301.77551 -12.73642
137.60355 -301.79538 -15.034195
139.35626 -301.50403 -10.915743
135.17543 -301.3869 -11.868882
135.0433 -301.35492 -12.232618
134.73283 -301.29633 -12.911659
135.26306 -301.34665 -12.891876
136.18835 -301.26953 -12.866216
135.88625 -301.35141 -13.534905
136.08345 -301.28625 -13.493116
136.31673 -301.24112 -15.651313
137.2045 -301.29224 -15.731199
136.31842 -301.06201 -15.646744
136.56186 -300.90491 -13.690543
128.43684 -300.78851 -7.2262731
137.0477 -300.28381 -15.746773
128.68239 -300.16077 -10.937897
131.45132 -300.02054 -14.842962
137.80913 -300.05753 -15.794239
123.97335 -319.32031 -17.635004
133.04416 -319.0932 -7.660912
139.92975 -313.09949 -7.6972909
138.51556 -312.71854 -26.78615
121.5257 -312.41992 -8.9340754
136.15041 -311.62604 -13.404276
124.43493 -309.29095 -12.766731
123.36092 -308.90979 -12.851231
131.95499 -308.63239 -7.4240599
132.53854 -308.59167 -7.9513278
122.69997 -308.31741 -12.792429
132.18552 -307.84232 -8.1286983
132.33313 -307.98724 -8.4640541
122.61256 -307.80701 -15.000731
122.60208 -307.79791 -14.72049
122.62642 -307.72473 -15.235191
137.59995 -307.00348 -14.410515
126.94757 -306.83752 -9.3560314
127.10205 -306.92316 -10.131137
127.36623 -306.6279 -7.0531449
122.60843 -306.72296 -16.122082
131.11757 -306.30222 -19.428396
137.04222 -306.0759 -10.519329
137.28667 -306.07123 -11.11412
138.37056 -306.16177 -11.162687
138.64859 -306.06561 -11.855867
123.02659 -306.05243 -14.811341
126.64598 -306.0665 -18.505463
138.20264 -305.89056 -11.31139
123.12391 -305.99631 -15.075365
123.67766 -305.77832 -12.462263
123.22421 -305.73022 -14.782852
137.90659 -305.13776 -11.75325
137.59259 -305.08792 -12.784335
137.83849 -304.85095 -12.217819
124.1532 -304.97934 -16.466232
125.96501 -304.66049 -16.755314
138.39369 -304.33136 -13.200844
138.63513 -304.15247 -13.352012
139.47726 -303.67981 -11.100727
139.61737 -303.66147 -11.054792
135.93045 -303.65027 -11.537481
136.41293 -303.60043 -12.357594
138.22548 -303.45258 -10.259479
135.83691 -303.49271 -11.612517
136.7778 -303.40936 -14.360582
136.83383 -303.26514 -13.156055
136.62917 -303.23691 -13.77962
138.70636 -303.19263 -10.27512
138.96317 -303.17969 -10.242308
139.93567 -302.89923 -10.148916
139.22214 -302.84955 -11.260149
139.92621 -302.89267 -13.517355
139.34608 -302.90717 -14.019424
138.02242 -302.90729 -15.380779
139.90707 -302.71085 -10.257052
138.36792 -302.66647 -10.914412
135.25476 -302.61218 -11.076809
135.27219 -302.61652 -11.447422
135.85883 -302.77478 -12.572843
136.16963 -302.759 -13.197323
135.85786 -302.56567 -11.863697
138.51697 -302.48672 -12.284905
139.01097 -302.45535 -12.363358
136.47795 -302.57507 -13.550553
136.75212 -302.4787 -15.185299
139.10674 -302.24228 -11.216265
138.72589 -302.3891 -12.34651
139.73015 -301.9884 -11.807038
135.47949 -301.72913 -12.138859
137.32135 -301.61008 -15.320261
135.14761 -301.50034 -13.734784
136.13567 -301.36871 -14.250512
135.47581 -301.31335 -14.964673
137.01105 -301.29034 -15.813143
135.24126 -301.06967 -12.366358
135.69847 -301.07965 -14.149372
138.94411 -300.92728 -11.382221
136.51451 -300.73386 -14.235031
139.32753 -300.71481 -14.531366
127.55382 -300.44717 -10.176241
131.48174 -300.24835 -14.658555
138.83145 -300.27094 -14.906878
137.62096 -300.34467 -16.98135
130.97835 -300.06836 -14.594728
123.51769 -319.745 -18.080566
132.38239 -319.00095 -7.7927132
138.10403 -316.68616 -7.7893658
137.99156 -315.72266 -13.082392
133.80472 -312.94513 -22.303066
125.54355 -311.54761 -17.337746
125.67922 -310.91702 -17.112879
125.76476 -310.58087 -17.075294
131.8786 -308.73682 -8.2372942
132.22694 -308.47803 -7.444036
132.29228 -308.20117 -8.4710903
139.49361 -307.56787 -12.589726
138.06184 -307.0513 -10.112153
127.31488 -306.91 -10.060376
139.23111 -306.81772 -11.718639
137.82278 -306.95624 -14.247564
122.446 -306.94791 -15.14237
122.47456 -306.82556 -15.855331
127.02175 -306.65222 -7.872169
127.00042 -306.70227 -8.0371265
138.62558 -306.70258 -14.958517
122.64095 -306.65027 -15.83947
127.05298 -306.47107 -7.0881362
136.99129 -306.41037 -10.924408
138.1736 -306.54498 -14.914494
137.3425 -306.38055 -10.32499
124.36346 -306.25598 -13.411102
124.47438 -306.37958 -15.151346
139.07141 -306.10834 -12.186212
138.30722 -306.00815 -13.529781
137.1131 -305.91144 -11.224637
139.2028 -305.89249 -12.710459
138.52907 -305.98724 -13.649212
138.24866 -305.34113 -12.059112
138.03439 -305.1196 -11.998969
138.17914 -305.16589 -12.866655
138.12584 -304.83649 -12.342875
138.1712 -304.24472 -13.166183
138.28871 -304.22107 -15.99049
136.90387 -303.74191 -12.830084
138.13718 -303.54083 -10.407545
135.80765 -303.4635 -11.566469
135.3783 -303.27472 -11.859585
135.31137 -303.02209 -11.964339
136.70557 -303.04456 -14.167763
135.6951 -302.85342 -11.683979
135.12842 -302.98502 -11.97168
139.62462 -302.72162 -6.6377602
139.92967 -302.74823 -10.967424
136.10042 -302.78009 -12.655478
139.38998 -302.492 -12.435988
139.49837 -302.43213 -13.200359
139.6767 -302.59454 -13.473763
136.94073 -301.72073 -15.018698
137.39467 -301.6069 -15.791121
135.86899 -301.41394 -14.954927
137.04366 -301.54404 -15.295328
135.89503 -301.29993 -13.025145
135.71791 -301.21234 -13.723605
139.52605 -301.26334 -15.174045
139.70692 -301.36761 -15.200161
134.9809 -301.01306 -12.461284
135.68921 -301.14774 -13.546675
135.58156 -301.03644 -15.011234
139.23184 -300.83115 -11.485344
136.26741 -300.90634 -14.242504
135.77103 -300.85275 -15.013382
135.87802 -300.95712 -15.290836
135.03568 -300.73956 -12.658969
139.92708 -300.74661 -14.621693
127.38481 -300.48047 -11.005807
131.5016 -300.55801 -14.655537
136.55975 -300.59882 -15.57241
136.65384 -300.52109 -15.666892
136.82945 -300.34894 -15.562578
136.52768 -300.29596 -15.743732
136.83131 -300.21933 -16.156609
138.97533 -300.0332 -6.8722119
127.82317 -300.18442 -10.27453
136.96783 -300.08112 -16.613796
124.89514 -319.95294 -18.077534
122.93841 -319.04163 -18.547979
124.59407 -318.50708 -16.497078
122.22672 -308.91785 -13.440664
123.08768 -306.34454 -14.670569
123.08569 -305.7178 -14.59812
124.70755 -305.29056 -16.736206
123.90549 -305.11374 -16.543545
123.04868 -318.50403 -7.9711318
122.83551 -318.40396 -8.1551037
122.57876 -311.0571 -15.657021
124.38258 -308.72131 -13.865191
123.30941 -307.40292 -16.547382
122.57855 -306.75833 -15.109753
123.85289 -305.65875 -15.127374
121.59579 -300.65286 -9.7490377
