# .PCD v0.7 - Point Cloud Data file format
VERSION 0.7
FIELDS x y z
SIZE 4 4 4
TYPE F F F
COUNT 1 1 1
WIDTH 1512
HEIGHT 1
VIEWPOINT 0 0 0 1 0 0 0
POINTS 1512
DATA ascii
124.74129 -261.42447 -8.9185438
124.92613 -261.44904 -8.9216347
125.076 -261.46063 -8.8366852
122.67542 -261.41537 -9.4191113
122.91238 -261.44037 -9.4889183
123.48338 -261.47458 -9.5321484
124.58314 -261.47736 -9.8838253
122.49564 -261.52826 -10.091991
124.59671 -261.48254 -10.273818
124.70348 -261.47156 -10.252544
124.94014 -261.43494 -10.246361
128.70633 -261.44458 -10.215067
124.14516 -261.42624 -10.455146
125.23113 -261.56079 -10.551087
125.10313 -261.49591 -10.674583
121.85712 -261.45587 -10.959958
123.85246 -261.42224 -10.982468
121.33349 -261.50623 -11.126762
121.41789 -261.48218 -11.129713
121.05182 -261.55255 -11.392491
121.50127 -261.52368 -11.32667
124.23506 -261.41534 -11.298354
127.4808 -261.45819 -11.903165
132.19443 -261.54303 -13.525299
133.88342 -261.38104 -5.2746081
137.47482 -261.30774 -5.307868
120.8233 -261.23904 -5.7371688
122.89271 -261.3056 -5.67204
123.26389 -261.25925 -5.7680578
137.51199 -261.29776 -5.7108312
137.53012 -261.26413 -5.909884
123.67618 -261.22821 -6.061388
137.53987 -261.30515 -6.0466318
137.54149 -261.26587 -6.313056
137.58292 -261.25647 -6.5453572
137.5766 -261.24506 -6.7541661
137.70807 -261.20047 -6.646904
137.69958 -261.2312 -6.953897
123.84109 -261.35376 -7.0258842
124.62495 -261.36981 -7.1363502
124.96677 -261.33862 -7.357657
125.05473 -261.26599 -7.3574791
137.63824 -261.31027 -7.436511
123.35454 -261.33557 -7.7726898
137.5903 -261.23215 -7.6930361
122.67203 -261.30087 -7.8384371
122.89671 -261.25958 -7.9255009
124.54286 -261.30292 -7.8629112
124.94057 -261.30023 -7.8385859
137.57684 -261.28461 -7.937294
123.10487 -261.24051 -8.1063805
123.3989 -261.32532 -8.0889645
124.2649 -261.20215 -8.0267038
124.89013 -261.34567 -8.1116047
137.58881 -261.21808 -8.0103817
137.61087 -261.25488 -8.0724964
123.38383 -261.3266 -8.4953079
123.83691 -261.32205 -8.5573053
137.56575 -261.27869 -8.5398169
124.61261 -261.33231 -8.625968
125.04848 -261.37863 -8.6544123
137.61505 -261.21686 -8.6047688
124.79843 -261.27258 -8.9995651
124.8297 -261.22595 -8.9722538
123.03085 -261.37598 -9.1579466
123.86182 -261.31097 -9.0153608
137.62303 -261.24683 -9.0935249
123.88347 -261.2998 -9.3971872
124.73746 -261.27103 -9.3644075
124.85512 -261.35315 -9.4093094
122.27048 -261.36935 -9.6959934
122.43626 -261.20544 -9.7018223
122.86541 -261.36771 -9.7761326
122.31406 -261.34265 -9.8136797
122.6904 -261.27609 -9.8528605
122.84991 -261.24567 -9.8264647
123.43646 -261.36868 -9.8960962
124.90667 -261.37537 -9.8452845
123.45171 -261.2851 -10.18524
123.69965 -261.36859 -10.085232
124.54185 -261.37976 -10.15107
128.93503 -261.33917 -10.346848
128.73602 -261.31104 -10.584051
128.89536 -261.37897 -10.526304
122.20438 -261.23157 -10.730653
123.83073 -261.29834 -10.795742
124.42811 -261.36807 -10.658644
137.62897 -261.20563 -10.621853
122.09077 -261.29321 -10.859282
125.25751 -261.32263 -10.866565
125.12129 -261.35831 -11.024697
124.24664 -261.30609 -11.369843
124.69035 -261.31741 -11.290555
124.92019 -261.35641 -11.347705
125.08182 -261.36047 -11.336841
125.24213 -261.35608 -11.333994
127.73299 -261.3822 -11.935251
123.91606 -261.23993 -12.170938
127.17097 -261.34296 -12.117317
125.54491 -261.31195 -12.660728
130.25026 -261.31372 -13.522494
137.70299 -261.34229 -14.962528
132.53796 -261.03595 -5.1853471
131.06512 -261.04449 -5.2811642
134.06241 -261.07602 -5.2556829
135.66144 -261.09067 -5.2187371
137.48624 -261.1322 -5.3294158
120.07903 -261.01602 -5.700664
120.55624 -261.10773 -5.7387848
122.7476 -261.15784 -5.6631269
122.8539 -261.13016 -5.6747112
126.06949 -261.06387 -5.6115742
137.55125 -261.10764 -5.749918
137.55185 -261.1452 -5.9240351
137.83345 -261.07129 -5.962914
123.74398 -261.02762 -6.081027
137.54443 -261.14313 -6.140738
137.65628 -261.0918 -6.115438
123.76917 -261.01373 -6.5617981
124.63843 -261.12134 -6.5078249
124.81773 -261.01111 -6.5621581
137.57994 -261.15045 -6.5943789
124.47379 -261.14957 -6.7376399
137.67963 -261.10519 -6.7413659
124.71808 -261.17984 -6.8135009
137.64133 -261.11627 -6.84936
124.90941 -261.18069 -7.0830178
123.45142 -261.0657 -7.30828
137.59499 -261.12524 -7.3773632
123.81357 -261.03085 -7.5091882
124.2964 -261.1239 -7.5465369
124.88548 -261.16888 -7.5669351
125.07373 -261.08923 -7.4546552
123.71854 -261.08276 -7.7689142
137.63486 -261.07117 -7.7320399
137.82364 -261.0719 -7.6843901
122.70926 -261.18164 -7.952734
122.90271 -261.14105 -7.9295478
123.67906 -261.0932 -7.9028401
124.28323 -261.10089 -7.8459401
124.60518 -261.03937 -7.8493772
124.92837 -261.0072 -7.813663
137.69795 -261.06897 -7.9463129
122.85874 -261.0777 -8.1348848
123.52428 -261.16101 -8.198102
123.61656 -261.07315 -8.0727768
124.46906 -261.06366 -8.0910025
122.9408 -261.04599 -8.2722921
123.50099 -261.07123 -8.2444096
123.87009 -261.01239 -8.2330618
124.91176 -261.15677 -8.2512379
125.07545 -261.12659 -8.2024307
122.94398 -261.09802 -8.532361
123.04942 -261.16345 -8.4666033
123.33198 -261.03015 -8.5573215
123.86944 -261.08536 -8.5584068
125.22213 -261.05719 -8.4520845
137.6814 -261.07028 -8.5219955
123.07553 -261.07123 -8.6054745
125.08961 -261.13202 -8.6845398
123.16007 -261.05756 -8.9805737
124.98418 -261.13309 -8.8615093
125.00314 -261.06213 -8.8708324
123.11994 -261.08713 -9.0613499
123.92311 -261.11902 -9.0069675
137.68985 -261.02515 -9.1272106
123.23963 -261.07532 -9.344306
124.56836 -261.04337 -9.3818226
137.63425 -261.03217 -9.337244
138.008 -261.05374 -9.3910065
123.92608 -261.11246 -9.4319172
137.64536 -261.07526 -9.4973793
122.84319 -261.01419 -9.6967096
137.70258 -261.01819 -9.7392082
138.02129 -261.07822 -9.6070271
122.73898 -261.07367 -9.8994579
122.86899 -261.04742 -9.8697453
123.9375 -261.04361 -9.9156761
124.18855 -261.01584 -9.9519262
137.60861 -261.12384 -9.9580402
123.40724 -261.05017 -10.07918
124.19139 -261.00641 -10.051722
124.22166 -261.05383 -10.152473
137.70123 -261.04736 -10.170485
122.57611 -261.02618 -10.327134
124.61298 -261.07285 -10.26615
128.79495 -261.17981 -10.270414
128.88678 -261.10767 -10.348991
122.33619 -261.1539 -10.547687
123.87386 -261.0531 -10.51824
128.98546 -261.05292 -10.547192
122.24548 -261.13361 -10.655843
123.93986 -261.06598 -10.766864
137.61783 -261.10956 -10.667891
123.87309 -261.06445 -10.906879
128.72914 -261.04321 -10.936193
128.86531 -261.06055 -10.828251
123.77037 -261.12701 -11.064809
124.17116 -261.07867 -11.076445
124.63493 -261.10254 -11.104864
137.68947 -261.0069 -11.022974
123.76712 -261.05444 -11.341802
128.30269 -261.10504 -11.337855
137.69926 -261.01685 -11.342754
123.77665 -261.05139 -11.522806
124.89353 -261.07193 -11.467952
124.54962 -261.0368 -11.929188
125.6265 -261.10498 -11.973145
137.68633 -261.06836 -11.844162
125.79628 -261.13177 -12.177206
137.74364 -261.03348 -12.596868
130.64159 -261.02927 -13.113251
130.07568 -261.17874 -13.746195
137.72661 -261.12454 -13.881279
135.83762 -260.93494 -5.1774678
136.66479 -260.9288 -5.1408291
137.77037 -260.94135 -5.152493
128.97253 -260.93417 -5.3455
131.38162 -260.80478 -5.231636
132.93285 -260.97131 -5.2318339
137.76825 -260.95215 -5.3432531
137.95177 -260.92444 -5.228518
138.57164 -260.94421 -5.2915659
139.74257 -260.96667 -5.2745681
125.83628 -260.95096 -5.5408459
122.67999 -260.91089 -5.642509
122.91904 -260.98438 -5.6477699
123.08254 -260.85522 -5.6950459
123.28424 -260.85211 -5.71947
123.69757 -260.80453 -5.7931638
124.84549 -260.97946 -5.6541891
123.74939 -260.86111 -5.8697519
123.87823 -260.85651 -5.94172
124.30805 -260.85962 -5.9371262
123.74114 -260.93457 -6.0814991
123.90254 -260.87085 -6.08429
124.41303 -260.95978 -6.1235518
123.85123 -260.88928 -6.3664651
123.85094 -260.86121 -6.5322409
124.31999 -260.91858 -6.5052652
123.77173 -260.96588 -6.6339021
123.80759 -260.82062 -6.756896
124.33611 -260.88 -6.7708731
123.78453 -260.88644 -6.919086
123.87805 -260.87015 -6.9113679
123.84096 -260.94263 -7.0350928
124.30626 -260.86597 -7.0428729
124.44759 -260.90948 -7.0940151
123.41559 -260.89661 -7.3026962
124.06531 -260.8587 -7.3200579
124.54169 -260.88766 -7.3387928
124.34216 -260.95746 -7.477056
124.49609 -260.96368 -7.5131402
123.93919 -260.93011 -7.724225
124.06493 -260.90961 -7.7040148
123.77752 -260.953 -7.863462
123.83839 -260.88153 -7.9847689
124.06561 -260.93799 -7.904027
137.80434 -260.96436 -7.9910102
123.77008 -260.99698 -8.080904
123.88992 -260.8804 -8.1582394
124.10901 -260.92838 -8.11308
122.75154 -260.89984 -8.2847414
122.46889 -260.8847 -8.5240307
123.45431 -260.97147 -8.4656792
124.05231 -260.88904 -8.6434498
124.59077 -260.88425 -8.6448526
124.72592 -260.8241 -8.6908379
137.82317 -260.96463 -8.7182922
123.27591 -260.97681 -8.9490852
124.6799 -260.86456 -8.9236469
124.87042 -260.93683 -8.8867264
124.159 -260.88467 -9.0458164
124.65263 -260.88141 -9.2740784
124.84702 -260.85876 -9.3069296
123.05536 -260.89941 -9.4332132
124.09979 -260.96991 -9.4592686
137.73265 -260.93243 -9.4967422
122.91122 -260.96591 -9.6830616
124.93907 -260.85083 -9.7840366
122.84592 -260.97076 -9.9022923
123.42824 -260.91519 -9.8161287
124.11436 -260.94232 -9.8898745
124.99304 -260.82559 -9.8979874
125.0397 -260.83636 -9.9466085
123.49833 -260.93616 -10.139154
123.72665 -260.94022 -10.053969
124.97179 -260.9325 -10.159641
125.0549 -260.86353 -10.153141
122.70209 -260.9668 -10.298355
124.5726 -260.85278 -10.326803
125.19927 -260.81085 -10.347969
122.65829 -260.88147 -10.46514
124.1282 -260.89548 -10.584901
124.59301 -260.97308 -10.533861
124.61564 -260.93594 -10.581403
124.9106 -260.8764 -10.535563
137.6879 -260.9545 -10.473638
124.57813 -260.95901 -10.720543
125.1041 -260.91455 -10.698603
125.27652 -260.98935 -10.722408
128.73859 -260.97729 -10.769117
124.87878 -260.99005 -10.975383
125.16365 -260.88351 -10.937256
137.72131 -260.89722 -10.827731
123.88732 -260.98111 -11.049449
125.23547 -260.9231 -11.003073
137.69748 -260.93378 -11.092285
124.51688 -260.99072 -11.363206
125.29942 -260.95868 -11.276257
132.3093 -260.87463 -11.335562
137.71492 -260.96219 -11.342823
125.45916 -260.95602 -11.790512
132.19032 -260.8082 -11.759544
132.10454 -260.8371 -12.11963
137.79178 -260.96692 -12.113167
137.78664 -260.98761 -14.274302
131.37946 -260.70178 -5.2259469
120.55041 -260.70282 -5.7442122
122.55207 -260.61871 -5.6585021
123.08712 -260.67383 -5.6446218
124.58542 -260.7334 -5.651206
123.98749 -260.74966 -6.1037641
124.10126 -260.65668 -6.079782
123.9422 -260.76477 -6.562737
124.06825 -260.72351 -6.5239968
124.21339 -260.77502 -6.49964
123.96072 -260.75696 -6.72158
124.08136 -260.72095 -6.734262
123.84853 -260.77371 -6.9686408
124.15201 -260.74353 -6.927176
124.04967 -260.76733 -7.1083941
124.41584 -260.79837 -7.1351161
124.01248 -260.77011 -7.2313261
125.2838 -260.60767 -7.50349
124.68011 -260.70566 -7.8399091
122.51505 -260.69769 -8.5556765
123.8511 -260.60211 -8.4388628
124.18999 -260.64697 -9.3592072
124.3306 -260.62115 -9.3056974
124.63808 -260.75446 -9.319087
123.26427 -260.69385 -9.4401493
123.0041 -260.74335 -9.7785025
123.38107 -260.69019 -9.6718054
123.76828 -260.74756 -9.8516178
125.08949 -260.72699 -10.344172
122.65178 -260.78235 -10.56521
123.3085 -260.67905 -10.553577
124.95789 -260.73401 -10.512001
125.17833 -260.67163 -10.524618
125.24304 -260.61829 -10.458723
122.70457 -260.67365 -10.712751
124.05746 -260.7265 -10.654428
124.29533 -260.65988 -10.652422
124.52028 -260.67297 -10.667742
124.71593 -260.60294 -11.022633
124.87056 -260.71933 -11.076977
124.4976 -260.6839 -11.335417
125.07103 -260.66632 -11.290434
125.29459 -260.77188 -11.433695
132.30072 -260.69897 -11.549747
123.72963 -260.66382 -11.870393
124.84411 -260.70319 -11.892129
132.13393 -260.72284 -11.888818
132.30435 -260.65543 -11.840308
124.4585 -260.6965 -12.075034
132.17606 -260.63983 -12.136314
130.72624 -260.71487 -13.103362
138.71268 -260.69293 -15.307335
133.3512 -260.57874 -5.190742
136.59155 -260.57202 -5.1462851
139.89825 -260.5538 -5.1862998
127.74696 -260.59045 -5.3738289
138.05162 -260.49011 -5.2813292
139.06676 -260.5274 -5.2614579
125.11528 -260.57007 -5.5624909
120.26495 -260.51501 -5.6891289
121.62547 -260.54315 -5.649189
123.08855 -260.51987 -5.667532
123.29942 -260.5318 -5.6509161
123.71626 -260.52496 -5.6997271
124.2627 -260.5061 -5.6861172
124.1353 -260.55655 -5.9080238
124.96413 -260.52655 -7.5437942
125.07923 -260.50061 -7.7111478
124.90894 -260.56509 -7.8798718
123.49294 -260.46161 -8.3282108
123.85072 -260.5423 -8.3496103
122.33089 -260.51965 -9.0504665
122.58224 -260.46347 -9.1699686
122.93753 -260.43948 -9.198307
122.64813 -260.47217 -9.3203278
123.06873 -260.47363 -9.4584446
123.85978 -260.5947 -9.4682341
123.0815 -260.54761 -9.7787189
123.54608 -260.58328 -10.269102
124.98504 -260.54602 -10.216718
126.33308 -260.53894 -10.499968
126.58492 -260.46271 -10.525768
122.67398 -260.44318 -10.793832
125.31485 -260.49725 -10.617304
122.55215 -260.46039 -10.854109
125.3183 -260.57025 -11.088351
124.86893 -260.50995 -11.378222
132.45612 -260.58023 -11.367162
124.10585 -260.54987 -11.47022
132.54709 -260.4848 -11.87738
123.35196 -260.56967 -12.464692
132.08078 -260.54395 -12.505805
132.15324 -260.20908 -5.168797
133.05344 -260.22333 -5.1710782
135.83357 -260.25485 -5.137403
137.23788 -260.26859 -5.145009
127.78262 -260.32794 -5.357996
131.41641 -260.23792 -5.2213249
132.03084 -260.36749 -5.2140779
132.55421 -260.27289 -5.2064228
138.12369 -260.33331 -5.269702
123.83733 -260.21588 -5.594451
124.65264 -260.24271 -5.5439448
125.44824 -260.25775 -5.5293012
127.02086 -260.28284 -5.4092002
121.4102 -260.27383 -5.6276369
122.89545 -260.23776 -5.636055
123.42653 -260.3396 -5.6386819
123.6257 -260.24664 -5.6336331
123.85577 -260.33835 -5.6508031
124.57678 -260.23227 -7.590827
124.98835 -260.30652 -7.537189
125.09441 -260.2854 -7.4710541
124.72517 -260.27399 -7.6396518
124.96075 -260.29504 -7.7518501
125.07642 -260.20834 -7.7185192
125.23598 -260.2305 -7.7067051
124.71519 -260.30209 -7.8672318
124.8799 -260.29987 -7.8344679
123.83582 -260.35254 -8.4249554
121.91078 -260.2283 -8.7843809
122.06734 -260.2406 -8.6323261
122.67644 -260.33179 -8.7593832
122.59713 -260.37506 -8.8551712
123.4225 -260.20734 -8.941762
122.34914 -260.2348 -9.065609
123.52715 -260.26208 -9.1233025
124.29936 -260.28308 -9.3412943
122.28607 -260.38882 -9.4309654
123.12265 -260.26343 -9.9026213
123.25444 -260.21469 -10.014229
124.98846 -260.35013 -10.166769
126.58827 -260.20959 -10.534953
126.81757 -260.26117 -10.403472
123.9646 -260.29239 -10.707634
124.75136 -260.27631 -10.750957
124.83776 -260.3063 -10.768762
126.34547 -260.30261 -10.628141
125.33424 -260.33749 -11.092775
132.68996 -260.37384 -11.142908
125.25478 -260.37976 -11.264194
132.63963 -260.38632 -11.324645
132.55772 -260.38611 -11.801674
132.50778 -260.26837 -12.123598
123.51468 -260.32343 -12.217352
132.28021 -260.33679 -12.317398
131.92804 -260.32184 -12.747041
131.4478 -260.25427 -12.9984
131.72818 -260.23993 -12.928534
132.01506 -260.25095 -12.956168
138.67682 -260.35703 -15.238369
129.3645 -260.17371 -5.3128319
134.67696 -260.06641 -5.2092381
124.21213 -260.18561 -5.5793929
125.18787 -260.12399 -5.5575252
120.68607 -260.08774 -5.716291
120.85703 -260.06049 -5.7558041
122.69121 -260.12808 -5.631752
125.31026 -260.09116 -7.490344
125.06873 -260.03223 -7.6745262
124.07771 -260.12964 -8.2612314
123.10472 -260.17947 -8.5631819
123.31319 -260.13574 -8.6919098
128.25507 -260.05249 -8.9146328
128.42114 -260.07901 -9.0725689
124.40376 -260.07849 -9.3924723
123.87229 -260.18799 -9.4706402
124.1398 -260.14752 -9.4735975
127.63365 -260.09875 -9.544735
127.49635 -260.09006 -9.7260075
127.77216 -260.11774 -9.8816032
125.01376 -260.17587 -10.071949
127.27623 -260.14575 -10.193529
127.13831 -260.0975 -10.251781
122.4789 -260.12631 -11.044336
122.45126 -260.01175 -11.286627
126.47917 -260.16412 -12.213343
132.21284 -260.1709 -12.55988
129.25598 -260.17938 -13.385393
131.01624 -260.15686 -13.285164
128.85464 -279.91296 -6.7617092
128.29483 -279.8345 -7.4531651
128.43158 -279.8009 -7.5742021
137.72931 -279.83978 -7.5042229
136.34747 -279.87354 -7.7019248
137.7402 -279.88647 -7.7142119
125.93378 -279.83145 -8.3157692
128.85222 -279.82544 -8.245821
137.73816 -279.83682 -8.2734146
128.87984 -279.98474 -8.8038425
136.40915 -279.8046 -8.8358088
137.65953 -279.99091 -8.8349619
139.05634 -279.80432 -9.6282787
121.45847 -279.82764 -12.885289
131.09909 -279.83621 -13.506921
124.03316 -279.94214 -13.664532
121.44595 -279.81219 -14.538893
120.16381 -279.86377 -15.436504
120.24966 -279.99023 -15.648291
128.31374 -279.76138 -6.3675432
126.82439 -279.76886 -6.6587009
128.33659 -279.7486 -6.63342
128.60651 -279.6861 -6.666564
129.67322 -279.60349 -6.8896222
126.76871 -279.64978 -7.1151009
128.86584 -279.77374 -7.731143
130.42468 -279.69913 -7.7332072
124.19757 -279.62656 -7.973731
125.11654 -279.62854 -7.8585119
125.90244 -279.71179 -8.0885067
130.44792 -279.74347 -8.4507008
125.84738 -279.73404 -8.9328899
127.72343 -279.72021 -8.950716
136.99234 -279.78629 -8.8455839
139.13905 -279.76593 -9.0812826
128.79066 -279.72284 -10.529989
128.0528 -279.6283 -10.782872
127.84224 -279.64212 -10.94869
121.97731 -279.65314 -13.492334
131.37611 -279.77649 -13.667046
128.1263 -279.6373 -14.41992
121.87086 -279.72101 -15.899405
120.68361 -279.70309 -16.032379
121.32754 -279.62732 -16.116806
124.84049 -279.65445 -17.210384
125.25441 -279.46008 -6.1261868
123.37246 -279.40286 -6.3141618
124.87233 -279.435 -6.4403491
125.77267 -279.48587 -6.5772991
129.74374 -279.52292 -6.4309878
130.44499 -279.4285 -6.803473
124.85278 -279.45056 -7.120707
125.33563 -279.46704 -7.125545
136.33179 -279.43527 -7.5187569
125.92985 -279.46783 -7.6522551
122.60349 -279.49179 -7.9343109
123.79372 -279.55859 -7.9001031
124.11566 -279.55219 -7.8386698
125.15327 -279.55463 -7.890203
136.27927 -279.46414 -8.1742582
137.06499 -279.41498 -8.7980595
136.20815 -279.47745 -8.8402519
121.438 -279.50879 -9.6273289
128.80951 -279.45633 -10.797308
128.13235 -279.44821 -14.188268
128.67188 -279.5209 -14.545001
125.04343 -279.37219 -6.1315131
121.82279 -279.32648 -6.3030338
122.07146 -279.34192 -6.2342501
122.99048 -279.36426 -6.201365
137.69501 -279.34784 -6.3449712
122.19992 -279.35516 -6.484436
122.58303 -279.3616 -6.475358
121.04836 -279.31262 -6.6469822
121.26397 -279.29367 -6.62816
121.82469 -279.34702 -6.6619091
123.79742 -279.35806 -7.1286469
128.79495 -279.3035 -7.3126812
138.38231 -279.25092 -7.306777
137.73422 -279.38937 -7.4322672
138.9303 -279.24219 -7.7795582
138.36792 -279.25421 -8.1845064
136.3663 -279.37701 -8.6822071
139.15695 -279.39896 -9.0358219
131.90753 -279.38647 -11.779235
131.53705 -279.27637 -12.582664
124.6687 -279.3381 -13.003021
124.49492 -279.32874 -13.358049
120.45146 -279.38083 -13.441317
124.34881 -279.32721 -13.735621
127.88211 -279.22882 -14.589153
123.73722 -279.35648 -15.984287
124.39285 -279.06287 -6.1940479
129.83366 -279.04202 -6.283772
136.32733 -279.12787 -6.353797
137.91367 -279.03949 -6.3454728
139.04214 -279.05875 -6.3059449
125.88915 -279.12897 -6.5162382
136.33353 -279.11371 -7.0886269
137.73839 -279.06897 -7.167829
138.09789 -279.09024 -7.3318071
137.91393 -279.07025 -7.4152708
139.08478 -279.10345 -7.5080762
139.14325 -279.08456 -7.8382611
137.80243 -279.02179 -8.5681572
128.93188 -279.06094 -8.6725225
129.90344 -279.1037 -8.6504688
125.89223 -279.04501 -8.8702374
128.38068 -279.05405 -8.9260092
124.56042 -279.19705 -10.292721
128.9442 -279.02209 -10.458767
124.70277 -279.08093 -11.057014
127.53104 -279.03177 -11.184124
129.05374 -279.13898 -11.275572
120.84084 -279.0556 -11.734318
126.40291 -279.03012 -13.001388
128.04973 -279.078 -13.656341
122.36066 -279.01254 -14.264307
120.02751 -279.08398 -14.447586
124.11231 -279.03589 -15.403593
123.66537 -279.18326 -15.752671
120.63054 -279.17322 -15.830391
129.87883 -278.85303 -6.432075
139.25108 -278.8421 -6.717103
139.13741 -278.94385 -6.9561658
136.47124 -278.94318 -7.1195321
126.3611 -278.97446 -7.5004692
130.37454 -278.83716 -7.439764
136.60814 -278.96005 -7.5266142
128.72324 -278.98511 -7.7562761
128.83252 -278.86047 -7.6662111
129.86441 -278.95258 -7.7623639
136.48096 -278.92426 -7.7412348
128.68774 -278.98627 -8.1711922
139.17006 -278.8916 -8.9833279
123.06214 -278.86295 -9.6252565
129.98837 -278.8811 -10.876407
123.51586 -278.91199 -11.125033
125.01517 -278.92728 -11.162689
127.35486 -278.90875 -11.362488
129.81239 -278.90567 -11.380175
127.00237 -278.88562 -11.797072
128.06633 -278.97678 -12.463271
131.86183 -278.88211 -12.673142
131.85754 -278.90097 -12.930517
132.03714 -278.87347 -12.809795
131.07616 -278.86465 -13.111438
126.53835 -278.78333 -7.5348811
129.93709 -278.61734 -7.6772871
139.18448 -278.73682 -8.0775213
139.34164 -278.70432 -8.2189255
129.94913 -278.63773 -8.5023937
136.86884 -278.78976 -8.8208895
139.22104 -278.62094 -9.1819468
139.11267 -278.67517 -9.389061
129.57855 -278.77985 -9.8500586
130.05341 -278.60263 -10.574667
125.7789 -278.67328 -11.942184
127.10524 -278.67282 -12.136337
130.17789 -278.70959 -12.16778
120.90723 -278.66235 -13.61812
129.44046 -278.78842 -13.788277
130.66057 -278.75125 -14.554781
128.03609 -278.79251 -15.287422
120.90097 -278.68466 -15.510859
124.1122 -278.77014 -16.267681
123.37643 -278.60065 -17.102707
125.96124 -278.57904 -6.107933
126.13666 -278.58334 -6.2489171
137.78969 -278.53439 -6.2822642
130.17155 -278.51666 -6.474844
126.22041 -278.5069 -7.0873461
129.19313 -278.40048 -7.205863
130.17384 -278.51361 -7.3012352
128.99022 -278.48016 -7.4384189
129.30386 -278.46033 -7.453598
129.92955 -278.50934 -7.4170289
128.98245 -278.57883 -7.6735148
129.06566 -278.50119 -7.7734032
130.25679 -278.48126 -7.7011809
130.18892 -278.47147 -8.1567907
125.95799 -278.56891 -8.5278568
130.24548 -278.47717 -8.5249872
139.21857 -278.50604 -8.4877586
126.14487 -278.50323 -8.6998606
129.03844 -278.54504 -8.6473637
129.30902 -278.44327 -8.6282244
125.92088 -278.5593 -8.8923302
127.81152 -278.52911 -8.9019737
128.13257 -278.41992 -8.9445877
128.92384 -278.58035 -8.8721132
129.25508 -278.4892 -8.8396549
129.92673 -278.45746 -8.9104404
130.21432 -278.52225 -8.8813314
126.66402 -278.57492 -9.0806007
127.40893 -278.4021 -9.0807838
139.16576 -278.5246 -9.006526
129.3541 -278.42096 -10.475668
125.06777 -278.56631 -10.92353
125.89504 -278.45471 -11.294802
128.14203 -278.42599 -11.283188
126.52097 -278.41879 -11.435179
127.45282 -278.50558 -11.528662
131.60529 -278.58139 -12.365202
127.97446 -278.4093 -12.535181
131.40329 -278.52866 -12.562258
131.16002 -278.47894 -12.633219
131.15994 -278.59137 -13.83198
129.72032 -278.44281 -15.180676
122.91736 -278.45316 -16.397346
121.71608 -278.5415 -16.986046
126.35551 -278.29071 -6.220088
129.05554 -278.38846 -6.8141069
129.25816 -278.38943 -8.3508863
130.26532 -278.38309 -8.7882605
129.30139 -278.35751 -8.9164352
126.30951 -278.33139 -9.0701437
127.0654 -278.33075 -9.03792
129.3374 -278.2829 -10.134249
124.04485 -278.34033 -11.246383
128.95938 -278.32648 -11.302834
126.6692 -278.35522 -11.590323
128.20605 -278.3938 -12.768003
120.19427 -278.24408 -13.26899
131.10669 -278.31995 -13.296024
124.45546 -278.38638 -14.458852
121.06007 -278.31152 -15.450905
120.57483 -278.2417 -15.73014
138.51639 -278.09866 -6.3130322
139.22435 -278.10956 -8.4344063
139.1808 -278.09863 -8.9108725
125.86711 -278.11871 -11.078321
124.73093 -278.01364 -11.893738
130.74152 -278.17172 -11.814474
126.66132 -278.1449 -12.132057
131.09747 -278.08154 -12.443195
126.24637 -278.00833 -12.836962
122.17216 -278.19708 -13.391957
125.34816 -278.00342 -13.581736
122.60712 -278.14545 -13.637061
125.55578 -278.09616 -13.604015
123.59097 -278.10175 -13.848511
125.34953 -278.14499 -14.488811
120.00655 -278.14313 -14.81696
121.33319 -278.19037 -17.295265
129.45248 -277.94092 -10.047429
130.64636 -277.94913 -11.935271
120.84972 -277.98227 -13.296095
129.70354 -277.93423 -14.922515
138.91992 -277.77939 -6.8627071
139.22131 -277.72571 -8.4191837
139.19334 -277.7583 -8.8988686
139.21249 -277.78033 -9.0240154
125.94065 -277.73962 -11.746429
127.04127 -277.6113 -11.914106
125.94916 -277.70886 -12.109988
126.60973 -277.68994 -12.032337
127.68852 -277.78137 -13.071776
124.0975 -277.66013 -13.617584
137.87143 -277.689 -14.14926
139.17508 -277.42102 -6.6415272
139.19125 -277.46136 -9.0400887
139.21634 -277.41122 -9.0159845
126.19473 -277.43192 -10.182013
126.90461 -277.5936 -11.392048
126.10429 -277.40598 -12.269447
122.27239 -277.52365 -12.52317
126.88204 -277.50024 -12.475578
137.99583 -277.44952 -14.072315
122.69186 -277.39984 -6.3000679
126.07628 -277.25021 -8.6759777
139.23943 -277.32291 -8.6293983
125.70956 -277.22217 -9.3173828
120.18712 -277.31219 -9.5459919
125.53687 -277.24609 -9.8481541
123.96088 -277.27548 -12.132517
124.88158 -277.29327 -12.393405
127.26483 -277.39084 -12.694775
137.38907 -277.2027 -14.125434
125.96092 -277.31189 -15.502104
120.45542 -277.20663 -16.542812
139.17342 -277.11267 -6.3138571
125.85297 -277.01343 -7.439641
120.37546 -277.03622 -8.1496134
125.81602 -277.09485 -8.3020582
139.27489 -277.039 -8.5834293
125.72894 -277.12582 -8.7269621
125.75799 -277.13049 -8.8929195
126.10372 -277.09314 -9.0503483
139.19406 -277.10333 -9.1376591
123.4016 -277.06537 -9.8699331
125.7285 -277.10675 -10.185298
125.5956 -277.14157 -10.240187
123.57256 -277.0224 -11.103502
126.1037 -277.00214 -12.045799
123.47967 -277.11087 -12.632433
137.27289 -277.05374 -13.972239
136.76202 -277.07611 -14.336064
120.36444 -277.15573 -15.536974
120.53405 -277.0379 -15.451621
135.19016 -277.03738 -15.963055
121.37695 -277.13544 -17.590834
125.76933 -276.95676 -6.242393
139.65913 -276.86523 -6.3114181
125.79837 -276.83749 -6.592792
139.26407 -276.87439 -7.1124659
125.77206 -276.96545 -7.3576698
139.21989 -276.84573 -7.2664318
120.46609 -276.8457 -7.566607
139.42766 -276.83331 -7.4212089
126.07365 -276.97943 -7.7371368
139.29391 -276.84167 -7.9030728
139.73688 -276.83179 -8.5223112
139.37668 -276.84485 -8.9933987
139.82269 -276.85516 -8.9491806
139.90268 -276.81766 -9.2374058
120.46146 -276.92621 -10.507604
125.48127 -276.99524 -10.993505
125.69453 -276.86127 -11.132318
125.09784 -276.95963 -11.787751
125.83964 -276.90665 -11.894917
126.66973 -276.90564 -11.904896
124.32018 -276.84537 -12.540426
125.74907 -276.80695 -12.415617
124.76297 -276.9751 -13.283346
124.85141 -276.96545 -13.267319
130.61469 -276.8371 -13.629229
130.03522 -276.89645 -14.597399
128.19225 -276.9964 -14.934498
121.43742 -276.99036 -15.367938
136.97057 -276.96802 -17.297367
125.41587 -276.60452 -6.1871529
138.57126 -276.7655 -6.0578318
125.90571 -276.75836 -6.2389398
126.05553 -276.69952 -6.2730989
125.96082 -276.75894 -6.6415672
126.13701 -276.77057 -6.662704
139.84836 -276.76019 -7.1847391
138.01953 -276.72296 -8.2940102
137.94989 -276.71552 -8.5467987
139.50525 -276.77338 -8.7359457
139.46216 -276.78317 -9.0448618
139.16101 -276.69626 -9.3023014
120.21468 -276.64969 -10.675692
124.25758 -276.6828 -10.874022
123.20221 -276.73544 -11.343122
125.30404 -276.66608 -12.141294
125.98051 -276.69696 -12.667686
132.08234 -276.63239 -14.302156
135.87814 -276.73318 -16.345295
126.49751 -276.68457 -17.122908
121.73778 -276.45245 -6.1386352
126.44339 -276.58099 -6.2140598
128.71564 -276.55957 -6.224246
120.28096 -276.55148 -6.6524272
120.15028 -276.51529 -7.5434508
120.97832 -276.42068 -7.557723
121.92615 -276.53204 -7.7543268
120.90832 -276.59949 -8.6490097
120.87267 -276.492 -9.4663334
122.55696 -276.51529 -10.06278
122.91299 -276.46912 -10.093466
124.08499 -276.522 -10.213995
121.46979 -276.56927 -10.902451
126.18158 -276.44839 -11.562258
120.88268 -276.57751 -11.831106
124.59766 -276.46133 -12.234062
125.31897 -276.55753 -12.553602
126.96272 -276.49359 -12.579627
126.08385 -276.57816 -12.681287
121.00127 -276.49942 -13.653597
138.76163 -276.54535 -13.787907
138.90088 -276.56125 -14.166101
123.60374 -276.43277 -15.927116
120.92344 -276.51013 -16.109646
120.7052 -276.45209 -16.292479
123.2115 -276.52161 -16.333981
136.22156 -276.48636 -16.593685
120.1127 -276.37308 -7.3941202
120.7067 -276.20267 -7.8387918
120.75543 -276.21704 -8.6920347
121.16851 -276.24567 -10.777741
121.95229 -276.24191 -11.016867
120.69984 -276.34485 -11.485136
125.65763 -276.26328 -11.566738
126.48544 -276.21686 -11.753265
124.96402 -276.22345 -12.594038
127.1279 -276.29034 -12.5535
124.65625 -276.28015 -12.650956
125.49793 -276.22641 -12.74231
125.60886 -276.25681 -12.697258
126.71776 -276.27185 -12.71674
120.76906 -276.3222 -13.122746
120.91261 -276.21497 -13.334157
122.06278 -276.38577 -13.689602
138.90367 -276.34781 -13.973337
139.33466 -276.35626 -14.274193
121.42228 -276.21573 -15.49516
126.08995 -276.10983 -6.1381788
126.6392 -276.06793 -6.2485242
128.62251 -276.14691 -6.2087688
120.71265 -276.16003 -7.544157
121.37463 -276.14197 -7.831944
120.98572 -276.16989 -8.1460304
120.71841 -276.11938 -8.3559513
121.04606 -276.14734 -8.6375294
120.47931 -276.19131 -10.554062
127.56397 -276.07703 -10.977917
122.04992 -276.16766 -11.032999
128.01088 -276.15726 -11.580202
125.70319 -276.1889 -11.671001
120.2026 -276.00919 -12.193579
136.64133 -276.04858 -12.514063
136.33331 -276.12015 -13.186897
120.16175 -276.05566 -13.625446
120.91423 -276.17072 -13.721723
120.72978 -276.05927 -14.608699
120.68858 -276.12415 -14.979202
120.31033 -276.17014 -15.366331
139.58714 -275.91299 -5.9678359
120.84748 -275.95767 -7.1390529
121.59909 -275.99109 -7.8788381
120.36079 -275.85089 -10.371696
125.70659 -275.99014 -11.4737
128.14569 -275.93958 -11.530243
120.15214 -275.85477 -11.995714
125.9913 -275.92722 -12.019758
136.89236 -275.83115 -12.382765
127.22804 -275.9877 -12.450546
136.69543 -275.92276 -12.533274
125.80089 -275.99533 -12.932821
136.52194 -275.9585 -12.86343
136.5574 -275.84985 -13.169607
136.35883 -275.90735 -13.350212
120.06265 -275.82416 -13.472428
136.43608 -275.9505 -14.073637
131.84915 -275.84692 -14.511251
131.47084 -275.93323 -14.749107
135.71678 -275.8407 -14.678093
124.61817 -275.91574 -14.934298
136.63251 -275.94183 -14.925076
135.80222 -275.87762 -15.049182
136.92178 -275.83917 -15.292352
126.4685 -275.66058 -6.1168451
129.77847 -275.66275 -8.1871014
129.54031 -275.7912 -8.494669
129.73143 -275.6568 -8.4640751
129.57581 -275.62735 -8.7190809
129.53357 -275.71439 -8.9177217
129.74594 -275.66272 -8.9763737
129.51733 -275.78772 -9.8651333
129.69827 -275.66241 -9.9016685
125.51029 -275.73093 -10.086926
129.524 -275.74683 -10.329993
128.14737 -275.60468 -10.824823
129.68909 -275.62326 -10.941195
129.83817 -275.63831 -11.475847
129.77191 -275.68445 -11.681017
137.01122 -275.76944 -12.363618
121.7799 -275.64282 -12.661517
136.92442 -275.74539 -12.653919
136.37134 -275.74304 -13.11834
136.57133 -275.793 -13.316656
129.47397 -275.71918 -13.469643
128.05975 -275.61975 -13.724133
129.4335 -275.74463 -13.717176
124.83524 -275.64618 -14.928677
136.84427 -275.75378 -14.960883
124.30892 -275.69269 -15.839623
136.81927 -275.65665 -16.158085
124.56673 -275.66891 -16.462555
129.26553 -275.60486 -16.82568
139.70905 -275.45425 -5.9684119
121.20413 -275.55249 -6.1320128
120.02281 -275.45068 -10.16717
129.78015 -275.59296 -10.093037
120.57021 -275.4259 -10.525234
126.34602 -275.52472 -10.735348
126.53388 -275.40137 -10.950291
128.06699 -275.53699 -10.997524
127.51215 -275.40338 -11.002909
121.30005 -275.40732 -11.51657
121.70584 -275.45825 -12.160555
137.09352 -275.48138 -12.689634
122.67088 -275.41086 -12.987787
137.00809 -275.44122 -13.048815
128.26942 -275.45044 -13.22666
131.02438 -275.53693 -13.374577
120.72186 -275.4278 -13.472248
128.17667 -275.47809 -13.791582
128.3933 -275.42087 -14.383194
136.70316 -275.49365 -14.290826
136.72772 -275.48193 -14.521889
136.87204 -275.56195 -16.05294
121.13309 -275.58438 -17.164618
129.90338 -275.30096 -5.8975492
139.11728 -275.29608 -5.9965482
137.55124 -275.31677 -6.0500841
137.09445 -275.3526 -6.3426542
137.1813 -275.26166 -6.4334192
137.13458 -275.3269 -6.6887002
137.24481 -275.2597 -7.2330599
137.15329 -275.25226 -8.2512836
137.08333 -275.27594 -8.5307035
137.34116 -275.22974 -8.5536098
137.09915 -275.2948 -8.66611
137.12756 -275.2829 -8.9482498
137.13168 -275.3512 -9.8796139
137.30577 -275.22241 -9.8134565
137.14046 -275.33569 -10.100724
137.44409 -275.25958 -10.068947
137.28287 -275.20673 -10.653185
137.41937 -275.23749 -10.98704
120.21901 -275.27164 -11.03932
137.17093 -275.36392 -11.376569
137.26834 -275.20901 -11.319247
137.39005 -275.26254 -12.653432
120.37222 -275.396 -13.155409
137.34512 -275.37534 -13.084534
139.37091 -275.36755 -13.443128
127.05021 -275.38693 -13.887562
138.04102 -275.25491 -13.956564
139.41777 -275.371 -13.919555
130.69949 -275.36017 -14.029376
137.4113 -275.30228 -14.11141
139.40839 -275.36621 -14.181448
136.95004 -275.38712 -14.534201
139.33856 -275.32486 -14.459713
137.06531 -275.28198 -14.989324
138.98094 -275.32944 -15.498038
137.60498 -275.37354 -15.801604
130.25525 -275.36938 -17.786636
133.99388 -275.15552 -5.9095178
136.67778 -275.03528 -5.8497009
121.39021 -275.1438 -6.057518
137.18954 -275.18259 -6.6553521
137.33167 -275.18088 -6.693109
137.30347 -275.16956 -7.4587889
120.78452 -275.15128 -8.3690615
120.80441 -275.14725 -8.4606438
137.26886 -275.17285 -8.610837
137.33165 -275.16571 -8.9687757
120.3932 -275.00555 -9.4043159
137.34599 -275.11157 -9.8425417
125.10491 -275.08688 -10.146526
125.29561 -275.06683 -10.19047
137.25851 -275.13409 -10.146478
120.23075 -275.14145 -10.779012
127.43825 -275.01389 -10.769916
124.09795 -275.07196 -10.83475
126.51864 -275.09326 -11.043667
137.34518 -275.17117 -11.369339
137.20226 -275.08472 -11.544518
137.23454 -275.16943 -11.997358
125.77349 -275.17459 -12.939838
137.49731 -275.16565 -12.987116
137.65547 -275.17291 -13.391876
128.31187 -275.0365 -13.64764
139.45444 -275.10468 -13.749632
122.99059 -275.08472 -13.865146
128.63144 -275.09143 -13.816333
137.40279 -275.11588 -14.134559
139.35591 -275.02463 -14.093754
128.88564 -275.02536 -14.255003
137.5863 -275.05991 -14.585646
139.23599 -275.04254 -14.417595
129.39148 -275.16577 -16.562656
127.60986 -274.95776 -6.2000518
120.19745 -274.82794 -10.72305
120.74461 -274.94092 -10.767141
125.7428 -274.88901 -11.442483
126.11179 -274.90158 -11.674583
127.50164 -274.90625 -13.3297
139.66403 -274.90707 -13.420471
139.52887 -274.93741 -13.798972
121.13585 -274.89343 -13.806025
137.48193 -274.9826 -13.896617
139.36884 -274.96423 -14.105619
137.49237 -274.93231 -14.249603
121.86528 -274.8353 -15.222037
125.81466 -274.60272 -5.9583859
133.51582 -274.74783 -5.9049058
139.32397 -274.71948 -5.9845672
139.56102 -274.69843 -6.001605
127.85083 -274.68576 -10.92617
128.30052 -274.74933 -10.979467
124.05301 -274.76575 -11.310611
125.74161 -274.68512 -11.353818
120.64631 -274.6727 -11.83274
125.61959 -274.76175 -13.218231
121.0333 -274.7229 -13.740005
137.65991 -274.70105 -14.530049
125.07794 -274.65433 -14.700861
130.0519 -274.71146 -15.219328
127.13174 -274.59647 -6.1916771
123.0649 -274.5545 -10.956482
126.64771 -274.55103 -10.867962
124.19176 -274.53293 -11.058228
127.01502 -274.56613 -11.40196
122.64902 -274.51801 -11.862661
125.77408 -274.59216 -13.162798
120.30574 -274.42352 -13.33436
127.53611 -274.56253 -13.365475
127.64281 -274.5733 -13.294518
122.22321 -274.53485 -13.477382
129.79228 -274.43402 -13.438938
120.7431 -274.52142 -13.785118
139.09933 -274.55994 -14.094091
139.29218 -274.49799 -14.04241
139.6207 -274.41882 -14.077166
129.72659 -274.42786 -14.221455
139.52614 -274.40051 -14.663689
136.15488 -274.3277 -5.8518271
128.93475 -274.20132 -9.8122234
129.24942 -274.28574 -10.010814
124.99471 -274.24255 -10.437008
125.36218 -274.20004 -10.582056
123.38254 -274.32474 -10.716679
129.98639 -274.20996 -10.64138
122.72157 -274.27277 -10.966818
122.99466 -274.27301 -10.823162
125.94028 -274.25403 -11.505318
121.76611 -274.34103 -11.737196
127.00114 -274.20093 -11.668489
121.52 -274.35638 -11.88135
120.96034 -274.2298 -13.540014
121.64951 -274.26855 -13.719423
130.1785 -274.20459 -13.683578
129.87074 -274.21527 -14.082591
130.48831 -274.33026 -14.190302
139.67838 -274.32703 -14.12981
130.25021 -274.28412 -14.445796
122.32461 -274.24182 -16.520262
130.29906 -274.13892 -5.8706732
131.1644 -274.08328 -5.8929572
121.79565 -274.04004 -6.0186701
122.54896 -274.02191 -6.2706261
122.5434 -274.03333 -6.5881939
124.82288 -274.08563 -7.5619721
124.40959 -274.05612 -7.872046
129.01688 -274.1723 -9.5514526
128.63458 -274.18228 -9.7958908
120.91209 -274.14185 -9.8299637
125.13667 -274.17865 -10.559191
121.69698 -274.16138 -10.658484
128.19016 -274.07953 -11.127253
124.58773 -274.09894 -11.277573
125.03913 -274.04187 -11.40555
126.1566 -274.08667 -11.464399
128.70828 -274.18008 -11.473104
122.95885 -274.16528 -11.787585
130.20203 -274.17847 -13.394603
128.56229 -274.19519 -13.501965
120.94028 -274.10327 -13.697842
121.0452 -274.00266 -14.258644
127.50115 -274.03558 -15.80691
131.05038 -273.94034 -5.9121022
138.26587 -273.91693 -5.9723701
128.80714 -273.8269 -6.0684462
127.48793 -273.87866 -6.2252798
124.30006 -273.85104 -7.5175228
121.84503 -273.86136 -8.5863504
129.31572 -273.86115 -9.5730209
129.28947 -273.80807 -9.8888655
125.09561 -273.97876 -10.238052
121.60458 -273.8262 -10.975555
128.6301 -273.80133 -11.309456
121.86967 -273.84225 -11.55806
126.21507 -273.93243 -11.482291
122.06577 -273.82687 -11.660899
121.15268 -273.85287 -12.493214
124.14207 -273.86584 -13.459447
124.98727 -273.90433 -13.507448
130.42804 -273.96985 -13.450029
129.81473 -273.81824 -16.247805
123.33817 -273.92654 -16.423023
130.2933 -273.79803 -5.834209
120.58631 -273.75281 -9.524519
121.74739 -273.69098 -9.4371357
122.06623 -273.65234 -9.8906918
128.73735 -273.75592 -9.9299335
125.32619 -273.78845 -10.747751
128.28952 -273.7674 -10.783812
128.48187 -273.70987 -10.89529
128.24699 -273.79233 -11.069916
130.87318 -273.68268 -12.127592
121.60638 -273.6601 -12.369317
121.87316 -273.67786 -12.788246
120.62448 -273.63681 -13.218761
120.97197 -273.62506 -13.363884
124.54037 -273.68652 -13.386858
121.83232 -273.71106 -13.772508
128.27118 -273.76297 -13.683416
120.76845 -273.67609 -13.864971
120.83259 -273.6691 -13.991243
121.37457 -273.79126 -13.855452
122.06598 -273.73804 -13.83508
136.53815 -273.70764 -14.69519
135.72931 -273.56354 -5.8375912
128.80804 -273.47879 -6.0089922
139.93417 -273.50479 -6.0741601
120.37243 -273.4668 -8.1812611
121.06672 -273.40906 -8.6226978
121.23312 -273.4772 -8.656106
121.82867 -273.43311 -8.6009197
121.76691 -273.40204 -11.033054
120.85313 -273.47287 -11.976528
129.91846 -273.5853 -11.904572
120.60326 -273.57858 -12.719027
120.61308 -273.5863 -13.129979
120.47464 -273.42737 -13.631674
120.68601 -273.4794 -13.720051
121.01591 -273.50006 -13.785736
124.21817 -273.51251 -13.630972
127.6875 -273.44193 -13.924063
136.54724 -273.51306 -14.251449
120.97542 -273.59473 -14.484802
136.53972 -273.46967 -14.867561
130.20044 -273.53622 -16.207159
121.39793 -273.49908 -16.626141
130.3466 -273.32025 -5.843966
139.57031 -273.38916 -6.3115358
124.61396 -273.33636 -6.727128
120.61523 -273.32449 -8.565732
122.09917 -273.29523 -8.5473347
120.27215 -273.20062 -8.8109951
120.99888 -273.33206 -9.1181002
120.88173 -273.31244 -9.4534378
125.01794 -273.31573 -10.016211
129.80493 -273.38284 -10.196178
122.62509 -273.32751 -10.949488
125.61036 -273.38962 -10.999777
128.45082 -273.33975 -10.958941
125.36453 -273.33176 -11.08244
129.80272 -273.2406 -11.156672
128.55284 -273.26099 -11.297951
130.50322 -273.29276 -12.52117
126.65504 -273.35229 -12.73889
124.0087 -273.37683 -14.367292
121.76056 -273.37042 -14.7643
127.88158 -273.2374 -14.644146
129.90999 -273.28455 -16.464661
136.80661 -273.09698 -5.8671799
124.90494 -273.05652 -6.2900038
125.36823 -273.13824 -6.3295679
124.51743 -273.10229 -6.8072081
139.46744 -273.01675 -6.8094401
122.11533 -273.03558 -8.6191235
120.70029 -273.03101 -9.4878702
124.92893 -273.13443 -9.5768147
125.4825 -273.07391 -11.132662
130.06377 -273.17203 -11.008444
128.18311 -273.12024 -11.328125
127.11282 -273.0567 -11.475266
124.17076 -273.05371 -11.967646
130.08548 -273.0607 -11.849166
127.31465 -273.08633 -12.235853
129.30646 -273.05817 -12.541012
129.65646 -273.07666 -12.558198
127.20986 -273.00159 -12.615848
127.68487 -273.12543 -12.735818
126.7131 -273.03729 -13.928223
122.53844 -273.17352 -14.906961
123.01119 -273.15405 -15.403979
123.47556 -273.19736 -15.765056
129.99687 -273.05124 -16.424706
136.73294 -272.99292 -5.6745229
123.81253 -272.8396 -8.4583044
121.83633 -272.8526 -8.6853523
121.12015 -272.87805 -8.9457626
120.0601 -272.81107 -9.1058416
120.23354 -272.86407 -9.480526
121.40981 -272.81348 -9.4241028
123.00394 -272.99518 -9.7538071
121.1424 -272.99954 -10.094143
125.29523 -272.84021 -10.632784
125.07495 -272.93637 -11.290411
125.4082 -272.96356 -11.216398
127.6205 -272.87509 -11.374903
128.84416 -272.89035 -11.311449
129.34782 -272.80814 -11.382989
124.45549 -272.94772 -12.168675
129.79156 -272.98999 -12.24838
122.49207 -272.92957 -12.614292
126.48833 -272.83575 -13.362627
128.32141 -272.87268 -14.190403
124.89659 -272.86374 -14.254477
123.90087 -272.66666 -8.276969
123.11477 -272.72607 -8.5135632
123.36604 -272.69308 -8.5339403
123.7869 -272.66806 -8.5377693
125.40514 -272.7041 -8.5528355
120.5327 -272.66757 -8.7309971
122.52118 -272.62762 -8.624073
120.58496 -272.6792 -9.4485836
121.81596 -272.63522 -9.6474257
122.96829 -272.73282 -9.6878223
123.50215 -272.62817 -9.676918
120.29854 -272.6991 -9.820673
129.36301 -272.69669 -10.568852
127.57133 -272.6308 -10.765023
127.47333 -272.64484 -10.970189
127.80391 -272.62885 -11.002789
127.26974 -272.67654 -11.645774
124.74434 -272.77774 -12.16852
129.7272 -272.61768 -12.597397
122.53265 -272.69757 -13.109367
125.9712 -272.79425 -13.095867
128.0184 -272.70514 -14.120166
133.1712 -272.57779 -5.7468772
137.24475 -272.51123 -5.6496539
130.38757 -272.54675 -5.836071
124.04742 -272.59326 -8.6998024
120.98039 -272.51935 -9.3877783
122.14684 -272.45627 -9.509655
120.67426 -272.57135 -9.8271599
129.06699 -272.50122 -10.269382
129.05518 -272.54172 -10.5764
129.79546 -272.57712 -10.628476
129.52228 -272.509 -11.161138
121.76701 -272.56348 -11.876326
124.74081 -272.57892 -11.856866
124.8576 -272.53543 -11.889645
126.23912 -272.53229 -11.80081
128.21677 -272.47827 -11.927923
128.98712 -272.54456 -11.96146
129.40927 -272.57626 -11.836319
125.03461 -272.43973 -12.310059
129.04727 -272.58392 -12.331442
129.26669 -272.56665 -12.482581
122.12513 -272.59586 -12.799248
128.79852 -272.51031 -12.609897
122.05658 -272.57654 -12.8377
121.90993 -272.43179 -14.071729
126.02383 -272.52982 -15.034302
133.91769 -272.20819 -5.7844448
123.488 -272.3204 -7.7973709
124.03333 -272.22464 -8.279768
125.23212 -272.31744 -8.549881
120.98567 -272.34534 -9.4648743
122.98905 -272.32626 -9.4933853
120.49454 -272.27728 -9.6705856
129.04108 -272.29523 -10.556005
129.72099 -272.21997 -11.198869
124.18971 -272.22076 -11.74477
124.84279 -272.38162 -12.111521
128.98424 -272.20831 -12.607754
125.41053 -272.20175 -13.038938
123.47815 -272.31851 -13.366624
126.25708 -272.30945 -13.475843
123.45139 -272.28201 -13.715475
124.92941 -272.39346 -13.684857
125.95213 -272.29095 -13.847542
121.93977 -272.22955 -14.159622
126.54898 -272.22089 -14.073313
125.53647 -272.36664 -14.538914
133.0491 -272.12695 -5.7735538
134.75095 -272.048 -5.7514701
127.88763 -272.0665 -5.9741549
128.08028 -272.18018 -5.9801922
134.05765 -272.11374 -5.812664
124.11632 -272.1676 -8.16504
121.47703 -272.01038 -8.3781013
121.83312 -272.16382 -8.3732548
125.15974 -272.12256 -8.5523491
125.71702 -272.19519 -9.1566563
120.26457 -272.08972 -9.4203157
120.61068 -272.13406 -9.4199963
123.34543 -272.18851 -9.4782734
125.40746 -272.13126 -9.7442017
121.06155 -272.185 -10.315298
121.34084 -272.0611 -10.35372
120.64417 -272.14185 -10.448895
120.99477 -272.13834 -10.443325
129.71881 -272.06287 -11.664505
123.86664 -272.1799 -11.82665
123.01709 -272.18091 -12.090443
126.43334 -272.06787 -12.258657
127.81404 -272.01752 -12.472471
124.33169 -272.01041 -12.777221
121.73685 -272.01089 -13.017246
123.65273 -272.16766 -13.094865
127.72862 -272.15442 -13.206763
125.78384 -272.19537 -13.478655
121.81971 -272.0354 -13.715057
122.21275 -272.15308 -13.814389
135.77789 -272.08447 -14.619586
132.44786 -271.82266 -5.7371001
139.98961 -271.82684 -6.0235472
125.35842 -271.82205 -8.2412205
121.73514 -271.83884 -8.4765606
125.58316 -271.81265 -8.440855
120.27346 -271.96942 -9.3832932
121.67256 -271.88232 -9.4312086
125.54814 -271.86615 -9.5134096
125.63622 -271.86017 -9.4932442
122.02534 -271.80038 -9.7043552
125.52353 -271.81607 -9.6707706
128.9109 -271.9765 -10.105826
126.98367 -271.91745 -11.144262
127.26985 -271.84082 -11.074356
127.23274 -271.99762 -11.221236
126.69465 -271.86169 -11.470688
129.47014 -271.9227 -11.808098
129.89473 -271.92755 -11.870478
129.51215 -271.83337 -12.057003
126.16669 -271.90347 -12.501269
127.43649 -271.91068 -12.482655
122.9558 -271.9324 -12.624436
125.52354 -271.87033 -13.100452
125.79669 -271.96814 -13.125751
121.68395 -271.81985 -13.456547
122.43436 -271.83801 -13.785046
136.16089 -271.81992 -14.624825
137.4935 -271.69376 -5.6572409
133.21208 -271.65024 -5.8101888
124.99103 -271.7135 -8.5267277
125.07825 -271.74481 -8.5436354
120.94482 -271.71338 -9.3931856
122.11584 -271.75122 -9.4318333
120.53048 -271.6857 -9.6881466
121.77881 -271.73688 -9.7218609
121.03207 -271.75342 -9.8105068
120.64462 -271.76324 -10.584586
120.97293 -271.76587 -10.473017
121.33784 -271.71124 -10.676661
127.17776 -271.60886 -10.73057
121.04108 -271.73346 -11.028557
121.32245 -271.67053 -11.376425
129.18399 -271.66275 -11.534967
121.40237 -271.78326 -11.759123
137.14647 -271.66241 -12.083943
121.38763 -271.66974 -12.270769
123.04876 -271.68884 -12.280428
126.17857 -271.78027 -12.316424
129.74496 -271.63901 -12.233044
120.99401 -271.73911 -12.539892
137.22321 -271.63757 -12.566393
122.1453 -271.70172 -12.606014
122.40333 -271.74084 -12.627009
124.67129 -271.784 -12.916108
137.16953 -271.7973 -12.832669
124.14699 -271.75287 -13.105384
123.73093 -271.69522 -13.812739
124.55759 -271.65372 -13.8923
121.7893 -271.77109 -14.149247
125.82951 -271.78043 -14.508213
136.40608 -271.70752 -14.834299
136.99707 -271.57892 -5.5641398
137.31808 -271.45944 -5.585525
133.31497 -271.52319 -5.7303271
135.08881 -271.59088 -5.6985469
127.69765 -271.56876 -5.976367
125.42833 -271.52075 -8.2675972
124.8886 -271.4371 -8.487587
120.99993 -271.42316 -9.3908329
125.84618 -271.50665 -9.331337
120.54451 -271.54419 -9.4891586
120.67368 -271.47238 -9.5772276
122.30881 -271.47012 -9.4154072
120.63889 -271.53177 -9.6419878
120.9762 -271.45602 -9.8588219
125.6431 -271.53012 -9.8229256
120.65858 -271.46323 -10.582401
121.0091 -271.48453 -10.663902
121.42167 -271.41977 -10.655084
127.10389 -271.53418 -10.687421
127.27187 -271.41464 -10.697681
121.49312 -271.42734 -11.15251
127.70605 -271.46487 -11.425686
128.02873 -271.43539 -11.483398
124.13764 -271.44391 -11.753174
129.01724 -271.5838 -11.612175
122.18391 -271.41092 -11.83541
137.33051 -271.50439 -11.9417
121.45784 -271.4389 -12.580709
121.7446 -271.44357 -12.585165
137.34445 -271.4563 -12.58399
121.71768 -271.40753 -12.886086
124.62196 -271.59039 -13.507717
125.79095 -271.41437 -13.502527
132.98322 -271.30713 -5.7591019
133.79523 -271.23694 -5.79919
136.30267 -271.38303 -5.6700611
138.53825 -271.37662 -5.743372
125.55818 -271.29327 -5.9090128
125.90047 -271.33679 -5.906003
123.5592 -271.21246 -6.0634241
125.74764 -271.22522 -8.156785
124.89343 -271.27359 -8.3539038
124.97945 -271.31186 -8.5948429
125.05476 -271.32068 -8.5157919
125.73815 -271.21619 -8.5067673
126.21632 -271.30118 -8.4818525
125.34945 -271.24902 -8.6857777
126.14106 -271.30829 -9.4553242
121.44084 -271.2377 -10.590627
120.4259 -271.36517 -10.698069
120.61159 -271.36331 -10.657332
127.0338 -271.29669 -10.910551
121.07812 -271.26035 -11.034498
121.64304 -271.30386 -11.121992
128.95483 -271.37689 -11.111499
121.4626 -271.36087 -11.327654
123.48914 -271.24579 -11.377148
125.63412 -271.21942 -11.563294
121.44805 -271.35962 -11.654175
126.16271 -271.31128 -12.227281
120.92293 -271.3129 -12.693094
138.92696 -271.30582 -12.93857
126.7728 -271.36316 -13.021242
137.1658 -271.23645 -13.382792
121.46324 -271.2356 -13.504134
122.04944 -271.25046 -13.488194
123.15042 -271.37152 -15.362287
