# .PCD v0.7 - Point Cloud Data file format
VERSION 0.7
FIELDS x y z
SIZE 4 4 4
TYPE F F F
COUNT 1 1 1
WIDTH 1532
HEIGHT 1
VIEWPOINT 0 0 0 1 0 0 0
POINTS 1532
DATA ascii
134.48318 -81.428024 0.51297498
136.8802 -81.572662 0.521716
137.46945 -81.45192 0.50379598
139.04266 -81.433731 0.52130198
128.42958 -81.282562 0.80234498
121.45305 -81.399712 0.74737698
124.19798 -81.288528 0.743783
129.83842 -81.382233 0.53917801
131.2681 -81.271736 0.48931599
131.45303 -81.325867 0.493907
136.91862 -81.308403 0.52330899
137.40675 -81.349106 0.51435202
139.31151 -81.372391 0.53341198
126.44531 -81.366432 0.190694
121.93608 -81.050491 0.82782501
125.37852 -81.046799 0.80655301
120.55194 -81.122498 0.744551
122.17125 -81.053909 0.73909801
126.18976 -81.061661 0.78159201
128.15532 -81.036041 0.784998
129.44562 -81.087883 0.70082098
130.18062 -81.069016 0.51233602
133.85654 -81.08609 0.50604701
138.29158 -81.159508 0.504188
138.95541 -81.024254 0.58332801
127.78915 -80.942337 0.80510801
124.10461 -80.947876 0.76720703
125.25934 -80.964813 0.79172099
126.54565 -80.900192 0.780671
127.02178 -80.948441 0.77603
128.96344 -80.966736 0.78114498
129.40623 -80.989998 0.730528
131.84697 -80.950371 0.516684
133.87067 -80.899818 0.469284
135.65858 -80.963959 0.498804
136.20639 -80.862625 0.51954401
137.82532 -80.891914 0.50899899
127.78629 -80.906891 -0.83255202
126.22175 -80.62104 0.81724399
122.64856 -80.618164 0.780213
125.08557 -80.685524 0.76775402
129.33081 -80.72258 0.758982
133.77832 -80.66555 0.52053398
134.5247 -80.614937 0.496187
135.45349 -80.669518 0.50068098
135.88208 -80.707336 0.54090703
138.15378 -80.614105 0.53655201
125.95909 -80.614693 0.177531
122.16491 -80.525711 0.83137
123.4473 -80.450188 0.82836801
124.93964 -80.466797 0.81810999
126.67313 -80.409454 0.82573903
127.0424 -80.595039 0.80575103
129.0842 -80.541824 0.828215
123.78441 -80.538132 0.787103
129.11429 -80.511902 0.75948298
129.26562 -80.484634 0.73079401
129.26865 -80.505272 0.57603502
130.28304 -80.501236 0.555843
134.76625 -80.443794 0.48146299
136.10782 -80.450119 0.529194
139.27431 -80.476959 0.57145399
121.78442 -80.298523 0.845164
120.57822 -80.392242 0.76760602
120.97881 -80.24855 0.75604999
122.16733 -80.201988 0.77968103
122.68031 -80.217102 0.78656399
122.9994 -80.245964 0.79037899
124.54659 -80.270866 0.78899902
126.24734 -80.315529 0.79112899
128.19492 -80.258797 0.77661002
129.45381 -80.321136 0.52419901
129.82623 -80.299294 0.53765601
132.81009 -80.296738 0.52455097
134.93936 -80.309723 0.526182
135.6882 -80.340164 0.529746
137.35229 -80.295662 0.53668398
138.58339 -80.206551 0.57607198
120.63937 -80.160759 0.80905598
121.44125 -80.086365 0.81833899
124.88416 -80.124893 0.80860001
125.24927 -80.17997 0.82456702
129.3597 -80.038559 0.55555803
129.99167 -80.185043 0.55786902
132.71719 -80.117004 0.52748698
137.83902 -80.090881 0.563766
138.2796 -80.150345 0.57476902
139.08249 -99.904282 0.43718401
139.48105 -99.844513 0.44385901
120.4535 -99.990211 0.21495201
127.91583 -99.938141 0.25919601
129.53441 -99.865242 0.26796499
138.47018 -99.971672 0.387301
132.17551 -99.655182 0.42961299
139.90292 -99.789185 0.46225101
123.02178 -99.688873 0.23694099
123.7948 -99.706818 0.22193401
124.90348 -99.77401 0.220918
126.63948 -99.798958 0.242843
127.41621 -99.640823 0.25654
130.25116 -99.751587 0.284969
132.97903 -99.722534 0.34151399
133.26547 -99.514725 0.46236899
121.52045 -99.578064 0.22868299
124.90378 -99.427437 0.243185
126.51399 -99.407845 0.30791301
126.979 -99.41925 0.246619
131.81676 -99.438667 0.31501701
133.49112 -99.473251 0.354049
132.07565 -99.393066 0.41879499
136.6145 -99.399239 0.43380001
139.45636 -99.354797 0.43235499
123.8389 -99.364952 0.233858
131.02132 -99.337387 0.31178099
137.7543 -99.011398 0.46123999
120.16557 -99.035576 0.235697
120.84872 -99.018509 0.23176
122.25273 -99.037964 0.251376
125.86546 -99.006683 0.27468601
129.3566 -99.041306 0.296516
131.38565 -99.120918 0.313411
133.08463 -99.034668 0.353048
136.22836 -98.968239 0.42081401
136.56612 -98.899292 0.43147501
137.39291 -98.868401 0.42624
138.96301 -98.984512 0.46320501
120.52397 -98.833649 0.233841
125.48082 -98.904236 0.27472699
134.19734 -98.967743 0.37961501
137.84244 -98.973587 -1.133413
139.42545 -98.604027 0.45524201
120.16478 -98.606628 0.257314
121.40132 -98.70591 0.25832099
125.50629 -98.617088 0.31822601
127.83078 -98.773483 0.26882699
131.42108 -98.658958 0.34664199
135.07938 -98.697884 0.38831699
133.51343 -98.443726 0.404212
134.98767 -98.536827 0.4068
135.40656 -98.550476 0.413003
136.05453 -98.546173 0.43899
139.70485 -98.49456 0.46657601
128.29803 -98.541153 0.29469299
133.7511 -98.525055 0.38730401
134.67554 -98.592331 0.3937
135.02771 -98.214813 0.412274
136.61755 -98.236053 0.46349499
120.31784 -98.20108 0.27201399
121.32465 -98.266159 0.24064501
122.09466 -98.209122 0.27821901
122.6376 -98.218399 0.285198
124.70526 -98.228821 0.27091101
126.99535 -98.222298 0.30096799
133.36319 -98.200531 0.38074699
135.0759 -98.353912 0.39087099
134.26674 -98.15831 0.41885301
139.42606 -98.151443 0.48747101
129.04828 -98.12458 0.31580999
137.48727 -97.811584 0.46742401
120.12862 -97.86853 0.279946
124.59975 -97.999802 0.358769
125.09178 -97.829208 0.308238
130.67667 -97.904427 0.32740101
137.56927 -97.865997 0.221177
139.00902 -97.821243 -0.085862003
133.08624 -97.763809 0.404625
137.07895 -97.797974 0.44999301
138.99767 -97.73349 0.50579202
139.95975 -97.75769 0.49972999
121.76905 -97.737198 0.290575
122.93752 -97.733078 0.28894299
125.75287 -97.775864 0.31672701
131.70522 -97.764847 0.374055
135.02521 -97.436218 0.441935
137.44695 -97.47287 0.436979
138.24713 -97.504868 0.470029
139.07953 -97.508255 0.47573301
120.63038 -97.507759 0.293284
121.07904 -97.487633 0.26557401
122.7271 -97.478256 0.300713
124.92368 -97.449608 0.33187699
126.56393 -97.416832 0.32516101
130.97812 -97.434555 0.34597701
132.19261 -97.416084 0.38210699
133.42516 -97.435692 0.38696399
130.24222 -97.302986 0.436463
134.1351 -97.064644 0.41989499
135.47418 -97.000351 0.437033
137.04819 -97.14949 0.49583599
122.08853 -97.08638 0.32974499
126.07178 -97.019875 0.33431599
131.07904 -97.024544 0.358152
132.11852 -97.046219 0.38957599
129.8019 -96.883507 0.438297
134.60544 -96.935684 0.42878899
136.16745 -96.947449 0.45333901
136.55058 -96.918335 0.509166
122.90836 -96.987793 0.319168
123.39606 -96.964386 0.31568599
127.84714 -96.921844 0.34677401
137.74837 -96.625038 0.52569097
138.54199 -96.622002 0.52187097
138.97385 -96.628059 0.52222699
122.27631 -96.770866 0.33103299
122.89656 -96.612366 0.31404001
123.59656 -96.685135 0.32031101
124.90343 -96.613297 0.31780601
125.50497 -96.633377 0.32866901
133.25867 -96.711029 0.39191499
136.71661 -96.646271 -0.489696
131.31154 -96.431702 0.41196099
133.48611 -96.493622 0.41292599
134.95395 -96.516838 0.44750199
135.29515 -96.539192 0.469154
121.86985 -96.576965 0.348131
122.59647 -96.519577 0.31985
136.64984 -96.486084 -1.1237479
129.4431 -96.355949 0.43068901
120.18176 -96.276794 0.28221199
124.86832 -96.26001 0.35353699
129.42627 -96.290138 0.36978301
130.10919 -96.214149 0.37582299
131.75659 -96.326797 0.39469099
128.36302 -96.156052 0.406692
121.73022 -96.183319 0.336142
125.4655 -96.1875 0.35147399
129.74356 -95.836662 0.40500399
135.38509 -95.83712 0.46000901
139.03365 -95.86393 0.50891101
121.77 -95.827019 0.357315
126.13702 -95.864403 0.36978301
128.23227 -95.839539 0.368765
132.53113 -95.813271 0.39358801
128.61891 -95.75705 0.460159
130.50702 -95.666473 0.404881
133.01868 -95.747734 0.44023401
139.9982 -95.765556 0.50431198
120.86728 -95.732986 0.341113
124.85439 -95.70974 0.384083
130.27806 -95.719986 0.394613
128.16393 -95.432976 0.44206899
136.6055 -95.497231 0.49397501
139.58687 -95.51194 0.513982
120.93256 -95.525269 0.343871
123.74443 -95.447746 0.353569
126.65236 -95.416428 0.37925401
131.51268 -95.584732 0.391422
137.73659 -95.306793 0.502666
125.13171 -95.386749 0.36797899
126.22467 -95.334778 0.37884501
127.02573 -95.31546 0.39421499
128.68008 -95.036301 0.408225
133.26154 -95.192902 0.440516
133.85461 -95.012314 0.46454999
136.24783 -95.095398 0.51296097
121.84236 -95.133698 0.33586201
126.17747 -95.031311 0.39367399
127.38895 -95.043243 0.38951799
128.65427 -95.065865 0.39636499
129.82645 -95.045197 0.39717999
128.18491 -94.957016 0.410712
130.22301 -94.982109 0.41307199
130.63313 -94.960304 0.43360999
131.7999 -94.997688 0.44691101
122.10325 -94.933662 0.380494
123.36258 -94.984062 0.37862599
123.7018 -94.973999 0.369389
127.72296 -94.999527 0.39168099
127.08066 -94.677597 0.41584599
138.12418 -94.750824 0.52600902
121.30984 -94.62529 0.37103701
122.69805 -94.66317 0.38338
124.83141 -94.65834 0.390939
125.38844 -94.62146 0.37939101
126.61853 -94.652344 0.39133301
127.00893 -94.628151 0.392295
127.50728 -94.63356 0.39412901
122.41869 -94.560127 0.40022799
126.27957 -94.499809 0.41160199
131.86877 -94.55397 0.446931
138.11559 -94.570976 0.57028401
138.50711 -94.53743 0.57435602
138.93158 -94.547569 0.57418197
125.24834 -94.255783 0.41661099
126.61751 -94.238297 0.427578
132.26382 -94.209366 0.46935299
133.67226 -94.24366 0.466885
134.08858 -94.270966 0.478203
134.95663 -94.38623 0.52186298
136.70522 -94.276123 0.54720402
138.29276 -94.260483 0.552867
120.10492 -94.304626 0.36796299
126.23863 -94.200775 0.39073801
120.11283 -94.191437 0.46603599
121.40203 -94.167297 0.41339499
124.89258 -94.098183 0.43718499
125.7937 -94.140976 0.42543599
135.84436 -94.177917 0.50648397
128.54301 -94.091911 0.38784501
123.66496 -93.804871 0.41642299
133.04166 -93.858444 0.47479999
136.94211 -93.85199 0.52906799
137.29991 -93.805138 0.52284199
138.28801 -93.924149 0.55770499
139.25595 -93.826942 0.52353102
124.61665 -93.872147 0.391583
120.21983 -93.746727 0.464973
129.63232 -93.789619 0.44392401
131.00877 -93.756531 0.491128
132.16335 -93.721901 0.47069499
132.31042 -93.674904 0.478789
134.56517 -93.699402 0.478228
138.63394 -93.719368 0.533934
139.44472 -93.763763 0.563972
139.85471 -93.750504 0.57453001
125.62811 -93.76371 0.37639099
124.68167 -93.430939 0.41970199
120.57201 -93.372482 0.47290301
133.88641 -93.391724 0.49116501
136.59193 -93.304108 0.52528
137.32538 -93.329773 0.55968702
138.13821 -93.368614 0.53637898
121.83943 -93.300377 0.389799
123.07109 -93.240082 0.37875199
125.09766 -93.334328 0.39509201
120.92072 -93.000458 0.48158899
122.2345 -93.005341 0.430107
123.8255 -93.07843 0.430801
126.28304 -93.102798 0.45527899
126.95044 -93.034042 0.44308901
131.44052 -93.066681 0.48853499
131.79115 -93.0793 0.51906198
136.85684 -93.071373 0.51316899
120.15035 -92.957031 0.466912
121.44489 -92.94606 0.45958599
125.13524 -92.940063 0.46284699
128.53757 -92.972549 0.458269
130.98396 -92.939354 0.49118701
120.18752 -92.849243 0.3795
122.90149 -92.979752 0.38973901
133.61002 -92.91465 -1.074919
127.38454 -92.700012 0.45753399
129.31354 -92.624435 0.476464
131.6127 -92.752327 0.505207
137.81779 -92.653587 0.55319798
139.70158 -92.671165 0.57242799
121.01326 -92.725533 0.391929
122.50193 -92.698853 0.397903
137.51421 -92.744942 0.051467001
121.89139 -92.539551 0.449471
122.88791 -92.569244 0.45094699
123.75604 -92.545441 0.44461599
135.81931 -92.531731 0.52213103
137.89667 -92.550117 0.54590201
128.19235 -92.235344 0.489665
137.06506 -92.298203 0.55645198
137.83185 -92.373245 0.55918097
137.44997 -92.245796 -0.216047
134.14084 -92.366776 -1.080284
120.96192 -92.180008 0.46558699
124.6491 -92.160156 0.470054
124.85297 -92.147537 0.451949
131.43579 -92.180222 0.50566798
135.75946 -92.168343 0.54091299
126.52286 -91.803879 0.48152399
130.24815 -91.902275 0.49502999
130.72221 -91.984344 0.50177699
131.85425 -91.925842 0.50621998
133.83791 -91.850014 0.55564803
134.57086 -91.825447 0.55903602
135.83023 -91.836761 0.54964602
136.81845 -91.897415 0.55387002
139.74551 -91.831551 0.57699603
134.25812 -91.791626 0.55216599
137.52229 -91.746063 0.576159
138.66605 -91.766968 0.57047099
139.35138 -91.720291 0.57577002
132.7171 -91.65036 -1.057529
123.93073 -91.480003 0.475853
128.62811 -91.528 0.51048499
129.74538 -91.455444 0.53068501
133.50883 -91.408501 0.54264098
136.07544 -91.528381 0.56172699
137.03622 -91.423195 0.580948
137.74374 -91.412308 0.579575
139.75046 -91.456573 0.59100199
138.86235 -91.435989 -0.29831499
122.05008 -91.337257 0.53353399
125.74199 -91.372704 0.48157701
133.0928 -91.328629 0.56281698
133.38716 -91.362846 -0.41904899
133.42267 -91.34713 -0.40893301
135.61478 -91.099846 0.60235399
124.58959 -91.016212 0.48928499
127.4441 -91.065643 0.500835
129.49268 -91.131561 0.51736999
136.5479 -91.123566 0.56819803
121.73877 -90.880142 0.53546703
126.63955 -90.944054 0.50480098
129.04948 -90.986511 0.53134102
132.13689 -90.936821 0.537938
123.48756 -90.683975 0.51672202
124.25528 -90.653793 0.494771
127.42338 -90.63369 0.52945399
137.46298 -90.580528 0.60838699
120.61365 -90.588722 0.50097501
124.87635 -90.564285 0.51439601
127.87862 -90.53022 0.50021499
129.03859 -90.538589 0.53328001
139.90007 -90.265556 0.63854098
128.59468 -90.265114 0.54849303
129.38705 -90.222473 0.54619902
132.27771 -90.294373 0.55494303
132.99895 -90.240433 0.57989001
137.37016 -90.132896 0.619506
137.75342 -90.172623 0.61286199
138.1973 -90.152611 0.61681199
124.1343 -90.175476 0.50435299
125.41491 -90.180817 0.49645501
125.82357 -90.194 0.52003503
129.02676 -90.084 0.553464
131.78668 -90.169876 0.55952197
133.31888 -90.125397 0.56174898
131.69458 -90.196136 -0.99604303
132.61523 -90.176826 -1.030475
135.23399 -89.80677 0.60316002
121.88731 -89.889198 0.495556
122.14788 -89.836876 0.56254703
123.40452 -89.882927 0.55332899
124.19226 -89.843697 0.52492201
126.17997 -89.814133 0.53222799
132.97833 -89.884079 0.57176697
135.01497 -89.995003 0.58320498
137.78508 -89.858971 0.58974701
136.08173 -89.642479 0.60503602
139.42281 -89.711884 0.61445099
139.83788 -89.707718 0.620983
124.88947 -89.788811 0.51852
125.52683 -89.693665 0.51430702
128.93973 -89.732796 0.54750401
130.10608 -89.790207 0.57517397
130.5807 -89.600449 0.56166899
131.05533 -89.774414 0.57558501
136.6647 -89.666771 0.59922099
135.54901 -89.529716 0.62153703
123.29677 -89.411774 0.51006401
124.87862 -89.412956 0.53968799
131.05588 -89.502731 0.57829499
134.30272 -89.486984 0.594109
136.86813 -89.532745 0.595294
135.37405 -89.355103 0.61230999
137.40001 -89.292435 0.61280698
126.22106 -89.360046 0.55303001
128.51959 -89.295517 0.56940699
128.85109 -89.220718 0.57827902
134.27177 -89.266068 0.58719498
137.37859 -89.211555 0.59887201
120.63567 -89.086426 0.54712898
124.24001 -89.074234 0.58587599
130.62015 -89.09726 0.57870197
139.439 -89.0784 0.56849903
139.78473 -89.134171 0.47474399
139.31058 -89.043404 0.37472999
137.66849 -88.99453 0.602
120.94115 -88.966705 0.52050197
128.91707 -88.922699 0.58584797
133.47678 -88.886017 0.59189898
135.62816 -88.902802 0.59839797
138.59669 -88.86821 0.51375198
138.91327 -88.961243 0.567101
139.94209 -88.818237 0.428229
139.96562 -88.852142 0.39319101
131.71719 -88.828461 -0.34950501
129.79155 -88.63678 0.600748
131.76031 -88.608139 0.62088001
133.44879 -88.664764 0.60958302
136.26323 -88.661148 0.611292
124.52315 -88.606583 0.571042
138.98195 -88.640411 0.420358
139.44531 -88.615089 0.36849201
125.8053 -88.451202 0.61993599
130.06302 -88.585617 0.60445398
132.20688 -88.455566 0.60434699
135.88104 -88.597054 0.60480899
126.661 -88.52832 0.58786798
126.96206 -88.59549 0.56457603
137.05936 -88.471359 0.53958601
137.66638 -88.531067 0.508991
138.23433 -88.570694 0.495453
138.61856 -88.552994 0.423105
137.3985 -88.457245 0.37588301
139.00757 -88.473732 0.36205
126.75264 -88.353424 0.60413003
132.24223 -88.227119 0.64176297
137.06229 -88.348633 0.60640699
120.09792 -88.234192 0.55248499
121.44125 -88.240845 0.53608501
124.60707 -88.274689 0.58478498
125.43871 -88.289001 0.58307898
127.33453 -88.216232 0.59134501
128.65718 -88.249611 0.59045601
136.70393 -88.234016 0.56634903
138.05225 -88.327049 0.42220801
138.7921 -88.391342 0.44042099
136.78741 -88.211227 0.382447
137.76245 -88.319618 0.36869901
138.09996 -88.288208 0.365015
139.77913 -88.325302 0.378923
139.91582 -88.392334 0.393372
136.56697 -88.130898 0.63536799
121.11409 -88.198357 0.543459
126.94805 -88.100525 0.59188497
137.39735 -88.182907 0.420926
137.52687 -88.093353 0.35112
137.90613 -88.168625 0.38600901
138.13391 -88.158165 0.37239599
134.6844 -87.827637 0.63070399
121.69186 -87.817055 0.56837302
124.16068 -87.81723 0.58035302
126.1537 -87.839088 0.59927303
136.59357 -87.83213 0.42787501
137.93031 -87.898499 0.423363
135.98984 -87.850471 0.38859099
131.21198 -87.958679 -0.96272302
127.09441 -87.752548 0.61546302
133.4687 -87.748451 0.633793
135.84195 -87.774811 0.64877999
127.18803 -87.647583 0.58949298
136.15411 -87.789337 0.52879
138.69061 -87.738304 0.42155299
135.69301 -87.706367 0.38452899
137.41656 -87.76886 0.389034
138.6394 -87.703796 0.39391401
123.30644 -87.488281 0.613428
125.8545 -87.434265 0.605286
126.12325 -87.42067 0.61349201
127.41228 -87.408569 0.62902802
129.43381 -87.534721 0.62013
130.21425 -87.451187 0.60834199
133.86259 -87.464363 0.61766499
134.18362 -87.513855 0.64095098
135.36606 -87.541786 0.56075603
135.87642 -87.461258 0.43617401
136.92212 -87.48967 0.416917
138.93744 -87.476379 0.42426699
135.24695 -87.451347 0.387025
128.46973 -87.277107 0.63514
129.01144 -87.310593 0.61900401
130.96002 -87.352127 0.64345199
133.14915 -87.305443 0.60796303
134.7254 -87.296982 0.64715898
135.06754 -87.394028 0.68221098
121.66919 -87.382454 0.59288299
135.42734 -87.385986 0.55887997
139.00569 -87.289749 0.416949
135.72192 -87.30072 0.376885
137.86673 -87.361824 0.39438599
138.6817 -87.353897 0.39185899
129.83821 -87.271698 -0.96614599
123.88038 -87.053986 0.64256001
127.7171 -87.094452 0.62365198
132.91263 -87.020317 0.65368402
134.77765 -87.164276 0.40405601
135.07108 -87.019653 0.46542701
138.18619 -87.015137 0.41958299
139.03479 -87.011543 0.44239599
138.77722 -87.161415 0.39681199
139.3925 -87.033447 0.38942799
121.745 -86.930458 0.60945803
123.32349 -86.981323 0.63214302
130.87561 -86.948318 0.62885898
132.0932 -86.993866 0.64461398
133.69952 -86.974159 0.65698898
134.66669 -86.963348 0.55866402
136.76665 -86.843567 0.42820901
138.7905 -86.936638 0.42481199
134.91023 -86.817513 0.36874801
135.10995 -86.96965 0.38141501
123.00159 -86.611176 0.62503898
123.83631 -86.621208 0.62098801
128.26236 -86.63562 0.63476902
131.92767 -86.654877 0.66129798
133.94411 -86.636238 0.443569
135.66048 -86.631783 0.461775
136.13199 -86.686142 0.46357599
136.79973 -86.623489 0.44966799
136.9444 -86.626648 0.43564799
138.58626 -86.639816 0.45097199
136.63777 -86.610504 0.387299
137.07904 -86.623466 0.38576701
123.44161 -86.573151 0.64699298
127.77307 -86.521294 0.63777101
128.51291 -86.515411 0.65148902
129.7623 -86.512817 0.64654899
130.61572 -86.583519 0.63958699
132.37128 -86.517502 0.66346699
133.67325 -86.507721 0.64135802
133.71492 -86.4627 0.40961501
135.29015 -86.569336 0.406802
136.97217 -86.463799 0.40490001
137.17717 -86.425987 0.40586099
137.75763 -86.506546 0.47046101
134.61053 -86.442291 0.38830301
134.9801 -86.598694 0.395769
135.75052 -86.571579 0.39513201
134.0831 -86.325195 0.44269601
135.02927 -86.212311 0.457398
136.65967 -86.233627 0.46310499
137.00104 -86.243927 0.44046301
138.5083 -86.366653 0.443064
139.09547 -86.278397 0.419498
120.26746 -86.150024 0.61418301
121.08165 -86.134933 0.62768602
124.93547 -86.18692 0.67490602
126.18186 -86.180878 0.65879798
128.1497 -86.125526 0.64854997
131.74194 -86.055077 0.64246702
133.56525 -86.127586 0.48005399
133.65045 -86.142021 0.45362499
137.45038 -86.087738 0.49334601
120.36576 -85.847748 0.62795299
122.69531 -85.821228 0.64331901
126.24785 -85.919342 0.67522597
135.36116 -85.93042 0.48402199
137.09337 -85.945816 0.41598499
138.08572 -85.843338 0.44404
138.49532 -85.877029 0.41338599
139.49573 -85.839752 0.449375
135.8017 -85.962158 0.39037299
136.69402 -85.940498 0.393971
137.63985 -85.829926 0.39397201
125.78996 -85.713737 0.65627003
134.88489 -85.617821 0.405922
136.1447 -85.699966 0.42725
136.88255 -85.799225 0.47210899
137.75446 -85.674538 0.483118
139.28845 -85.667458 0.450349
139.63467 -85.659531 0.413986
133.71024 -85.688141 0.39377299
135.37877 -85.654396 0.39796001
125.48877 -85.495171 0.66554803
132.08707 -85.558365 0.644104
134.23842 -85.432449 0.434468
136.61247 -85.426529 0.43232799
125.27166 -85.339096 0.68472201
129.76057 -85.347359 0.686701
131.4783 -85.304398 0.68748802
132.35048 -85.273483 0.62345099
133.44585 -85.273132 0.40318701
134.74017 -85.23143 0.430417
139.93307 -85.290588 0.44998601
133.47037 -85.289169 0.39099699
136.65945 -85.391914 0.39489901
129.5712 -85.337402 -0.94687003
133.86467 -85.091965 0.436501
134.73579 -85.135864 0.41963401
135.22946 -85.079079 0.40744901
136.31989 -85.020744 0.41684401
137.02148 -85.094383 0.42827699
133.38423 -85.035706 0.38431901
133.82701 -85.008682 0.38810501
131.9581 -84.861534 0.62048101
132.06334 -84.957199 0.666587
134.22202 -84.939903 0.42845899
136.67493 -84.990318 0.43338001
133.86513 -84.838165 0.39429301
127.94934 -84.927361 0.101236
127.47641 -84.660233 0.71574098
127.76055 -84.660995 0.67269599
128.93289 -84.615768 0.69104201
131.79672 -84.689178 0.61215299
131.83206 -84.662491 0.53352702
134.5809 -84.671516 0.44462901
136.15666 -84.659271 0.44686899
134.35229 -84.679024 0.39596999
121.80432 -84.572357 0.66280699
125.08945 -84.5755 0.69740802
127.8401 -84.526123 0.71897602
130.9722 -84.534439 0.70589
133.38106 -84.511894 0.42694101
136.21999 -84.536186 0.440889
137.3365 -84.425758 0.45422101
139.06216 -84.530762 0.46149001
132.05545 -84.536652 0.39434299
127.78114 -84.248169 0.713157
128.85986 -84.296371 0.67461401
129.1106 -84.27858 0.71030402
131.43448 -84.275558 0.67885399
131.91086 -84.386246 0.44534901
132.25993 -84.281105 0.41977999
132.99533 -84.268448 0.45118999
137.06416 -84.236588 0.472574
138.8139 -84.347015 0.457468
139.73752 -84.301933 0.48003799
134.68213 -84.336769 0.39637399
122.25737 -84.191978 0.694251
124.09177 -84.174942 0.69852298
124.70177 -84.126923 0.72003299
125.35405 -84.185364 0.71367198
126.18581 -84.170197 0.70633399
127.50456 -84.050385 0.744681
131.14105 -84.107254 0.70704699
133.70544 -84.119354 0.445115
135.30878 -84.190567 0.44569901
136.52554 -84.07386 0.43180799
139.3418 -84.138245 0.47710401
139.92834 -84.110733 0.50983101
128.20245 -84.082962 0.267005
120.21237 -83.819092 0.66655898
125.43144 -83.843712 0.708731
130.62047 -83.845566 0.71669602
130.98232 -83.824333 0.69220102
131.21384 -83.993385 0.63864899
131.8455 -83.850677 0.43386099
134.64708 -83.862068 0.45255199
137.33847 -83.878532 0.47613201
121.50051 -83.772263 0.71527803
121.90308 -83.79808 0.69056797
126.23573 -83.718399 0.717094
130.91524 -83.673134 0.65153801
131.03217 -83.764877 0.72320002
130.96606 -83.703659 0.54786199
135.75769 -83.660889 0.462486
136.5778 -83.6418 0.423264
136.90182 -83.76088 0.43184301
139.08742 -83.636848 0.492266
120.21236 -83.491196 0.72862101
120.58842 -83.547134 0.69061899
121.70198 -83.412682 0.708314
130.29295 -83.409088 0.74481398
130.74329 -83.42617 0.55937302
130.90765 -83.487732 0.489025
133.53224 -83.459114 0.48340201
135.83405 -83.579651 0.41952401
136.8743 -83.474854 0.44924301
137.87833 -83.471031 0.46321699
138.88831 -83.462891 0.496748
139.8114 -83.463181 0.49362701
127.80836 -83.473679 0.254673
122.64072 -83.345566 0.71784902
123.39027 -83.309883 0.720424
125.12608 -83.390083 0.748882
130.6889 -83.35199 0.714001
130.68031 -83.321411 0.52719802
130.93094 -83.238548 0.4689
132.55745 -83.36174 0.47027701
132.70831 -83.29155 0.473048
135.47034 -83.307991 0.46299899
135.75305 -83.254959 0.47337201
135.96323 -83.220612 0.44496
138.67665 -83.366821 -0.389707
120.91678 -83.157227 0.751903
125.28912 -83.099106 0.72974902
130.89941 -83.177887 0.48747101
131.92038 -83.035873 0.453913
137.02864 -83.116623 0.44710299
137.81358 -83.07196 0.49009201
138.36841 -83.05957 0.48848701
139.1552 -83.105408 0.47894999
139.74535 -83.096619 0.48656499
128.52972 -83.029167 -0.86816901
120.98573 -82.918694 0.73580098
138.94571 -82.910713 0.50565499
127.39806 -82.839386 0.23149
127.69357 -82.977959 -0.85484201
124.86518 -82.624939 0.72507
125.45122 -82.653091 0.76341099
131.23132 -82.704895 0.45430201
133.28448 -82.686287 0.47060901
133.85454 -82.620514 0.46020401
134.5025 -82.718254 0.45775601
137.27365 -82.76683 0.47240001
138.11473 -82.70517 0.475705
139.88116 -82.791626 0.503887
129.87294 -82.580124 0.82880902
126.77601 -82.408958 0.72486401
130.952 -82.536423 0.49417099
131.66629 -82.466263 0.465222
138.36752 -82.506592 0.476715
139.78018 -82.555161 0.52958101
124.38209 -82.224625 0.73479098
124.67796 -82.397453 0.77002001
128.53403 -82.229004 0.76685101
129.36641 -82.213348 0.76068401
130.31792 -82.255341 0.49428999
139.32449 -82.258438 0.49919599
129.94437 -82.09819 0.83633298
123.50269 -82.12925 0.741458
124.92386 -82.121597 0.75596303
125.35851 -82.099159 0.74148202
126.52181 -82.177704 0.77430099
133.11142 -82.10125 0.494434
137.70016 -82.168091 0.492809
138.57773 -82.107971 0.50081098
138.85294 -82.151108 0.51700199
139.14569 -82.138123 0.52726197
139.46413 -82.176346 0.539675
128.92038 -81.889969 0.77007103
129.30984 -81.918777 0.77281398
129.86002 -81.920982 0.71534002
133.10367 -81.996803 0.48814499
134.8775 -81.848991 0.47331399
135.37227 -81.826637 0.49008599
137.79185 -81.819565 0.51754701
139.50578 -81.935638 0.495251
139.71243 -81.852776 0.53113198
139.95322 -81.983856 0.52050298
128.02496 -81.889473 -0.227404
127.27242 -81.952904 -0.83450103
128.13008 -81.972511 -0.828376
125.62417 -81.78363 0.847363
123.73851 -81.76226 0.77925903
126.56915 -81.644089 0.73126
126.64062 -81.796829 0.72566801
129.71631 -81.762955 0.73445302
130.22612 -81.754822 0.50328499
130.74229 -81.758987 0.50517601
133.80408 -81.680832 0.50541699
137.27811 -81.721863 0.53931302
137.72031 -81.717384 0.51180398
138.11856 -81.72464 0.515872
121.12872 -81.493561 0.80153602
121.75307 -81.403305 0.814915
123.95439 -81.561989 0.80697501
127.46822 -81.515305 0.81979299
124.70876 -81.471466 0.77701199
125.11102 -81.464523 0.779719
127.91888 -81.534836 0.75572199
129.67517 -81.509094 0.706294
132.53149 -81.471375 0.469482
134.76547 -81.459946 0.486963
135.45811 -81.588638 0.47075099
138.58847 -81.422958 0.53903198
139.49054 -81.574806 0.49449199
127.81348 -81.286057 0.82788801
128.57544 -81.37574 0.77246797
130.7207 -81.359444 0.51349699
138.41399 -81.326141 0.56732899
139.75241 -81.294502 0.56985801
123.05496 -81.050308 0.77234298
125.71944 -81.040543 0.78642702
127.35328 -81.046494 0.78794801
127.77265 -81.029755 0.792292
130.22293 -81.107422 0.53135598
134.68155 -81.11367 0.49596101
137.22179 -81.072319 0.51368499
139.78731 -81.024933 0.55687898
120.91611 -80.896591 0.80414802
126.70156 -80.818756 0.80034298
121.28038 -80.952087 0.76122302
124.92878 -80.969383 0.77565998
138.98698 -80.815498 0.61434698
129.38715 -80.859962 0.56835002
129.41316 -80.917542 0.54526103
133.30286 -80.883255 0.496934
135.10185 -80.938896 0.50828302
135.89305 -80.828506 0.50929499
136.15163 -80.835762 0.53584802
137.32991 -80.908195 0.51149797
138.56255 -80.837044 0.51722199
139.30507 -80.846214 0.53113902
127.74902 -80.857101 -0.191559
126.95509 -80.862717 -0.83042902
123.04562 -80.671906 0.817783
129.32076 -80.785034 0.80706
121.80992 -80.627144 0.78760999
129.85468 -80.625458 0.56510299
131.80739 -80.609299 0.51537901
133.82913 -80.755142 0.47160301
134.99408 -80.703499 0.51389903
136.2731 -80.708603 0.54315603
138.63278 -80.706017 0.59128898
138.9852 -80.70462 0.54457802
139.04068 -80.694672 0.55244303
126.67857 -80.59642 0.78999799
129.5433 -80.545837 0.54810399
131.05621 -80.490326 0.54988402
131.89798 -80.527611 0.54064101
132.5363 -80.509186 0.52500999
139.85771 -80.478554 0.53598499
120.66732 -80.23864 0.77312797
121.83334 -80.248184 0.776097
124.19504 -80.215759 0.79393297
124.6142 -80.359467 0.79724598
127.298 -80.237518 0.78853899
127.73455 -80.318817 0.78490001
128.53967 -80.243515 0.78904402
129.14423 -80.293884 0.70619202
135.77655 -80.228554 0.60173798
130.04849 -80.273605 0.52939999
130.9998 -80.313797 0.56846601
131.02881 -80.337448 0.58113098
133.24327 -80.372681 0.572905
135.08279 -80.2742 0.504704
136.23615 -80.359764 0.53008002
139.35889 -80.262222 0.56262398
126.9874 -80.078751 0.82182097
127.42902 -80.17067 0.80718797
128.70052 -80.186447 0.81823701
128.8658 -80.12693 0.83399498
125.12688 -80.19162 0.78776002
137.56995 -80.195618 0.60214603
129.45366 -80.122192 0.52635801
130.31897 -80.132126 0.54174203
134.43539 -80.022095 0.50864297
127.60462 -80.141205 -0.18033101
135.81914 -99.806885 0.40513501
123.45321 -99.814735 0.248467
126.49775 -99.943901 0.27827501
126.85941 -99.826012 0.24359
127.50195 -99.952606 0.25362101
127.69595 -99.970215 0.255997
129.34854 -99.817337 0.28040099
137.4995 -99.820465 0.241153
133.49309 -99.675949 0.45844299
120.15578 -99.695206 0.203408
128.44481 -99.746666 0.26273599
129.07077 -99.755829 0.26738301
130.95448 -99.764412 0.29806
132.10864 -99.679733 0.33273301
133.82175 -99.776413 0.35646501
135.34431 -99.526154 0.40493801
120.05984 -99.558533 0.217913
120.32515 -99.411171 0.20336001
122.57331 -99.432884 0.24352799
135.74355 -99.443573 0.37491801
136.21495 -99.449524 0.379374
138.56548 -99.386017 0.42333099
139.71147 -99.351616 0.44746801
124.30715 -99.380043 0.22968701
125.79559 -99.336296 0.25951201
126.5592 -99.319801 0.25564399
127.34279 -99.389183 0.25209299
127.85896 -99.299446 0.256832
131.45894 -99.375023 0.350088
133.88469 -99.379036 0.38242599
137.30881 -99.017029 0.435868
122.66056 -99.02739 0.268639
127.46704 -99.099632 0.27284601
129.04153 -99.045357 0.28344199
130.09213 -99.131676 0.29329401
135.43127 -99.067032 0.39152399
136.14938 -99.122131 0.38978201
137.02736 -98.99247 0.44398299
138.14386 -98.970245 0.46306601
139.34351 -98.97612 0.464876
139.73131 -98.95256 0.471398
123.44086 -98.947945 0.25966999
123.82816 -98.934456 0.25022599
127.42096 -98.991539 0.26134801
131.8183 -98.967148 0.34561601
133.82219 -98.962006 0.39262
136.98914 -98.660805 0.445629
138.12523 -98.618912 0.477835
125.14373 -98.654488 0.269411
126.70145 -98.686348 0.273772
129.81931 -98.606384 0.29458901
130.56624 -98.617966 0.33183199
132.25073 -98.625336 0.35719299
137.87234 -98.544991 0.46144199
122.32212 -98.591331 0.27407399
125.84855 -98.527138 0.29418701
127.41414 -98.547989 0.27042899
127.65291 -98.575325 0.27495399
130.29044 -98.558762 0.306238
131.75356 -98.523315 0.35679999
135.40088 -98.523003 0.38925001
135.73741 -98.539955 0.39546499
137.75249 -98.331711 0.455302
137.82039 -98.209953 0.47650099
125.83267 -98.343369 0.28304401
126.59446 -98.210938 0.322198
135.44269 -98.197121 0.41339999
136.03792 -98.163536 0.418744
137.42273 -98.110077 0.48558
139.03864 -98.132797 0.47621101
123.49283 -98.159767 0.29403999
125.4245 -98.109497 0.302571
126.16926 -98.165016 0.304259
128.59042 -98.194519 0.30131999
130.08936 -98.126587 0.30856299
130.57028 -98.178452 0.31998801
131.29181 -98.151321 0.34834
137.40379 -98.130249 0.285761
137.51535 -98.185127 -1.119599
138.64464 -97.81543 0.487317
121.03793 -97.917587 0.256975
122.17912 -97.849762 0.29349399
124.91479 -97.833969 0.30854401
133.79359 -97.823471 0.39714199
132.59535 -97.79776 0.40173
123.87082 -97.778282 0.27665201
126.51151 -97.758888 0.30130199
130.21674 -97.788017 0.337356
132.66127 -97.705948 0.388982
133.41069 -97.76107 0.39324501
130.50128 -97.402313 0.420908
136.20837 -97.478119 0.473097
139.82867 -97.503311 0.46803799
128.67645 -97.41156 0.32695401
129.44391 -97.400879 0.336647
132.94583 -97.520523 0.395028
133.03008 -97.326614 0.40935999
136.89261 -97.343941 0.48312601
139.95016 -97.254173 0.477698
123.76524 -97.371948 0.31672999
127.39392 -97.352036 0.34516999
127.8438 -97.332268 0.319648
130.7178 -97.371109 0.35196
137.66376 -97.346039 0.395127
137.02786 -97.202141 -1.121781
120.65425 -97.048676 0.27421299
121.73267 -97.010567 0.29484901
124.6972 -97.023918 0.327696
124.83121 -97.024651 0.329409
130.0099 -96.955597 0.42634699
133.46706 -96.926025 0.41688001
136.7652 -96.899185 0.45885301
136.88736 -96.962448 0.48052001
139.81767 -96.989128 0.509377
120.28154 -96.93779 0.26461101
123.84421 -96.99942 0.32651499
124.10466 -96.90329 0.320795
129.73293 -96.958794 0.348712
130.51602 -96.921951 0.37046
132.53716 -96.966675 0.394182
132.24982 -96.685562 0.41694999
133.73378 -96.722046 0.424941
136.98026 -96.654694 0.48061901
139.16544 -96.642471 0.51099199
120.14938 -96.684631 0.28604701
121.03057 -96.691139 0.30940399
130.95569 -96.609261 0.36325601
135.83432 -96.612083 -1.1324871
139.58868 -96.48954 0.48762199
139.90598 -96.473969 0.525253
129.52643 -96.592575 0.36261699
131.74234 -96.573875 0.38879299
132.1989 -96.572433 0.39343899
133.04141 -96.588287 0.39489999
135.78694 -96.545624 -1.146583
129.26849 -96.298302 0.44255701
131.84781 -96.241226 0.40648201
132.11401 -96.272766 0.43943599
134.24721 -96.250999 0.44142899
122.28567 -96.228264 0.34364101
125.41451 -96.392715 0.39525801
130.6134 -96.11776 0.47351399
132.95589 -96.127136 0.45998099
133.45892 -96.072144 0.44132501
135.06229 -96.194527 0.48087701
123.44287 -96.159828 0.339073
124.11037 -96.19931 0.34814799
129.72388 -96.123779 0.38483801
131.03484 -96.192162 0.37621701
135.06555 -95.871582 0.45687401
135.8517 -95.870338 0.471472
136.96063 -95.818542 0.51230901
120.68748 -95.853561 0.34573999
123.88202 -95.827316 0.348672
131.34438 -95.819809 0.38281199
131.7787 -95.833824 0.38729
132.6945 -95.763016 0.433184
133.43636 -95.713493 0.49165899
137.40787 -95.696037 0.523902
137.92213 -95.756882 0.507752
139.75507 -95.742119 0.49453101
122.95239 -95.776154 0.35234201
129.30606 -95.736069 0.38263601
124.60995 -95.439003 0.40964499
127.95872 -95.423431 0.47623
129.90991 -95.450317 0.41402301
132.25447 -95.429474 0.436809
134.51213 -95.530029 0.47401899
137.77565 -95.477951 0.54410702
139.73938 -95.468704 0.548567
122.86314 -95.418655 0.370527
124.2126 -95.481316 0.375754
124.69987 -95.413727 0.38503999
129.31387 -95.416077 0.39264601
121.62167 -95.229584 0.40060499
126.82716 -95.262733 0.41376001
127.82737 -95.394348 0.42594701
130.23772 -95.349648 0.416724
130.58694 -95.360992 0.410063
132.57332 -95.341919 0.43274799
133.82164 -95.394043 0.458152
134.67326 -95.3396 0.45356101
137.45929 -95.356491 0.53504997
125.8536 -95.18309 0.402192
127.66163 -95.155991 0.43457401
129.47585 -95.052284 0.40963799
135.31888 -95.050568 0.51441097
120.23512 -95.019691 0.376881
130.18094 -95.173538 0.39145401
125.32164 -94.878731 0.411838
127.05925 -94.9338 0.414141
130.15125 -94.873817 0.42318201
132.63728 -94.955902 0.454209
134.9288 -94.945854 0.50125498
135.54202 -94.917458 0.47556001
136.07787 -94.958359 0.50707901
137.13387 -94.818001 0.49823299
138.22684 -94.939125 0.51006699
139.83966 -94.983826 0.53152198
121.20204 -94.910759 0.353394
121.41587 -94.965546 0.33643401
124.18989 -94.80761 0.36730701
127.83926 -94.646324 0.418753
128.26077 -94.6633 0.41063899
130.70062 -94.66526 0.43345201
134.53403 -94.623878 0.477851
135.12085 -94.717117 0.49456
138.75597 -94.651627 0.52776802
122.9923 -94.608063 0.38178399
125.91634 -94.625854 0.38727501
129.27553 -94.616074 0.39553401
130.09508 -94.679199 0.39993
121.53054 -94.595551 0.42300799
121.91031 -94.474342 0.40813601
123.85298 -94.551254 0.40893799
128.52769 -94.581383 0.42743999
129.8322 -94.560204 0.42793801
131.02663 -94.518066 0.45085901
136.27432 -94.50666 0.50979698
137.39822 -94.578094 0.56578398
139.6973 -94.582001 0.57600403
120.20296 -94.593445 0.373732
124.2457 -94.589088 0.38002399
137.74922 -94.520447 0.113843
135.52924 -94.511703 -0.465716
122.6277 -94.293335 0.42091399
128.59865 -94.264023 0.42305601
131.06287 -94.256195 0.44530299
137.89894 -94.287033 0.550385
122.57699 -94.245255 0.391523
126.58418 -94.334053 0.385573
121.03514 -94.160614 0.42684501
134.97885 -94.096725 0.493148
127.75896 -94.028961 0.38313699
128.1324 -94.062576 0.38537699
128.98665 -94.120438 0.39112201
129.81165 -94.146278 0.39700899
131.84044 -93.945152 0.46752101
132.0923 -93.842407 0.46082601
132.57663 -93.883148 0.48052001
135.38022 -93.876961 0.50492501
136.54929 -93.842438 0.518767
127.25573 -93.986549 0.38151801
139.26077 -93.908836 0.292739
134.26543 -93.944099 -1.093959
121.87193 -93.781952 0.42418101
129.27637 -93.737831 0.435092
122.52299 -93.774689 0.388017
123.50719 -93.530754 0.43485701
126.03243 -93.410568 0.50014502
127.42427 -93.497932 0.445815
129.77835 -93.497917 0.45696399
124.1544 -93.469666 0.38899899
125.59595 -93.412186 0.39523
120.16423 -93.221252 0.42602
123.01896 -93.348183 0.43659499
131.05681 -93.394554 0.491016
133.55162 -93.232658 0.478104
136.95627 -93.386383 0.52783799
134.80444 -93.376579 -1.103048
127.45758 -93.039955 0.46868101
129.09749 -93.096985 0.47285101
130.20192 -93.032257 0.48046601
132.97075 -93.016335 0.49956501
137.4093 -93.087692 0.56001198
137.74918 -93.074272 0.56573403
124.54652 -92.970154 0.43873101
125.69459 -92.919357 0.45817399
128.23438 -92.98233 0.46280199
138.58319 -92.976685 0.57421398
120.99133 -92.696175 0.48412701
123.41837 -92.601135 0.45148599
131.80034 -92.677422 0.504278
135.01935 -92.656219 0.52194202
136.19072 -92.661636 0.53338599
139.27943 -92.669518 0.56786102
121.43338 -92.601288 0.392331
120.718 -92.439499 0.46117601
124.92287 -92.560333 0.44176501
126.97269 -92.555695 0.46901199
129.80405 -92.555603 0.498665
130.82249 -92.556984 0.573048
132.5623 -92.447853 0.51337802
133.80618 -92.584839 0.52404702
135.43317 -92.564194 0.52637702
121.87115 -92.201561 0.45675901
125.83324 -92.233078 0.472536
127.33578 -92.271156 0.47156101
127.79359 -92.247841 0.49546701
136.23962 -92.242691 0.545201
137.24431 -92.399422 0.567882
137.43452 -92.322945 0.55529898
130.47467 -92.127884 0.53151202
139.41824 -92.188263 0.57785499
121.01572 -91.841728 0.47485
122.05806 -91.85537 0.469475
122.61548 -91.816933 0.491312
123.8341 -91.82151 0.46757799
124.12006 -91.874405 0.53826302
125.35893 -91.949387 0.45333701
125.88773 -91.83461 0.45900199
127.33014 -91.829437 0.49786901
128.2328 -91.932442 0.49789
128.49524 -91.846207 0.49942899
129.93173 -91.828262 0.50151998
130.95271 -91.809555 0.50611103
133.75754 -91.819756 -1.07056
125.08318 -91.748993 0.474372
125.96882 -91.744667 0.54388601
129.24855 -91.664589 0.50892699
130.63031 -91.791031 0.52020597
135.38951 -91.712669 0.56715798
137.00948 -91.723839 0.55626202
120.93277 -91.47821 0.49377701
122.53925 -91.440308 0.46313101
123.77962 -91.550262 0.448836
126.21658 -91.431732 0.48912501
130.06281 -91.531471 0.51187402
130.29805 -91.406998 0.50685698
131.89139 -91.474281 0.52554202
133.91013 -91.443329 0.54095399
134.60175 -91.437355 0.54254401
138.20041 -91.422607 0.57797599
122.90842 -91.354134 0.51564801
130.51535 -91.228157 0.51557302
132.16208 -91.357376 0.53949898
135.42438 -91.307526 0.57384503
138.98474 -91.359337 0.585235
136.72977 -91.153625 0.60924202
138.24301 -91.046318 0.611251
138.60649 -91.004196 0.60806203
121.76305 -91.016251 0.50150698
126.99044 -91.01432 0.51878798
128.6431 -91.069504 0.53670502
131.10316 -91.029999 0.53883898
133.39618 -91.031212 0.554277
135.11752 -91.082298 0.551516
136.97237 -91.024239 0.59957099
120.27113 -90.946823 0.51212603
122.93584 -90.980957 0.49350199
124.873 -90.957787 0.485654
139.42252 -90.612885 0.60745299
125.07526 -90.60659 0.50647902
126.09008 -90.605766 0.49091399
126.98961 -90.656044 0.51205301
127.23094 -90.680069 0.532502
129.88315 -90.734177 0.52943403
130.92097 -90.613731 0.53451002
131.4738 -90.690048 0.55076498
134.23035 -90.645119 0.56919098
134.64398 -90.637619 0.57317299
135.76979 -90.657791 0.57925802
138.61458 -90.557983 0.61925101
121.79984 -90.539536 0.515158
123.80859 -90.487274 0.53603297
129.42876 -90.553253 0.546336
130.12637 -90.582718 0.53755599
133.82037 -90.520401 0.56194597
137.23212 -90.551682 -1.150092
136.18263 -90.210007 0.60081398
120.17892 -90.231285 0.49348399
120.86389 -90.217796 0.50343001
124.89841 -90.225243 0.50971699
132.12677 -90.261658 0.54866397
133.78835 -90.275909 0.56943297
135.79668 -90.247787 0.59689599
132.61575 -90.218422 -1.009671
121.36545 -90.121643 0.49705899
122.25406 -90.164925 0.50974703
123.43606 -90.127266 0.48749301
128.14488 -90.167793 0.527807
132.66907 -90.125412 0.566167
128.25301 -89.801697 0.521272
136.47131 -89.831139 0.58844298
138.20042 -89.870117 0.59778202
135.41348 -89.719551 0.60215801
122.51705 -89.772713 0.52712297
123.72158 -89.762718 0.50461602
125.0956 -89.772827 0.51870698
131.43895 -89.799103 0.579561
132.29221 -89.757591 -0.37727201
121.37045 -89.451202 0.52532601
122.2252 -89.473511 0.544451
128.19586 -89.469086 0.54892701
128.97531 -89.501511 0.56314701
129.42505 -89.494125 0.576823
133.29361 -89.501038 0.58340102
136.09547 -89.564827 0.59092402
132.17982 -89.555229 -1.007264
132.2045 -89.59388 -1.000999
135.82523 -89.391014 0.62098098
135.76761 -89.283684 0.59864998
132.21826 -89.077942 0.60591203
136.18069 -89.11998 0.61999798
120.2149 -89.021088 0.52509999
124.55157 -89.038574 0.55671501
128.18547 -89.021835 0.56851
131.82698 -89.034081 0.59927499
129.82715 -88.985062 0.60079402
130.17256 -88.89212 0.60327798
138.28918 -88.89254 0.61374998
123.76093 -88.996384 0.536484
125.07794 -88.929886 0.55469501
126.51678 -88.969727 0.56795001
138.92044 -88.89389 0.50520498
139.30646 -88.963425 0.41795701
139.40741 -88.891312 0.52348298
139.88074 -88.871078 0.47631401
139.14287 -88.967514 0.373202
131.78183 -88.917915 -0.98712897
130.49361 -88.635338 0.60403103
133.03255 -88.635986 0.62094003
134.75365 -88.728767 0.60307801
122.13126 -88.643021 0.54770499
122.67068 -88.623505 0.57707602
138.22948 -88.699188 0.55270302
138.55461 -88.669388 0.44099501
138.22638 -88.753593 0.38582101
138.64566 -88.699615 0.354821
126.33885 -88.580505 0.56428897
137.36063 -88.474274 0.53397202
137.61729 -88.471008 0.43378201
137.85486 -88.496315 0.52224398
139.76756 -88.590515 0.430309
138.20099 -88.472946 0.358459
138.66678 -88.404518 0.366649
131.52502 -88.575119 -0.98527199
123.28449 -88.370171 0.523081
125.07795 -88.293121 0.57703698
136.94498 -88.321266 0.58361602
137.00026 -88.206253 0.53544998
137.40921 -88.319351 0.51024902
136.90015 -88.267487 0.381542
137.93201 -88.273117 0.37073401
128.43346 -88.023254 0.60124803
133.13426 -88.199791 0.61559898
133.36859 -88.103394 0.62640798
135.7943 -88.186081 0.66763699
125.74793 -88.149124 0.58923203
128.15427 -88.141373 0.58820999
130.81383 -88.007545 0.58009499
136.65381 -88.047684 0.54319799
137.71756 -88.169815 0.40797099
139.65622 -88.036476 0.41436601
130.43053 -88.148064 -0.95050102
129.11792 -87.871841 0.60875601
129.47327 -87.809906 0.60492802
129.95187 -87.838982 0.61998397
126.99535 -87.961884 0.56219202
137.57036 -87.915985 0.40227601
136.91382 -87.832489 0.395307
138.89651 -87.941711 0.382682
125.1081 -87.744614 0.60919201
125.82272 -87.768776 0.60064298
127.5271 -87.758293 0.64259201
134.10812 -87.761398 0.64123797
135.06424 -87.79512 0.63741702
122.16765 -87.79834 0.59405297
122.51229 -87.754219 0.583884
125.43391 -87.726349 0.59520501
126.56862 -87.710464 0.58744198
135.82748 -87.762344 0.407206
136.46132 -87.635056 0.43609399
136.91885 -87.728912 0.41742
137.23132 -87.78141 0.40218499
137.41708 -87.721008 0.41956699
137.91785 -87.710999 0.41543299
138.47696 -87.767632 0.41577601
139.0401 -87.626335 0.40564901
139.93076 -87.620865 0.41493201
130.07642 -87.690323 0.274427
137.1239 -87.676071 0.39325601
131.65308 -87.460541 0.64771903
135.44443 -87.495926 0.525518
135.83578 -87.518951 0.51739502
136.52382 -87.463959 0.42370901
138.51872 -87.478951 0.417999
137.93268 -87.494598 0.38554001
138.93503 -87.50824 0.38953501
132.0705 -87.332504 0.64914203
120.47282 -87.394554 0.58883101
122.61617 -87.318771 0.59689403
126.59055 -87.212646 0.59974402
134.90038 -87.270004 0.58698398
137.48941 -87.271545 0.413598
136.83072 -87.353706 0.39695099
139.40126 -87.301483 0.37004
121.35957 -87.1157 0.62820101
124.71971 -87.010651 0.61862099
126.85421 -87.01059 0.65411597
131.33174 -87.028809 0.65614903
121.34598 -87.060913 0.59819901
134.74323 -87.113762 0.456747
134.76675 -87.149719 0.389229
135.47202 -87.057793 0.39243001
136.25476 -87.017761 0.39559799
136.9317 -87.065514 0.392786
137.74231 -87.053207 0.393922
128.09021 -86.91243 0.62580901
134.44241 -86.979324 0.59651798
137.92416 -86.943527 0.421074
139.46092 -86.876556 0.42481199
137.60022 -86.990707 0.377224
137.9373 -86.9021 0.393139
138.83076 -86.887283 0.39660501
121.39526 -86.709229 0.60978103
127.02956 -86.669189 0.63918602
128.43703 -86.66481 0.63423997
129.4252 -86.669052 0.64509302
137.38432 -86.630035 0.46485499
138.33298 -86.772339 0.40830001
139.38513 -86.695244 0.45846599
134.89999 -86.738083 0.38344601
136.54733 -86.7015 0.39000899
130.24628 -86.623749 -0.34779501
130.35617 -86.708908 -0.96304703
122.62743 -86.555832 0.64310002
126.64756 -86.589905 0.64169598
135.72327 -86.592155 0.44659999
134.24271 -86.46743 0.39969099
137.52992 -86.408356 0.39640799
138.2437 -86.576782 0.38702899
129.21425 -86.570534 0.131523
122.69325 -86.29541 0.61504197
123.01028 -86.237823 0.65526801
126.15035 -86.340538 0.61470097
133.61078 -86.371895 0.41501501
135.26224 -86.372047 0.41054901
137.97191 -86.206726 0.459304
139.32742 -86.218613 0.45616701
137.06351 -86.258713 0.396079
138.49564 -86.264206 0.38999799
139.92117 -86.237106 0.37512699
127.01457 -86.144203 0.64693397
130.90341 -86.155762 0.65146703
133.14717 -86.027695 0.63955498
133.27585 -86.136642 0.49106401
135.1707 -86.057632 0.43799701
135.43704 -86.158485 0.44279701
133.85413 -86.035706 0.38914701
135.4761 -86.002853 0.392169
121.44662 -85.848869 0.62883502
122.95514 -85.836151 0.64725798
124.14597 -85.811913 0.667642
128.22266 -85.877586 0.65839702
135.42975 -85.929024 0.41097
135.8082 -85.879929 0.468371
138.72418 -85.932449 0.45788601
139.39674 -85.814659 0.49920601
135.70552 -85.81028 0.38588899
137.80928 -85.887001 0.39978501
138.55989 -85.874725 0.37290499
120.88934 -85.766777 0.65364403
126.55621 -85.716736 0.67966801
128.62045 -85.684998 0.66246903
132.74472 -85.634819 0.62540299
133.24464 -85.757393 0.40041301
134.21265 -85.78746 0.423199
134.78471 -85.620682 0.43845901
138.87613 -85.741974 0.45242301
136.37827 -85.788651 0.397679
136.47821 -85.757568 0.39322299
128.9487 -85.775352 -0.94960302
129.80576 -85.703506 -0.95357502
126.30473 -85.40377 0.64701003
127.35281 -85.438782 0.66591501
132.60332 -85.519783 0.62016499
134.86955 -85.542671 0.41125301
135.43198 -85.403572 0.44772601
137.69397 -85.404404 0.45808101
138.31195 -85.449371 0.46244001
134.68185 -85.505676 0.38549501
120.06392 -85.362015 0.63855797
132.36574 -85.307121 0.47354701
133.36804 -85.280106 0.434102
136.58595 -85.306808 0.46689099
137.21004 -85.347137 0.47056699
138.06665 -85.30571 0.44050601
139.07236 -85.394638 0.456873
134.21619 -85.303085 0.39078701
135.34747 -85.391945 0.39495501
135.75919 -85.357307 0.388253
122.61422 -85.007446 0.659603
124.24075 -85.047127 0.69785798
127.09549 -85.022591 0.70297199
131.93852 -85.100616 0.690216
132.11224 -85.015045 0.51135498
132.4928 -85.044464 0.44716901
137.3842 -85.097221 0.459272
137.75558 -85.02018 0.459914
137.94106 -85.128471 0.443084
138.10648 -85.061073 0.466052
138.51974 -85.02771 0.4689
139.11713 -85.149345 0.443968
139.71349 -85.014214 0.477889
139.86246 -85.107925 0.46804199
134.70964 -85.067535 0.39175901
121.00897 -84.914307 0.663517
121.73907 -84.958443 0.649737
127.83444 -84.97773 0.679883
128.19379 -84.985313 0.69634801
128.89896 -84.996597 0.69997197
132.47583 -84.97789 0.42532501
138.94691 -84.98288 0.47352999
132.44867 -84.815826 0.39074799
123.52271 -84.634155 0.679914
124.89038 -84.641502 0.67296201
131.8576 -84.70517 0.46710101
133.17125 -84.689423 0.40342799
133.53925 -84.694656 0.433626
134.96849 -84.611542 0.44760701
135.29814 -84.609558 0.460558
137.79906 -84.749649 0.44013301
133.1239 -84.729401 0.39582801
133.48064 -84.678787 0.39607701
134.84508 -84.715027 0.39991099
135.00018 -84.771988 0.395219
120.97514 -84.501083 0.66021699
122.16568 -84.562408 0.68184602
127.59389 -84.518288 0.67721802
128.17424 -84.545311 0.69278097
129.36778 -84.560066 0.67586201
129.79237 -84.565605 0.72366798
131.59544 -84.415131 0.45486501
131.69778 -84.534576 0.45857701
132.1225 -84.444633 0.430902
