# .PCD v0.7 - Point Cloud Data file format
VERSION 0.7
FIELDS x y z
SIZE 4 4 4
TYPE F F F
COUNT 1 1 1
WIDTH 1504
HEIGHT 1
VIEWPOINT 0 0 0 1 0 0 0
POINTS 1504
DATA ascii
134.75807 -104.44398 0.192738
137.04163 -104.52626 -0.56405801
136.02505 -104.49013 -0.68210298
137.04634 -104.4821 -0.714468
137.03799 -104.58661 -0.87810099
136.99832 -104.42714 -1.157801
137.03976 -104.48132 -1.0920891
137.06783 -104.52383 -1.201952
134.64224 -104.20858 0.234695
137.31479 -104.34723 0.259884
139.69299 -104.22198 0.314879
120.8721 -104.26025 0.038947001
125.8445 -104.25263 0.094098002
127.05442 -104.24986 0.090099998
128.59186 -104.2589 0.12987
128.90701 -104.26089 0.176468
129.45596 -104.31291 0.13081899
129.71091 -104.26757 0.147295
130.08823 -104.2993 0.092433996
130.28642 -104.29137 0.14441
133.51578 -104.28471 0.13902199
136.98129 -104.23758 0.093286
137.70886 -104.34158 0.064173996
137.0383 -104.2795 -0.88941401
135.70625 -104.0266 0.21667001
137.27672 -104.09123 0.2599
137.59157 -104.01993 0.25986099
138.3651 -104.17339 0.29136899
138.42184 -104.13442 0.35547501
139.26826 -104.11264 0.31384
126.86002 -104.18796 0.17057399
127.06096 -104.10281 0.11263
127.42892 -104.14555 0.13339201
130.59113 -104.17342 0.136005
133.41747 -104.08671 0.16610301
136.55443 -104.12936 0.112486
136.66647 -104.12516 0.067597002
136.93915 -104.09881 0.069357999
137.13361 -104.04105 0.125999
136.93314 -104.06184 -0.084650002
135.98019 -104.11129 -0.45828301
136.98314 -104.07797 -0.528283
137.06 -104.15497 -0.72431499
136.62924 -103.85405 0.236059
137.11176 -103.89449 0.25013301
137.24725 -103.84943 0.27962399
137.73453 -103.82613 0.28281999
123.16586 -103.80748 0.081344999
123.39961 -103.88498 0.068516999
124.51533 -103.89305 0.113156
124.72231 -103.82761 0.14429
126.54927 -103.89668 0.122455
127.47455 -103.80516 0.14996199
133.4373 -103.8656 0.15087301
134.02548 -103.93438 0.146054
135.90991 -103.91023 -0.076038003
136.16789 -103.92132 -0.014058
136.28748 -103.83324 -0.071686
137.52502 -103.86685 -0.112604
137.63264 -103.95604 -0.13375001
136.01393 -103.88983 -0.57050002
136.94002 -103.88406 -0.45995
136.02142 -103.97469 -0.67036599
136.97372 -103.88696 -0.89520901
134.95836 -103.68802 0.26574999
135.29721 -103.73393 0.25925601
136.92203 -103.69131 0.25503901
137.48222 -103.74559 0.28834099
139.09821 -103.75461 0.29534799
120.64598 -103.78799 0.055789001
122.9958 -103.66882 0.092132002
125.55208 -103.78777 0.088770002
129.49959 -103.78152 0.13747799
136.54883 -103.74608 0.075340003
136.89793 -103.63152 0.070899002
136.49374 -103.75528 -0.040700998
136.91138 -103.72382 -0.32998401
135.9819 -103.71954 -0.466795
136.01784 -103.61413 -0.52036899
136.92299 -103.67872 -0.50563198
139.42706 -103.76528 -0.59509599
139.41423 -103.64569 -1.241622
135.69788 -103.48681 0.21046799
135.87003 -103.40206 0.21206599
137.26617 -103.46957 0.256044
137.72058 -103.53829 0.320784
139.70807 -103.43933 0.33764499
120.24908 -103.50918 0.105819
124.86134 -103.48886 0.162025
128.32324 -103.41882 0.16024201
128.44836 -103.57053 0.123839
129.11227 -103.43241 0.18083499
131.45535 -103.48547 0.139944
133.24132 -103.587 0.125819
133.53204 -103.49362 0.150354
136.31638 -103.48463 -0.049693
136.87605 -103.5157 -0.123397
135.98373 -103.47977 -0.47919601
136.03181 -103.4911 -0.62445301
136.92261 -103.48499 -0.71098298
122.54573 -103.37604 0.160228
125.07999 -103.31556 0.18205801
126.56729 -103.31819 0.182742
128.74165 -103.25746 0.195043
129.32985 -103.27318 0.1557
130.18207 -103.35229 0.17544401
133.37732 -103.37563 0.15667699
134.18695 -103.31091 0.177223
136.26596 -103.27921 0.043745998
132.79137 -103.23815 -0.103305
133.03319 -103.27879 -0.180246
136.12968 -103.27914 -0.049614001
136.24748 -103.32657 -0.057163998
137.2175 -103.36456 -0.106311
122.59555 -103.24144 -0.218914
123.35444 -103.20493 -0.410597
136.03699 -103.26556 -0.71571499
127.53862 -103.09462 0.20803399
130.29813 -103.16351 0.20118
123.19838 -103.06788 0.14743599
126.46366 -103.17709 0.171426
128.34091 -103.05781 0.097820997
129.71027 -103.08542 0.19228201
130.23276 -103.10905 0.192302
131.31421 -103.04958 0.188862
136.84599 -103.12325 0.059177998
122.50028 -103.09436 -0.085262999
133.79137 -103.03745 -0.066515997
135.94873 -103.08005 -0.066629
136.04358 -103.07879 -0.022678999
136.23389 -103.18468 -0.025429999
136.53333 -103.12965 -0.010844
122.89133 -103.05647 -0.259105
135.98616 -103.03668 -0.31554601
136.85532 -103.08107 -0.28119001
135.98941 -103.01479 -0.40170699
135.93466 -103.00427 -0.64401501
136.01172 -103.1245 -0.71179199
135.52374 -102.92592 0.21073499
137.07724 -102.91908 0.28954899
137.7108 -102.95892 0.322007
139.298 -102.99734 0.374668
139.68195 -102.9691 0.381547
122.72781 -102.80595 0.182133
123.76299 -102.95327 0.085676998
124.67255 -102.93087 0.194849
126.53575 -102.94862 0.181061
130.51865 -102.81813 0.101632
133.09604 -102.9085 0.0036770001
133.29916 -102.92137 0.059939999
133.66582 -102.92175 0.054993
120.59094 -102.98825 -0.12675101
122.39627 -102.83774 -0.132622
123.09651 -102.90478 -0.1286
123.27897 -102.84669 -0.17834
123.69936 -102.99496 -0.103143
128.38339 -102.88879 -0.01956
130.77594 -102.82111 -0.079622999
132.63066 -102.89517 -0.127242
120.92728 -102.85512 -0.30607101
133.21605 -102.99525 -0.393736
135.98363 -102.98534 -0.32293999
136.74767 -102.86851 -0.28944999
122.73529 -102.86967 -0.561234
133.17615 -102.87443 -0.41816401
136.01222 -102.95052 -0.500673
136.77937 -102.92104 -0.52870297
138.41589 -102.87103 -1.2085789
127.34753 -102.60592 0.225554
127.41431 -102.74098 0.20095301
129.66373 -102.71465 0.212726
131.44058 -102.66756 0.21905801
122.20169 -102.78593 0.156956
128.51572 -102.64049 0.116589
133.85483 -102.64056 0.179884
135.08736 -102.63038 0.154624
136.75677 -102.70496 0.064629003
137.38857 -102.69417 0.025671
122.18392 -102.68694 -0.13307799
122.50328 -102.65968 -0.056586999
122.91113 -102.67067 -0.132643
129.78447 -102.72631 -0.001748
130.75659 -102.69698 -0.16660801
133.86255 -102.64426 -0.10244
135.98456 -102.66773 -0.073840998
120.20875 -102.60462 -0.29023799
120.82809 -102.7477 -0.38928899
123.03204 -102.67764 -0.247558
124.54325 -102.6656 -0.25040701
124.74078 -102.72876 -0.26861301
132.99773 -102.62653 -0.39544699
133.86456 -102.65205 -0.229939
135.59282 -102.60439 -0.26474601
135.98604 -102.72711 -0.26288399
120.43951 -102.75056 -0.50538898
122.69721 -102.71587 -0.46463901
126.83059 -102.68404 -0.43775299
133.05309 -102.60428 -0.67604899
135.98488 -102.72044 -0.660101
136.76628 -102.74805 -0.76647502
124.86888 -102.51237 0.21513499
127.05748 -102.49035 0.239582
129.90823 -102.50609 0.21373101
137.32617 -102.40825 0.28233901
137.75569 -102.56778 0.32875901
125.02844 -102.54939 0.051302001
125.55516 -102.53079 0.145731
128.65976 -102.51994 0.128104
129.79332 -102.58884 0.10771
130.01686 -102.43303 0.032974001
130.67401 -102.51119 0.075089999
130.94553 -102.5504 0.073700003
131.41724 -102.5854 0.136379
133.86067 -102.56866 0.11883
134.11642 -102.4973 0.092537001
120.86292 -102.5132 -0.061273001
123.48807 -102.56673 -0.088242002
124.10428 -102.49321 -0.124126
124.59414 -102.59732 -0.030494999
124.91166 -102.52762 -0.098638996
126.70479 -102.57535 -0.13933399
127.24547 -102.56245 -0.113113
127.64527 -102.5427 -0.021095
128.82666 -102.48482 -0.100046
131.01434 -102.52791 -0.120129
131.91885 -102.5439 -0.101959
132.97189 -102.45618 -0.11358
133.32475 -102.52206 -0.100011
135.9935 -102.56163 -0.121493
136.75792 -102.46746 -0.120233
137.42334 -102.48528 -0.079620004
120.60019 -102.59167 -0.289823
120.85806 -102.49667 -0.31831601
123.86301 -102.45515 -0.247005
124.89406 -102.53125 -0.32758799
127.24318 -102.48318 -0.21242499
133.53336 -102.46967 -0.305751
136.79343 -102.48653 -0.24719299
137.28638 -102.47499 -0.202969
120.36469 -102.58107 -0.50748801
120.55139 -102.51926 -0.55136502
122.3615 -102.55983 -0.531672
122.973 -102.56933 -0.473553
123.41607 -102.55334 -0.473052
124.37256 -102.53066 -0.57730001
124.88313 -102.49725 -0.44288701
132.92751 -102.4622 -0.46946901
136.01114 -102.59832 -0.50921297
136.77174 -102.44412 -0.540434
136.82245 -102.49318 -0.53431898
124.9288 -102.55952 -0.634036
125.07253 -102.51546 -0.69409102
135.96478 -102.48506 -0.70189297
139.08685 -102.45059 -1.20489
137.82669 -102.31004 0.40623501
122.3279 -102.23278 0.211279
126.74625 -102.24737 0.228764
126.91629 -102.31358 0.211264
128.64639 -102.25395 0.22142801
129.38809 -102.24403 0.217419
135.52106 -102.23352 0.24384101
138.57761 -102.27585 0.36304501
128.94522 -102.29626 0.087895997
129.9137 -102.29933 0.16046099
132.71161 -102.28694 0.15827
133.70413 -102.33218 0.16097499
135.29369 -102.31026 0.198991
136.23782 -102.30251 0.064939998
136.92801 -102.30992 0.14834499
137.02992 -102.36773 0.122841
120.24473 -102.25108 -0.17689499
120.67912 -102.32882 -0.108371
123.7133 -102.33038 -0.107603
123.818 -102.20554 -0.176272
124.91554 -102.29377 -0.17264
125.81229 -102.36954 -0.162266
131.17094 -102.36836 -0.020881999
132.10989 -102.32339 -0.048994001
133.31738 -102.31482 -0.131053
137.37971 -102.32649 -0.12375
120.89307 -102.27541 -0.21080901
121.23206 -102.33332 -0.34105301
124.07291 -102.28749 -0.20510601
124.86845 -102.35342 -0.30553201
131.96063 -102.23434 -0.23563901
132.67102 -102.34602 -0.26088601
133.40347 -102.27292 -0.38273901
136.81216 -102.38447 -0.333446
120.65347 -102.28749 -0.480923
120.95853 -102.28477 -0.47471699
124.24953 -102.22343 -0.58133698
124.61734 -102.29076 -0.56705701
124.93428 -102.26207 -0.49382401
125.01123 -102.34492 -0.52091497
132.85472 -102.33794 -0.43752199
133.10854 -102.35704 -0.51864898
135.89615 -102.26226 -0.52121699
123.04126 -102.31992 -0.66762602
123.48706 -102.32219 -0.61844701
135.90039 -102.24436 -0.663059
136.81839 -102.37978 -0.84031302
139.77225 -102.05315 0.40382099
124.50545 -102.14136 0.209383
128.30338 -102.1941 0.23164199
128.72021 -102.15462 0.24389599
129.51111 -102.10591 0.212984
133.67708 -102.17762 0.20247699
121.00547 -102.06216 0.154314
127.66013 -102.18582 0.184534
130.74698 -102.16346 0.168459
131.93546 -102.07709 0.010773
132.95328 -102.18625 0.122209
135.10812 -102.12101 0.197817
135.81015 -102.05527 0.067060001
137.46886 -102.07686 0.155049
122.91263 -102.06487 -0.16809
127.65419 -102.19699 -0.019270999
129.78142 -102.09174 -0.004644
130.46016 -102.03125 -0.002142
130.97211 -102.17183 -0.061781
134.03464 -102.1964 -0.036692001
135.76184 -102.05389 -0.054972999
137.39316 -102.03194 -0.106436
123.34983 -102.16775 -0.31336001
133.70541 -102.15852 -0.297317
120.14951 -102.09058 -0.47706601
124.74014 -101.86877 0.214477
128.56744 -101.86251 0.234671
128.79208 -101.90855 0.26087701
128.97408 -101.81207 0.240095
129.85881 -101.82376 0.222716
134.94389 -101.95356 0.216133
137.76672 -101.91745 0.35355499
137.81935 -101.89925 0.345855
139.69702 -101.80972 0.378984
127.48627 -101.84196 0.174437
129.47501 -101.80171 0.18406001
134.60704 -101.90035 0.16318101
135.71948 -101.88748 0.059521001
124.90114 -101.90961 -0.199927
125.95031 -101.88467 -0.193873
131.83656 -101.93931 -0.097870998
120.96703 -101.84103 -0.31769401
122.93341 -101.92104 -0.24562199
135.67758 -101.87828 -0.32184699
120.9483 -101.8997 -0.48604599
121.68194 -101.82355 -0.46384099
123.40497 -101.90278 -0.51465899
120.97861 -101.87151 -0.68963701
122.764 -101.83064 -0.65639198
123.71243 -101.82962 -0.817577
125.06585 -101.86427 -0.80083102
127.04537 -101.81501 -0.828152
125.05833 -101.74854 0.2431
125.78138 -101.72611 0.238169
126.90298 -101.78204 0.23366401
137.08768 -101.78496 0.351863
120.19226 -101.60363 0.075052999
132.9207 -101.77708 0.17894401
136.1431 -101.67822 0.079415001
124.61736 -101.75639 -0.075228997
129.03534 -101.69788 -0.13932399
129.33934 -101.6791 -0.15864199
129.56767 -101.74765 -0.077528998
132.06561 -101.74251 -0.070302002
133.33075 -101.69022 -0.032614999
125.8444 -101.7733 -0.21268
126.30844 -101.73695 -0.26945701
127.20032 -101.69396 -0.28263199
127.82793 -101.72028 -0.31307599
129.54454 -101.67853 -0.37162799
131.91553 -101.68583 -0.31400701
132.26076 -101.64874 -0.214178
134.93311 -101.68014 -0.26126301
126.74805 -101.65714 -0.58737803
127.48105 -101.71696 -0.57931101
127.87436 -101.71478 -0.43651101
129.43733 -101.66743 -0.50875401
129.65289 -101.72864 -0.50102502
130.93214 -101.64308 -0.58627999
131.41708 -101.68221 -0.52043903
133.34506 -101.68261 -0.51934999
133.42633 -101.68575 -0.51495802
134.29781 -101.68269 -0.55307198
134.94223 -101.64423 -0.57662702
135.06941 -101.69998 -0.49679801
135.51112 -101.74803 -0.48103499
124.52972 -101.77504 -0.66984999
126.32876 -101.74438 -0.60991198
127.00014 -101.70326 -0.63137698
127.89285 -101.70259 -0.69569898
128.92665 -101.77089 -0.64944899
130.9628 -101.68352 -0.71142399
131.37196 -101.68098 -0.673145
132.11993 -101.63116 -0.70993298
132.28033 -101.67584 -0.726367
132.52484 -101.70791 -0.71575898
133.931 -101.68237 -0.67383999
135.2663 -101.74988 -0.73724699
121.39479 -101.78484 -0.81855202
129.35574 -101.62788 -0.81129098
129.48285 -101.68021 -0.81238198
129.89598 -101.67706 -0.803249
130.29008 -101.75494 -0.81111002
139.771 -101.50301 0.46744099
127.52801 -101.40831 0.202282
136.24434 -101.50104 0.250337
138.58035 -101.52502 0.33539
120.31708 -101.50726 0.122273
121.44077 -101.49679 0.145384
124.68044 -101.41116 0.117175
131.63699 -101.4649 0.040422998
133.99358 -101.59933 0.198654
120.93829 -101.48045 -0.105386
122.32088 -101.59432 -0.108397
125.42493 -101.46501 -0.032655999
126.12395 -101.49588 -0.033861998
127.71862 -101.52277 -0.099138997
128.21265 -101.44109 -0.025169
131.55872 -101.42097 -0.017731
131.93597 -101.58798 -0.16324
134.93707 -101.58456 -0.066218004
131.39864 -101.40492 -0.215446
129.78271 -101.58893 -0.57239902
131.39166 -101.56554 -0.480418
133.03488 -101.58955 -0.58903098
133.86868 -101.58363 -0.546278
135.01767 -101.57824 -0.54059398
126.24837 -101.56847 -0.73383802
127.30524 -101.59686 -0.72108501
131.46519 -101.58199 -0.618168
126.94954 -101.38953 0.216158
134.73482 -101.35199 0.250514
135.23514 -101.36652 0.245453
120.03633 -101.27721 0.105442
120.24071 -101.29121 0.01695
121.174 -101.31927 0.14038201
121.92979 -101.32564 0.106217
122.32632 -101.26433 0.029154001
122.45652 -101.28417 0.082805999
123.08195 -101.35947 0.099324003
123.43557 -101.24589 0.069967002
123.75549 -101.20216 0.048785999
124.0956 -101.24084 0.021081001
125.2625 -101.23309 0.11959
126.06156 -101.22636 0.091251999
126.69802 -101.22968 0.122051
128.29694 -101.38281 0.097820997
129.05823 -101.31676 0.185056
132.93246 -101.38286 0.017306
133.30992 -101.31047 0.071721002
135.25981 -101.35316 0.016016001
135.67502 -101.32885 0.096175
120.96416 -101.34021 -0.102058
121.54502 -101.28456 -0.042275999
123.31479 -101.26118 -0.066973999
124.88103 -101.26848 -0.079033002
126.063 -101.25403 -0.090031996
126.68651 -101.32231 -0.089510001
127.52828 -101.36441 -0.070320003
128.08646 -101.33149 -0.076766998
129.53177 -101.32446 -0.033491001
133.89386 -101.36232 -0.051628001
135.4894 -101.29759 -0.014989
130.18143 -101.35537 -0.29085001
130.32877 -101.23689 -0.27150401
130.30621 -101.22815 -0.47993201
130.31708 -101.23334 -0.64958
130.30431 -101.23234 -1.342176
130.32944 -101.22588 -2.2899711
130.32602 -101.22388 -3.028604
124.67396 -101.08316 0.220503
127.89779 -101.06923 0.22764499
132.84172 -101.02802 0.221999
135.52486 -101.14568 0.24915101
136.17328 -101.04597 0.33311099
120.58925 -101.05847 0.194447
121.75465 -101.13345 0.151298
121.91344 -101.16565 0.136094
122.13978 -101.14935 0.142965
122.92278 -101.14741 0.065436997
124.87703 -101.13148 0.137779
126.73675 -101.07767 0.17364199
127.89397 -101.091 0.109581
129.577 -101.08202 0.10248
129.82938 -101.10651 0.178835
130.89284 -101.04577 0.092779003
131.88724 -101.03033 0.092938997
132.23978 -101.0143 0.11578
134.0769 -101.02118 0.069020003
134.50891 -101.10203 0.130215
135.33746 -101.05432 0.070722997
121.9773 -101.19622 -0.111308
123.77527 -101.18201 -0.052703999
124.87704 -101.15538 -0.044215001
125.78167 -101.17227 -0.037645001
128.8967 -101.14214 -0.036849
130.40613 -101.14923 -0.002838
130.90569 -101.12952 -0.033025
132.26854 -101.11304 -0.028997
132.7225 -101.07016 -0.041948002
134.23534 -101.18657 -0.044810999
135.6344 -101.11591 -0.0083349999
130.25107 -101.15124 -0.325039
130.15509 -101.07185 -0.41814199
130.27214 -101.13103 -0.703251
130.3049 -101.15448 -0.89752102
130.31761 -101.14199 -1.302928
130.44209 -101.10945 -1.209295
130.30412 -101.11632 -1.522467
130.30112 -101.15706 -1.679902
130.31537 -101.12841 -2.1041291
130.31738 -101.12059 -2.7097509
130.31265 -101.09142 -3.0920529
130.32883 -101.09658 -3.485899
130.3065 -101.05275 -3.6103671
138.27808 -100.9417 0.428206
128.4095 -100.92894 0.24553099
130.5676 -100.90933 0.30223
130.92575 -100.90091 0.27030101
131.08372 -100.95956 0.22217201
133.34106 -100.88174 0.266891
134.91867 -100.90961 0.285781
137.11902 -100.96617 0.38466701
139.05319 -100.99193 0.388937
139.43539 -100.99709 0.392719
126.1066 -100.98263 0.15547
130.29779 -100.99118 0.094511002
130.88954 -100.9524 0.114484
131.27065 -100.97455 0.083650999
131.86847 -100.97768 0.120343
132.5069 -100.96668 0.060224999
133.89967 -100.94896 0.041955002
134.30995 -100.96341 0.050085001
138.88754 -100.63443 0.455064
120.50126 -100.63688 0.208748
126.24995 -100.63261 0.25602999
126.56356 -100.6521 0.25745299
127.85789 -100.63631 0.26390499
130.33031 -100.61401 -3.624104
137.69901 -100.46604 0.42173299
123.43036 -100.51935 0.250016
129.86438 -100.57629 0.278882
133.44539 -100.47815 0.34273499
134.47531 -100.52935 0.350548
135.06714 -100.46817 0.35920599
135.89265 -100.53417 0.34126899
138.29877 -100.58519 0.39110401
130.3436 -100.5318 -3.5682659
130.36215 -100.48919 -3.640121
122.5625 -100.27361 0.227193
124.10454 -100.23473 0.24395899
124.84962 -100.25243 0.23115
125.88274 -100.29271 0.265358
131.0334 -100.25589 0.29700699
133.70691 -100.20416 0.34910399
136.18524 -100.22337 0.358585
137.05176 -100.25706 0.39399099
120.17514 -100.24427 0.19486
138.41826 -100.20665 -0.53153098
138.60295 -100.19077 0.438867
129.28532 -100.07063 0.27913401
134.55655 -100.15237 0.352373
136.89442 -119.91003 -0.168933
122.27319 -119.92789 -0.384983
126.42314 -119.81967 -0.37491
127.16382 -119.95936 -0.29978999
129.4189 -119.83866 -0.29483101
130.17656 -119.8627 -0.254776
131.11905 -119.90195 -0.248399
135.90994 -119.83096 -0.38393801
136.99281 -119.97858 -0.20711701
122.29727 -119.90659 -0.49706101
134.9539 -119.82579 -0.45613
122.04261 -119.95195 -0.70965999
135.55484 -119.88942 -0.73202401
122.21603 -119.84082 -0.92961299
135.58353 -119.91811 -1.206355
135.61908 -119.97042 -1.200087
139.63176 -119.91022 -1.75885
139.18202 -119.64455 -0.174578
120.63666 -119.78769 -0.378546
129.09018 -119.67607 -0.30629501
130.06683 -119.69237 -0.306335
130.52731 -119.77013 -0.243791
131.34775 -119.73779 -0.239012
133.87148 -119.7411 -0.21002699
135.08971 -119.67214 -0.30370399
135.89613 -119.71994 -0.361265
136.1684 -119.73823 -0.30487701
136.2063 -119.70628 -0.36816901
125.04202 -119.7336 -0.48495001
135.79726 -119.63017 -0.42036501
122.44028 -119.77896 -0.72917098
135.57733 -119.71802 -0.92937201
134.1188 -119.40857 -0.161255
134.64461 -119.52673 -0.181302
136.69969 -119.56346 -0.16288801
124.91649 -119.49472 -0.392703
127.85355 -119.52152 -0.36555001
129.84935 -119.40834 -0.23182601
134.94318 -119.54149 -0.31006899
135.93051 -119.42399 -0.28172499
136.16071 -119.4761 -0.297667
120.61292 -119.49568 -0.416453
121.79037 -119.5048 -0.40108401
124.11639 -119.46005 -0.47777301
125.85085 -119.42169 -0.434892
135.55917 -119.52406 -0.45831001
136.13718 -119.46323 -0.43537199
136.21399 -119.50551 -0.43388399
135.58179 -119.54727 -0.69266498
135.61107 -119.50719 -0.72175401
135.58484 -119.5304 -0.87267703
135.61696 -119.51542 -1.138696
138.84189 -119.56587 -1.764449
133.51651 -119.34383 -0.197818
139.42856 -119.38998 -0.15070599
125.08611 -119.39918 -0.394719
127.27129 -119.36935 -0.383448
131.70096 -119.32376 -0.227799
134.84633 -119.32022 -0.33322999
136.14139 -119.33128 -0.27550301
136.21048 -119.32132 -0.33566499
124.65004 -119.32986 -0.402569
134.59387 -119.16139 -0.162689
127.22255 -119.04254 -0.35725099
127.47216 -119.06182 -0.37076801
129.3689 -119.00417 -0.25099599
130.24783 -119.16454 -0.253961
131.60065 -119.1944 -0.25213701
132.57021 -119.03715 -0.206744
136.1852 -119.17853 -0.282069
120.21555 -119.00126 -0.42001
135.88913 -119.14034 -0.47983
135.59518 -119.01344 -0.86028898
136.65845 -118.80765 -0.162642
137.02249 -118.98902 -0.171937
125.78738 -118.90919 -0.32889301
136.16302 -118.94177 -0.25435299
136.22119 -118.94905 -0.27256599
136.11006 -118.97461 -0.46475899
135.61557 -118.87695 -0.921803
135.63187 -118.83995 -1.08439
139.57361 -118.96975 -1.082705
131.35333 -118.67746 -0.181904
136.19061 -118.63634 -0.173871
138.5527 -118.63811 -0.14049201
139.16942 -118.74008 -0.145632
120.7886 -118.74323 -0.37690201
127.43961 -118.66933 -0.33658499
128.25938 -118.6814 -0.28873101
135.8801 -118.63422 -0.37619501
121.42026 -118.60349 -0.43237299
122.77354 -118.78865 -0.42094699
135.85748 -118.76726 -0.45698199
133.47356 -118.56631 -0.17829099
134.57988 -118.57996 -0.14043
136.20561 -118.58991 -0.195463
137.33134 -118.50436 -0.16808
138.97681 -118.55177 -0.12562799
122.28059 -118.51991 -0.389393
129.75012 -118.5411 -0.25497499
136.23463 -118.48138 -0.27157
120.69751 -118.43314 -0.57533199
122.52836 -118.58392 -0.51648802
123.23746 -118.57294 -0.400626
124.38029 -118.50827 -0.53222799
120.74278 -118.47007 -0.73136902
127.16903 -118.52403 -0.61311799
135.59587 -118.45383 -0.63229603
122.42265 -118.45047 -0.86824298
135.63722 -118.48849 -0.86506099
127.10243 -118.44566 -1.04216
133.04272 -118.25853 -0.132156
135.11264 -118.23769 -0.131761
135.24321 -118.30263 -0.126737
137.41031 -118.21732 -0.134601
138.6575 -118.21156 -0.104298
127.14795 -118.2961 -0.34316701
127.28582 -118.26572 -0.30294701
129.40765 -118.30506 -0.24049599
130.58022 -118.20955 -0.21751601
136.22443 -118.32654 -0.371371
120.21854 -118.27576 -0.41764
124.29247 -118.36533 -0.54849499
125.827 -118.31331 -0.58402401
126.16451 -118.30495 -0.56528503
122.32365 -118.31319 -0.63830602
124.43369 -118.37275 -0.697429
126.05177 -118.34706 -0.690175
120.62221 -118.33635 -1.064111
122.23154 -118.26514 -1.035099
127.10956 -118.27629 -1.040444
139.58034 -118.20032 -1.054929
133.73392 -118.13126 -0.16109499
134.29562 -118.10283 -0.121946
136.54181 -118.15818 -0.13555899
138.28329 -118.10159 -0.122241
139.80457 -118.17678 -0.081757002
124.90382 -118.07837 -0.34572601
125.70348 -118.11267 -0.31830701
127.0914 -118.05432 -0.316367
128.43033 -118.0537 -0.29801899
131.29448 -118.12996 -0.207581
136.21542 -118.11169 -0.30987301
136.08939 -118.09223 -0.42497
136.168 -117.99738 -0.192894
137.09262 -117.82942 -0.161668
137.46515 -117.81531 -0.121303
124.2073 -117.93851 -0.359988
125.76333 -117.82541 -0.351623
126.45309 -117.82129 -0.37231499
127.09692 -117.87956 -0.31940699
127.23425 -117.8969 -0.38494599
128.54268 -117.82751 -0.278478
134.94444 -117.86965 -0.262968
136.16766 -117.951 -0.32539901
136.25418 -117.84796 -0.25013399
122.84274 -117.80293 -0.40862101
135.64127 -117.9292 -0.44123599
135.57446 -117.89287 -0.96846098
130.54045 -117.74798 -0.146267
132.62514 -117.78817 -0.16327199
134.88638 -117.70444 -0.13801099
137.09613 -117.7438 -0.101524
137.30594 -117.66898 -0.114189
138.25272 -117.74466 -0.10994
120.94876 -117.63382 -0.36279899
122.95975 -117.78917 -0.38853601
123.89567 -117.7466 -0.38112199
124.64323 -117.76916 -0.37922099
125.13732 -117.66703 -0.365311
127.46341 -117.73389 -0.28977299
129.10641 -117.75005 -0.259029
135.07149 -117.68335 -0.35052001
126.34011 -117.63074 -0.409756
136.27321 -117.70647 -0.41007999
135.62268 -117.6975 -0.67954898
130.20551 -117.41846 -0.191322
136.91867 -117.52018 -0.075567
126.89088 -117.42879 -0.31347001
127.78886 -117.4556 -0.28909001
129.01883 -117.47023 -0.230957
129.56026 -117.58105 -0.23135801
136.13084 -117.5043 -0.31598201
136.2527 -117.4974 -0.276719
121.02832 -117.40642 -0.43117699
124.20065 -117.53374 -0.40100101
126.84975 -117.47771 -0.41163501
135.63913 -117.50043 -0.63372397
138.84518 -117.59355 -1.67353
139.61884 -117.51505 -1.685338
139.45157 -117.30502 -0.059632
120.37377 -117.32906 -0.37951499
127.68506 -117.23177 -0.28663099
131.68689 -117.25116 -0.211046
135.64395 -117.33183 -0.39311701
135.95276 -117.33936 -0.42128101
135.64799 -117.33276 -0.77898097
131.68533 -117.0743 -0.18290401
132.18509 -117.05106 -0.15465499
134.94714 -117.03162 -0.108293
135.44917 -117.07557 -0.13105699
136.97472 -117.12791 -0.072327003
137.87018 -117.12613 -0.105188
124.49988 -117.09891 -0.33952099
125.08582 -117.07732 -0.31063101
126.23038 -117.04243 -0.30838901
126.67002 -117.12222 -0.31636101
127.73616 -117.05799 -0.27269599
128.91266 -117.05441 -0.236204
135.69916 -117.03638 -0.33430001
123.38782 -117.04782 -0.44708899
135.03409 -117.00459 -0.48139501
135.63785 -117.08578 -0.54092997
135.89333 -117.11054 -0.41451699
135.13374 -117.14207 -0.62101197
129.53252 -116.86622 -0.177463
130.27603 -116.96891 -0.18037599
130.76686 -116.87094 -0.181822
133.84003 -116.90263 -0.109508
135.1488 -116.93407 -0.059351999
136.30428 -116.9523 -0.121589
137.31876 -116.84811 -0.081570998
139.94525 -116.88778 -0.021174001
120.7562 -116.94096 -0.34478199
125.4753 -116.88843 -0.27668601
127.61055 -116.84586 -0.328637
129.72649 -116.82414 -0.215037
136.07237 -116.89297 -0.364384
120.63472 -116.98695 -0.412864
125.9559 -116.83133 -0.54724699
134.4525 -116.89049 -0.52647799
135.64969 -116.85065 -0.504852
136.29814 -116.80926 -0.435482
133.98814 -116.80296 -0.711317
122.35613 -116.8203 -0.85152102
125.80083 -116.81561 -0.83447999
135.68896 -116.92181 -1.036146
129.41025 -116.61314 -0.188186
129.83389 -116.67134 -0.151877
135.17082 -116.72559 -0.055142999
136.28644 -116.71912 -0.158105
137.20299 -116.6368 -0.066835001
120.41686 -116.79311 -0.315835
121.45674 -116.69843 -0.381818
123.12113 -116.60225 -0.3206
128.21838 -116.6983 -0.229496
136.31046 -116.68822 -0.32852301
127.10905 -116.66196 -0.49609199
135.91885 -116.71603 -0.41379401
136.02824 -116.68179 -0.41739401
125.9392 -116.68877 -0.66248298
126.0027 -116.70892 -0.61839998
133.96976 -116.61771 -0.66005498
134.52914 -116.785 -0.66186303
135.67523 -116.71698 -0.85552502
139.62457 -116.74891 -1.651718
136.50931 -116.52788 0.013903
132.58765 -116.59163 -0.116319
139.07617 -116.54726 -0.048999999
123.41019 -116.53716 -0.333202
127.39241 -116.51364 -0.32168499
127.93961 -116.4906 -0.268895
128.49203 -116.58594 -0.27192199
135.96887 -116.45496 -0.39389899
120.68481 -116.49503 -0.478973
120.84026 -116.43092 -0.54301202
124.24483 -116.47355 -0.43374601
124.48813 -116.47688 -0.42782399
124.63344 -116.56933 -0.424263
125.85346 -116.54033 -0.510562
127.17184 -116.49069 -0.43840301
133.96097 -116.41628 -0.52543497
134.2186 -116.49532 -0.55878502
136.14911 -116.54601 -0.42191401
122.31559 -116.49149 -0.89238
134.80103 -116.44622 -0.93100297
135.55173 -116.52919 -0.87267399
135.67819 -116.41978 -0.83096498
120.75525 -116.47111 -1.003961
120.85516 -116.52095 -1.025612
130.25218 -116.325 -0.180198
137.27376 -116.32713 -0.089258
137.85713 -116.26795 -0.067968003
120.1999 -116.2962 -0.365632
120.85182 -116.30952 -0.36306301
126.58815 -116.25941 -0.26825801
127.30563 -116.29753 -0.31570399
129.03889 -116.21365 -0.20542701
130.4684 -116.23775 -0.219532
135.12231 -116.33674 -0.36287799
135.55246 -116.21014 -0.32036
136.31042 -116.32565 -0.255633
120.73553 -116.27602 -0.48225501
124.34236 -116.29004 -0.466631
124.54205 -116.36644 -0.49107599
127.14244 -116.3868 -0.49342799
124.35862 -116.28214 -0.70564902
134.72678 -116.21991 -0.67902201
135.68396 -116.35293 -0.710379
122.47101 -116.31812 -0.80635798
134.59354 -116.34839 -0.95868599
134.66699 -116.35664 -0.96837002
135.68367 -116.39819 -1.113947
136.77614 -116.17842 0.042332999
130.79628 -116.117 -0.172429
130.80737 -116.04991 -0.163798
131.13963 -116.14951 -0.143517
132.09007 -116.17328 -0.112351
134.94539 -116.09176 -0.077257
139.41205 -116.08582 -0.026218999
121.32716 -116.19476 -0.34112301
124.89748 -116.08352 -0.28919199
125.81778 -116.08505 -0.28400999
127.29742 -116.06775 -0.26114601
135.6866 -116.15293 -0.376773
134.89673 -116.17812 -0.59828001
135.68111 -116.14266 -0.94090497
137.00316 -115.88284 0.066513002
129.62973 -115.83279 -0.15491
129.83023 -115.80879 -0.16766401
132.29619 -115.83999 -0.090919003
132.55112 -115.83282 -0.097377002
121.35623 -115.8128 -0.33392301
122.85375 -115.91743 -0.33629999
124.56516 -115.81557 -0.303431
125.42149 -115.80593 -0.29675001
127.04506 -115.85019 -0.24765401
127.70207 -115.83942 -0.26927
128.19296 -115.97412 -0.224433
136.05147 -115.91173 -0.32164201
135.2701 -115.8632 -0.70126599
134.94705 -115.97292 -0.85754597
130.24619 -115.72405 -0.125429
130.95354 -115.77422 -0.115264
134.33749 -115.70132 -0.079294004
137.34476 -115.64378 -0.074160002
137.8959 -115.72463 -0.051968001
139.8231 -115.76314 -0.037349001
122.05157 -115.77095 -0.305374
123.8817 -115.79607 -0.31542599
126.41492 -115.76625 -0.31792799
135.10068 -115.76049 -0.445366
135.72359 -115.68327 -0.96135598
135.71762 -115.69721 -1.117398
129.64284 -115.53588 -0.146154
130.32428 -115.54321 -0.160299
130.76608 -115.51032 -0.099238001
132.60216 -115.42561 -0.077079996
123.01859 -115.50755 -0.312902
124.50714 -115.52679 -0.32118201
125.33982 -115.47513 -0.30905601
128.27524 -115.46683 -0.215555
136.3257 -115.50713 -0.298682
135.67851 -115.4598 -0.476376
139.55977 -115.30971 0.0059549999
129.32336 -115.32473 -0.149341
129.76831 -115.35545 -0.147438
131.46725 -115.29566 -0.12969001
135.05801 -115.26979 -0.085169002
136.32065 -115.30255 -0.078106001
136.95578 -115.26037 -0.030887
125.85313 -115.31039 -0.30161899
127.30624 -115.29823 -0.22609501
130.11311 -115.32572 -0.20250399
135.0755 -115.2338 -0.26492199
135.69269 -115.35818 -0.49376801
138.60674 -115.05977 0.017291
139.0256 -115.0207 0.026943
127.58691 -115.02453 -0.15930299
128.96439 -115.04279 -0.101215
130.13885 -115.15575 -0.13119701
133.53934 -115.06834 -0.076327004
134.63852 -115.00934 -0.064589001
135.08189 -115.09676 -0.075920999
137.12408 -115.1059 -0.023972999
137.81226 -115.11975 -0.051182002
138.15024 -115.04887 -0.041243002
124.11769 -115.10876 -0.25218299
127.13915 -115.04473 -0.312666
127.30048 -115.06033 -0.335922
127.50467 -115.08778 -0.22037201
127.72643 -115.02626 -0.231516
128.28143 -115.0351 -0.203527
136.32715 -115.05904 -0.31178099
124.3511 -115.02872 -0.50326002
127.35063 -115.11251 -0.72511399
135.69566 -115.05264 -0.70760101
127.41901 -115.01644 -0.85393202
135.68875 -115.03603 -0.85555398
129.25583 -114.98935 -0.127984
129.45833 -114.89618 -0.135656
130.20015 -114.94643 -0.115241
130.67819 -114.85608 -0.118862
131.13141 -114.90915 -0.088218004
132.62048 -114.95959 -0.083485998
134.29297 -114.93352 -0.048443001
137.12164 -114.8228 -0.015939999
120.21115 -114.81449 -0.30708
122.82201 -114.99033 -0.26446301
125.89711 -114.83113 -0.30745101
126.53069 -114.97424 -0.221083
135.22241 -114.84855 -0.391386
135.70523 -114.90788 -0.34754899
135.94794 -114.88419 -0.341243
136.09882 -114.99244 -0.40964299
124.3869 -114.94765 -0.67971802
127.45879 -114.9641 -0.645482
135.72 -114.89845 -1.03398
138.89926 -114.938 -1.608982
139.66548 -114.81739 -1.610865
127.81237 -114.6355 -0.18853
128.67108 -114.68262 -0.180978
130.49661 -114.6832 -0.105058
130.76279 -114.63673 -0.102321
131.76755 -114.6405 -0.092707001
133.78281 -114.76131 -0.093584999
122.17397 -114.64379 -0.226695
122.71226 -114.72203 -0.303902
124.68399 -114.658 -0.333123
125.12193 -114.68376 -0.27001399
127.08792 -114.72099 -0.226567
135.90652 -114.71141 -0.275435
124.73107 -114.67988 -0.442202
124.48486 -114.7177 -0.74267697
124.71706 -114.66182 -0.671776
124.19508 -114.63425 -0.94959998
124.5201 -114.68301 -1.061915
124.51962 -114.63762 -1.219954
139.63335 -114.79402 -1.596113
135.03712 -114.50772 0.0050869999
137.08429 -114.44993 0.018691
139.43173 -114.52477 0.0068919999
127.35923 -114.41652 -0.199219
129.05751 -114.53107 -0.109957
132.13216 -114.54227 -0.080063999
133.01361 -114.53092 -0.061418001
134.72517 -114.49464 -0.044059999
135.09546 -114.52957 -0.051688999
136.32118 -114.51817 -0.098865002
139.24617 -114.40947 -0.033771001
124.74161 -114.53172 -0.35078701
128.13304 -114.47099 -0.21261699
136.33496 -114.50053 -0.247475
135.00644 -114.49759 -0.49783701
124.94078 -114.50252 -0.64868999
135.72394 -114.46488 -0.66333598
138.58615 -114.32126 0.011119
139.01021 -114.23347 0.016804
127.82851 -114.26408 -0.190942
129.49753 -114.3178 -0.114234
131.52701 -114.29889 -0.070918001
138.42644 -114.20238 -0.049626
120.43622 -114.35713 -0.246222
122.27565 -114.30031 -0.23745701
123.45114 -114.26317 -0.27277699
126.17157 -114.2963 -0.208239
126.66711 -114.2431 -0.25884399
127.05733 -114.22622 -0.211335
127.60593 -114.38896 -0.209665
121.05105 -114.38158 -0.517151
135.11786 -114.26439 -0.44521499
124.68184 -114.389 -0.72650802
124.67236 -114.3559 -0.834225
137.51328 -114.0974 0.024467001
129.1535 -114.15887 -0.127984
129.32611 -114.05589 -0.114991
129.76324 -114.08519 -0.070055999
131.73065 -114.13221 -0.055357002
125.30602 -114.11533 -0.250808
134.78329 -114.0735 -0.461337
137.09689 -113.83241 0.047366999
138.61113 -113.84168 0.027783999
127.0914 -113.83772 -0.188823
127.36325 -113.90256 -0.18494
127.68178 -113.90331 -0.188049
129.05209 -113.90043 -0.115764
129.32306 -113.90054 -0.079985999
129.4959 -113.9008 -0.119546
129.77049 -113.87839 -0.075452
132.48338 -113.8298 -0.04109
133.29312 -113.87611 -0.029201001
136.32919 -113.8506 -0.039248001
138.23448 -113.81113 -0.015794
125.82407 -113.83389 -0.27703801
135.00403 -113.87952 -0.35936499
135.97894 -113.94594 -0.307399
136.147 -113.91505 -0.30203599
136.36827 -113.87688 -0.24648599
135.10254 -113.93633 -0.60745299
135.04387 -113.71877 0.01362
136.81801 -113.78013 0.012954
137.43555 -113.66219 0.0078800004
137.71643 -113.772 0.044812001
126.76822 -113.65502 -0.191661
131.48871 -113.72531 -0.087669
138.61604 -113.73616 -0.014773
122.13846 -113.7095 -0.23726401
123.79112 -113.72195 -0.226317
136.07645 -113.73911 -0.29686001
134.97542 -113.79803 -0.76516402
135.7579 -113.67784 -1.038909
138.93073 -113.69622 -1.5480241
134.70035 -113.4167 0.015148
138.55862 -113.41201 0.031927001
129.42393 -113.43297 -0.081387997
130.60876 -113.41024 -0.074832998
132.19852 -113.40829 -0.017986
133.07217 -113.49461 -0.025473
136.33585 -113.49786 -0.080027997
122.19431 -113.48322 -0.231123
123.18329 -113.41798 -0.271182
125.92632 -113.43189 -0.222895
135.34836 -113.49104 -0.49527299
135.41782 -113.51923 -0.44166699
134.63837 -113.4185 -0.65233201
135.39638 -113.55847 -0.63153303
133.52141 -113.39035 0.0030129999
139.28268 -113.28868 0.043364
126.20664 -113.37281 -0.19952901
128.04123 -113.27804 -0.187711
128.64041 -113.37904 -0.12636299
131.36513 -113.31203 -0.027461
122.66071 -113.3029 -0.26254201
124.15553 -113.39183 -0.216313
125.42848 -113.3224 -0.221183
139.71814 -113.29911 -1.540522
137.10532 -113.15149 0.034993
124.79105 -113.1447 -0.186094
127.73189 -113.04015 -0.139851
133.37317 -113.06411 -0.019111
136.18243 -113.13803 -0.183397
136.41663 -113.06378 -0.132431
138.08212 -113.09214 -0.0083889998
122.98684 -113.01602 -0.248392
127.36528 -113.06848 -0.37927401
136.06158 -113.0915 -0.21750499
135.76849 -113.05403 -0.431023
134.94014 -113.13182 -0.66862702
135.77086 -113.099 -0.68680501
134.89821 -113.05567 -0.81508303
135.76556 -113.09451 -0.85503799
138.93639 -113.00327 -1.515047
131.20625 -112.99464 0.015331
133.39473 -112.98889 0.0083600003
133.70969 -112.92731 0.021647001
136.36212 -112.94337 0.024328001
138.48679 -112.93304 0.03156
124.20705 -112.86303 -0.166247
126.28098 -112.89349 -0.14137
127.25317 -112.80253 -0.14392699
135.09174 -112.91589 -0.039267998
120.31482 -112.8597 -0.20402101
122.2494 -112.94064 -0.26142201
120.96693 -112.86874 -0.52983701
124.4882 -112.86529 -0.49620301
127.18893 -112.88748 -0.517618
127.62273 -112.88658 -0.53953803
135.48233 -112.87714 -0.54278499
138.94658 -112.94169 -1.518846
131.896 -112.67518 0.0034729999
136.99997 -112.61576 0.018650999
138.16962 -112.66377 0.036798999
138.46696 -112.67633 0.016000999
124.18924 -112.70541 -0.162187
126.07655 -112.62994 -0.149551
127.86347 -112.7212 -0.14076699
128.12166 -112.67247 -0.135471
129.82199 -112.6188 -0.055698998
133.03294 -112.70481 -0.011609
135.01259 -112.78246 -0.075231999
136.29221 -112.68035 -0.25570601
121.33131 -112.78655 -0.51672399
127.16739 -112.67984 -0.56875402
134.65953 -112.64223 -0.52346098
127.3211 -112.73291 -0.76355302
124.68449 -112.61043 -0.80644399
127.34818 -112.78541 -0.83264101
135.12312 -112.65814 -0.84450901
135.77655 -112.71544 -0.94595301
136.39816 -112.51178 0.023948001
137.32248 -112.48762 0.035633001
137.80386 -112.5929 0.030789999
122.3082 -112.56283 -0.17215399
122.99043 -112.46503 -0.19815999
125.88979 -112.48611 -0.110306
126.09253 -112.55779 -0.177775
126.66199 -112.52728 -0.165795
127.7123 -112.43384 -0.149598
128.11687 -112.48902 -0.099256001
130.63147 -112.55042 -0.052228998
131.05249 -112.56393 -0.027979
133.78375 -112.5613 -0.028601
135.30769 -112.42381 -0.193103
136.40736 -112.57446 -0.117119
137.86816 -112.51772 -0.0012300001
126.08504 -112.5504 -0.28725901
127.45165 -112.5861 -0.39568001
135.77463 -112.52133 -0.26659799
136.411 -112.49106 -0.265921
125.99644 -112.59088 -0.519063
135.11897 -112.43894 -0.53317899
135.77477 -112.44833 -0.51920998
131.42493 -112.21131 0.014601
131.69893 -112.29803 0.016152
135.19604 -112.31252 0.024402
136.4454 -112.33975 0.031803001
138.25641 -112.32379 0.045343999
120.43433 -112.25212 -0.15145101
125.45369 -112.31846 -0.172152
127.27122 -112.33405 -0.13346501
129.00237 -112.23919 -0.074391
130.53223 -112.20578 -0.020947
131.47758 -112.25012 -0.021749999
132.57829 -112.25213 -0.010631
136.33533 -112.25382 -0.098373003
121.75448 -112.21975 -0.210051
122.87681 -112.35849 -0.236166
135.04788 -112.28175 -0.236865
135.5083 -112.34071 -0.31156901
135.76776 -112.2198 -0.25573599
135.81186 -112.29552 -0.28452599
136.0945 -112.27121 -0.280233
124.71527 -112.36691 -0.56209999
135.77573 -112.25998 -0.480207
135.78606 -112.2999 -0.66574001
130.92992 -112.09554 0.010353
134.5952 -112.1967 0.012465
136.40308 -112.1339 0.025553999
137.72977 -112.08733 0.046886001
123.26537 -112.02244 -0.104847
127.4375 -112.11572 -0.13176601
127.87582 -112.0704 -0.107054
128.63484 -112.13115 -0.069196001
130.99286 -112.18845 -0.020671999
135.76553 -112.1377 -0.328996
135.81042 -112.1405 -0.29598001
135.44321 -112.19279 -0.49214101
135.80371 -112.06988 -0.58497202
135.78746 -112.09302 -0.92308497
131.45383 -111.84312 0.059344999
132.39119 -111.98526 0.035749
137.07751 -111.82295 0.065908998
124.04149 -111.88194 -0.122465
126.57355 -111.80493 -0.140724
128.19963 -111.83243 -0.099440001
130.31323 -111.87948 -0.024146
133.07513 -111.84907 -0.014609
134.03952 -111.89552 -0.0054159998
136.43442 -111.88405 -0.11185
134.78218 -111.85374 -0.215267
135.78587 -111.92518 -0.30484501
135.85376 -111.85038 -0.30084601
135.815 -111.94211 -0.93499398
138.97321 -111.85489 -1.546253
133.03116 -111.70716 0.027563
136.37822 -111.72878 0.050735001
136.44817 -111.74391 0.038373001
137.77518 -111.67277 0.062834002
125.08826 -111.65887 -0.164647
126.96431 -111.71039 -0.120119
128.12393 -111.65987 -0.097960003
129.48572 -111.77099 -0.10899
130.96246 -111.71078 -0.017752999
135.31705 -111.70084 -0.16907001
139.9903 -111.60471 -0.30153099
135.27866 -111.63931 -0.40816301
135.77872 -111.65096 -0.934214
139.72507 -111.69681 -1.5340869
130.5573 -111.4034 0.023363
134.18845 -111.40405 0.049380001
135.46509 -111.46826 0.057243999
138.15648 -111.44408 0.071314
139.92758 -111.46454 0.102097
121.92393 -111.4608 -0.165142
124.08112 -111.42688 -0.140911
127.29218 -111.45763 -0.12730999
135.45236 -111.54417 -0.25881901
135.67416 -111.5331 -0.238282
135.81638 -111.48025 -0.67180902
139.76352 -111.4124 -0.86106199
134.75717 -111.3719 0.048955999
135.1239 -111.37317 0.119408
136.36362 -111.32495 0.023921
137.4585 -111.33488 0.073825002
138.92468 -111.3311 0.084518999
124.70684 -111.38905 -0.15079699
124.89123 -111.31809 -0.16955701
129.07202 -111.33096 -0.040897999
130.27943 -111.35268 -0.010782
136.42096 -111.33868 -0.165852
120.94391 -111.21911 -0.32510799
127.23776 -111.25783 -0.355086
135.29095 -111.32105 -0.339371
135.81564 -111.29298 -0.29808101
124.64203 -111.2845 -0.51356101
124.87265 -111.30457 -0.495545
126.42389 -111.21314 -0.52907097
135.22241 -111.31232 -0.43219101
124.92304 -111.38823 -0.835805
134.04105 -111.00586 0.032168999
134.54216 -111.0206 0.036961999
134.83206 -111.02366 0.040830001
137.32904 -111.1411 0.100179
138.97606 -111.02981 0.099193998
121.86568 -111.15638 -0.123953
126.9865 -111.02442 -0.067019001
127.46481 -111.04685 -0.100195
127.77301 -111.06022 -0.091532998
129.45172 -111.07614 -0.018046999
130.23178 -111.06064 -0.020899
130.55859 -111.01275 -0.0064269998
135.22675 -111.06471 -0.18127
136.43817 -111.12596 -0.157897
135.27509 -111.1363 -0.264265
122.88939 -111.09138 -0.41245401
127.30624 -111.06067 -0.44653901
126.35723 -111.13358 -0.60069299
126.04105 -110.96521 0.00575
129.7346 -110.88887 0.022662999
132.48721 -110.94112 0.038945999
137.26117 -110.92517 0.121507
137.73544 -110.86426 0.119661
139.44385 -110.95755 0.110164
120.57147 -110.9086 -0.143562
121.24831 -110.90557 -0.39339399
122.85844 -110.99069 -0.38602099
135.34137 -110.92417 -0.370206
126.22941 -110.84509 -0.59294301
126.11622 -110.88451 -0.70087999
135.82886 -110.95174 -0.71528399
130.51717 -110.66577 0.047929998
134.696 -110.69385 0.050937999
135.16393 -110.70912 0.02376
135.4705 -110.66629 0.067383997
136.48337 -110.66846 0.052515
120.15678 -110.6064 -0.124512
120.66077 -110.68156 -0.113637
127.27461 -110.73428 -0.087823004
127.42551 -110.66996 -0.102932
128.75299 -110.65932 -0.060961999
131.01904 -110.68581 -0.01456
135.09282 -110.62263 -0.18624
136.42169 -110.6978 -0.22093
127.44698 -110.79317 -0.43364999
135.29256 -110.64022 -0.43514499
135.82971 -110.71983 -0.70317298
135.82855 -110.68336 -0.90140498
132.08853 -110.55542 0.023569001
133.01936 -110.59999 0.040165
136.49396 -110.50193 0.13339999
137.3587 -110.48035 0.115524
139.46033 -110.52618 0.113094
124.23643 -110.5152 -0.077229001
124.9808 -110.59914 -0.067405999
128.31805 -110.47087 -0.081951998
135.09944 -110.59087 -0.186902
135.28123 -110.57988 -0.193202
136.14117 -110.52245 -0.120332
136.44849 -110.51697 -0.091747001
135.12749 -110.45236 -0.242705
135.81683 -110.44966 -0.30077299
136.46582 -110.41846 -0.53269601
139.77893 -110.4239 -1.471216
133.86467 -110.4095 -9.7886381
131.88596 -110.23755 0.048145998
132.59485 -110.23003 0.017823
134.19241 -110.32491 0.049862999
135.23813 -110.35008 0.073317997
136.50546 -110.32312 0.089138001
137.71089 -110.20569 0.132589
137.86153 -110.2139 0.073700003
122.96909 -110.28112 -0.087416999
125.05725 -110.20325 -0.103896
127.54637 -110.29274 -0.091966003
127.79936 -110.30376 -0.102868
128.15126 -110.25914 -0.084293
128.44806 -110.21834 -0.067933001
131.00725 -110.28266 -0.017209001
136.49538 -110.26768 -0.102027
136.35237 -110.30307 -0.53729498
136.49854 -110.30537 -0.488846
135.83366 -110.24661 -0.75747001
136.33984 -110.29774 -0.66671997
136.37099 -110.22229 -1.170541
136.461 -110.245 -2.4944639
135.88261 -110.23194 -8.8727312
133.47913 -110.32339 -9.1141853
133.66638 -110.28815 -9.1102619
135.72382 -110.27249 -9.0906849
134.1908 -110.28009 -9.4307184
134.11868 -110.21545 -9.8629932
134.5249 -110.19757 0.047322001
134.95142 -110.09523 0.065008
135.07935 -110.19312 0.053617001
137.50278 -110.15468 0.12789699
127.33974 -110.05569 -0.081781998
135.03304 -110.09352 -0.051391002
135.81587 -110.07003 -0.30454901
136.37138 -110.16809 -0.44005501
136.39139 -110.17284 -0.76422298
136.43607 -110.15668 -0.71264201
135.8512 -110.13097 -0.85432601
136.36444 -110.1614 -0.95627898
136.39491 -110.19891 -1.46773
136.48129 -110.17305 -1.840878
136.49432 -110.16759 -2.3434031
136.47897 -110.17865 -3.0216689
136.49263 -110.13 -3.4463291
135.05022 -110.00966 -9.3150158
133.81073 -110.13269 -10.116171
134.21014 -110.18469 -10.241549
134.49452 -110.12794 -10.310139
136.54866 -110.08706 -11.719718
136.64125 -110.06151 -11.612086
136.53548 -110.08478 -11.988288
136.50764 -110.13028 -12.061122
127.41836 -109.89207 0.019963
131.45491 -109.88731 0.021578999
135.50903 -109.92294 0.098632
135.68637 -109.80705 0.11664
137.78786 -109.89126 0.148361
125.14622 -109.9341 -0.066997997
127.4121 -109.95683 -0.083971001
128.6367 -109.84929 -0.032512002
129.85623 -109.82144 -0.015312
131.0062 -109.93098 -0.0095250001
136.12878 -109.93498 -0.13355
122.9308 -109.9465 -0.431959
126.01983 -109.92635 -0.50870901
127.39979 -109.88607 -0.44783601
127.44536 -109.87202 -0.434645
135.42029 -109.95517 -0.46546501
135.85406 -109.90324 -0.71622598
135.33765 -109.83302 -9.0071859
135.92844 -109.97392 -9.1428738
134.99149 -109.97649 -9.2873096
135.08203 -109.92133 -9.460413
135.31996 -109.95922 -9.4106035
135.83659 -109.85205 -9.5008736
135.35553 -109.85165 -9.758029
135.84677 -109.81021 -9.7851915
135.63641 -109.96461 -9.8348274
135.08774 -109.85715 -10.119164
136.45972 -109.82912 -11.420049
136.48122 -109.93268 -11.840691
130.15958 -109.7712 0.024759
131.73703 -109.77739 0.056818001
132.59795 -109.74863 0.061547
133.26976 -109.73281 0.042801999
136.18579 -109.67155 0.085295998
136.35617 -109.7151 0.063657999
137.16313 -109.72487 0.160143
139.11191 -109.74685 0.16518299
121.68609 -109.79198 -0.16870099
125.8898 -109.70279 -0.148825
127.39215 -109.67039 -0.18131401
128.02617 -109.79908 -0.070547998
129.27325 -109.76317 -0.021152999
136.12439 -109.69725 -0.137482
121.2697 -109.7012 -0.28134799
125.95435 -109.69336 -0.26357201
121.5462 -109.75044 -0.51952302
124.86934 -109.73598 -0.51728803
125.69154 -109.74622 -0.433229
127.31755 -109.70273 -0.48236901
121.15582 -109.72761 -0.70631599
121.2963 -109.7195 -0.63380003
127.5093 -109.62029 -0.643592
134.87923 -109.7659 -9.493289
135.36357 -109.78061 -10.065784
135.79416 -109.7318 -10.089322
134.37782 -109.70782 -10.865059
136.07506 -109.76373 -11.277228
136.2764 -109.77592 -11.843489
135.96999 -109.66711 -12.12505
124.73146 -109.46855 0.0046669999
130.16426 -109.41866 0.055746999
133.77036 -109.50516 0.065013997
136.32323 -109.50401 0.037613001
120.57516 -109.47794 -0.111869
123.54984 -109.4855 -0.086719997
126.17403 -109.42334 -0.100162
127.71678 -109.46271 -0.057604998
127.8623 -109.45503 -0.085268997
129.84927 -109.46602 -0.018562
136.44235 -109.43606 -0.116187
121.37275 -109.50321 -0.34128901
123.02148 -109.51713 -0.316686
136.08591 -109.43388 -0.21128
121.04945 -109.49011 -0.553725
124.89725 -109.58218 -0.47816399
125.87875 -109.5878 -0.51433903
127.55191 -109.53421 -0.48647299
135.84024 -109.44128 -0.51143402
120.99232 -109.49924 -0.96460199
122.87139 -109.51849 -0.83293998
134.91631 -109.52294 -9.9477053
136.01498 -109.5967 -11.530684
136.09753 -109.5313 -12.021605
125.77408 -109.39953 0.015247
130.54771 -109.30993 0.043403
134.99385 -109.33015 0.077972002
136.89589 -109.36373 0.146106
138.61996 -109.31699 0.133866
121.88248 -109.33848 -0.093280002
122.67699 -109.34306 -0.064211003
123.72911 -109.21535 -0.116084
123.93233 -109.29167 -0.14480101
125.31783 -109.27406 -0.073661998
125.71289 -109.29213 -0.094241001
127.5601 -109.25242 -0.092386
128.28311 -109.3661 -0.044565
128.74504 -109.35044 -0.0031610001
134.69263 -109.3891 -0.067218997
136.10159 -109.29752 -0.132735
136.41721 -109.32567 -0.165344
134.80713 -109.22662 -0.258315
136.11261 -109.31355 -0.21017601
121.49791 -109.34605 -0.71004099
135.86725 -109.32007 -0.89187098
133.9213 -109.2629 -7.9729929
134.48953 -109.2796 -8.9496746
137.22038 -109.2094 -8.9816685
134.8302 -109.33 -9.0357723
137.13315 -109.22545 -9.053792
134.05373 -109.2338 -9.4320602
134.78551 -109.30376 -9.4251842
136.89938 -109.24593 -9.5151396
134.4472 -109.36945 -10.182429
135.72623 -109.26469 -11.183783
135.86983 -109.3999 -11.860838
135.85464 -109.371 -12.241748
126.33163 -109.19353 0.025261
130.27905 -109.03761 0.059439
131.29761 -109.01698 0.055261001
132.64902 -109.16095 0.065314002
136.375 -109.10348 0.058095999
138.95164 -109.09705 0.15922099
120.19025 -109.05025 -0.080918998
123.13142 -109.13292 -0.072421998
124.62196 -109.05322 -0.055737998
