# .PCD v0.7 - Point Cloud Data file format
VERSION 0.7
FIELDS x y z
SIZE 4 4 4
TYPE F F F
COUNT 1 1 1
WIDTH 1531
HEIGHT 1
VIEWPOINT 0 0 0 1 0 0 0
POINTS 1531
DATA ascii
130.65796 -179.90649 -2.3039279
131.12769 -179.91737 -2.2308209
131.47458 -179.91809 -2.2608321
131.83975 -179.92386 -2.218431
132.04793 -179.9743 -2.218704
132.54074 -179.96603 -2.31936
128.10387 -179.80972 -2.4607821
128.4819 -179.81876 -2.5428219
128.88742 -179.84053 -2.474936
129.51035 -179.87103 -2.4869809
129.88161 -179.85138 -2.5502651
130.15942 -179.85812 -2.503315
130.53398 -179.86018 -2.5527589
130.71991 -179.85843 -2.5256121
130.93752 -179.90886 -2.4525969
131.31413 -179.91449 -2.523279
131.88701 -179.92648 -2.489646
132.23853 -179.95282 -2.5222459
132.4946 -179.95792 -2.530231
130.84438 -179.86295 -2.6060619
129.48744 -179.97855 -3.5238659
129.4984 -179.98073 -3.8373699
129.50507 -179.97928 -4.2299981
129.50517 -179.97394 -4.55618
129.51682 -179.97484 -4.6435571
129.46674 -179.99747 -4.9193878
129.48645 -179.97964 -5.0920358
129.50714 -179.99635 -5.2729468
129.50551 -179.96568 -5.4526658
129.4957 -179.96973 -5.871038
135.80516 -179.72459 -1.965452
138.23341 -179.75832 -1.983878
138.63228 -179.71754 -1.975607
139.04041 -179.74615 -1.9633991
139.80327 -179.73093 -1.948952
124.78935 -179.62344 -2.1533051
125.5919 -179.72234 -2.1636679
127.54684 -179.68805 -2.1093819
131.07449 -179.64487 -2.0640011
134.10065 -179.79645 -2.0632019
134.51421 -179.68524 -2.0591609
136.20819 -179.76013 -2.043021
122.78921 -179.69662 -2.313302
122.97466 -179.75562 -2.2960391
123.37573 -179.66711 -2.355356
123.90829 -179.78831 -2.24383
124.31938 -179.72601 -2.2535601
124.5296 -179.70073 -2.241205
124.74828 -179.66139 -2.210624
124.90115 -179.71307 -2.308903
125.09682 -179.70322 -2.322155
125.44193 -179.72 -2.351846
125.85426 -179.7556 -2.3278911
126.25854 -179.7923 -2.2027731
126.56882 -179.71844 -2.2136941
126.96846 -179.73587 -2.2005551
127.39288 -179.77148 -2.268038
127.76542 -179.79073 -2.286833
123.03186 -179.61136 -2.470634
123.41272 -179.63873 -2.507653
123.84734 -179.65842 -2.546963
124.29958 -179.68037 -2.581445
125.11628 -179.7168 -2.53794
125.4819 -179.73495 -2.503372
125.8168 -179.75175 -2.4441741
126.30851 -179.76953 -2.4735761
126.52362 -179.76714 -2.4696491
126.97522 -179.78096 -2.5087199
127.46466 -179.79309 -2.5693049
127.88309 -179.79935 -2.5205259
124.57414 -179.71863 -2.61884
124.83669 -179.70473 -2.61516
125.3367 -179.73907 -2.632401
122.93568 -179.40146 -2.192723
123.6056 -179.56097 -2.159246
125.55128 -179.55319 -2.116343
125.89598 -179.55438 -2.1029799
127.72157 -179.44257 -2.0973971
130.15372 -179.48793 -2.055594
133.45815 -179.42592 -2.0373709
133.83025 -179.46155 -2.0354359
134.94254 -179.52306 -2.0550771
135.33781 -179.44278 -2.051708
135.74298 -179.40523 -2.0437901
120.14136 -179.48238 -2.29601
120.53963 -179.49252 -2.2513969
120.89178 -179.45505 -2.251374
121.05894 -179.47882 -2.2520449
121.27766 -179.5163 -2.2842879
121.40911 -179.54836 -2.3134689
121.70752 -179.52855 -2.3198259
122.06589 -179.55545 -2.32739
122.56997 -179.54436 -2.331074
122.25299 -179.56955 -2.434649
120.21792 -179.49619 -2.6325259
120.63601 -179.51871 -2.6713009
121.06898 -179.52579 -2.6681781
121.41962 -179.54385 -2.7024801
121.77328 -179.55878 -2.6350191
129.49741 -179.47522 -6.0601802
139.19299 -179.43814 -9.6524296
136.96176 -179.28568 -1.996613
137.41774 -179.28702 -1.997962
137.85641 -179.33569 -1.98984
138.25027 -179.37012 -1.977855
138.60501 -179.39648 -1.969386
138.94766 -179.32034 -1.958287
139.32196 -179.36269 -1.946723
139.76672 -179.36765 -1.941752
123.731 -179.36713 -2.149646
125.11136 -179.31776 -2.153995
125.34406 -179.28606 -2.104805
125.49414 -179.30128 -2.10253
126.95778 -179.29675 -2.0812681
127.38824 -179.30688 -2.0878999
130.5562 -179.36806 -2.047924
130.89156 -179.30438 -2.045958
134.28705 -179.26921 -2.03302
134.54611 -179.31264 -2.035768
139.28294 -179.28763 -9.1488724
139.33942 -179.32764 -9.3370419
139.74117 -179.24329 -10.37711
137.73257 -179.06903 -1.991086
138.17114 -179.04715 -1.9831181
138.53265 -179.05048 -1.962643
139.01129 -179.00607 -1.945742
139.89708 -179.1104 -1.925378
123.87835 -179.1041 -2.1305771
127.52374 -179.0126 -2.067652
127.80176 -179.0265 -2.0729029
128.27495 -179.07117 -2.069834
129.46014 -179.06879 -2.074333
130.16086 -179.03595 -2.0486341
133.43799 -179.00977 -2.0266869
134.70529 -179.1286 -2.028996
135.03175 -179.00151 -2.0240681
135.88486 -179.09676 -2.033221
136.53009 -179.1028 -2.017694
139.70215 -179.06879 -10.35767
136.59515 -178.84239 -1.994947
136.98724 -178.95035 -1.988669
137.37344 -178.88025 -1.97717
139.45135 -178.9826 -1.93231
124.19019 -178.98859 -2.125819
125.39822 -178.99658 -2.0983019
130.62216 -178.89899 -2.027127
131.0876 -178.94931 -2.02773
132.97447 -178.95239 -2.0145199
134.21486 -178.99571 -2.022073
135.48694 -178.88863 -2.0218389
135.85873 -178.96075 -2.0280571
136.20636 -178.92024 -2.015306
131.28752 -178.68712 -1.9912
131.64539 -178.75204 -1.994463
132.6338 -178.60062 -1.999724
136.18997 -178.61723 -1.9918081
136.64798 -178.69128 -1.993176
137.11751 -178.66742 -1.9859051
137.40753 -178.66585 -1.983817
137.80148 -178.69054 -1.973547
138.07568 -178.62485 -1.965904
138.58791 -178.68245 -1.950201
139.34421 -178.68626 -1.930568
120.14951 -178.6402 -2.1879289
124.69395 -178.64365 -2.1122041
127.68721 -178.60057 -2.0636971
128.68082 -178.68469 -2.048254
129.29385 -178.61456 -2.0484719
129.84398 -178.62041 -2.0484729
130.66483 -178.63815 -2.022378
132.62909 -178.67426 -2.01406
135.78531 -178.71367 -2.0118029
136.14764 -178.63596 -2.005563
136.55042 -178.71503 -2.0193779
136.95316 -178.72281 -2.004452
133.0844 -178.50848 -1.994431
133.4008 -178.58801 -1.997072
133.76776 -178.51508 -1.993619
134.14862 -178.47424 -1.982536
135.35593 -178.46069 -1.977178
135.71155 -178.47577 -1.971413
138.95091 -178.58015 -1.941224
139.85037 -178.53134 -1.910971
125.41962 -178.59561 -2.083405
126.28897 -178.58183 -2.0735259
126.64415 -178.5145 -2.0683391
127.37807 -178.5488 -2.0764771
128.10175 -178.48499 -2.053165
130.99072 -178.576 -2.009655
137.40585 -178.58923 -2.009357
131.75732 -178.21706 -1.995268
132.94173 -178.25989 -1.986119
120.81279 -178.22795 -2.125823
123.7911 -178.22127 -2.084842
124.63859 -178.2065 -2.0898719
125.10092 -178.30785 -2.0795951
125.87341 -178.20139 -2.0681939
130.17673 -178.23676 -2.0210719
136.61678 -178.35262 -2.0158491
130.98804 -178.02684 -1.99705
131.39673 -178.14429 -1.984053
132.1098 -178.16399 -1.990044
133.88808 -178.16713 -1.996201
134.2937 -178.0787 -1.992061
134.57358 -178.14261 -1.98511
134.93822 -178.19507 -1.979692
135.43216 -178.19077 -1.995787
135.82243 -178.15771 -1.9951839
136.25032 -178.1508 -1.985927
136.57773 -178.13951 -1.981304
137.48483 -178.17067 -1.968519
120.66899 -178.14034 -2.16048
121.78629 -178.07565 -2.1424141
122.14099 -178.18149 -2.1387529
124.2451 -178.10426 -2.1024029
127.43764 -178.11133 -2.0637641
127.82024 -178.15532 -2.04597
128.18944 -178.14868 -2.0349951
139.94373 -178.07901 -2.891722
131.78807 -177.82083 -1.969045
132.24631 -177.88321 -1.9760309
133.0338 -177.81148 -1.968702
133.9249 -177.92488 -1.979225
134.1675 -177.83476 -1.980013
134.61078 -177.89554 -1.986485
135.01451 -177.88507 -1.987746
135.41197 -177.81865 -1.983083
120.20818 -177.91388 -2.1215341
120.81205 -177.91074 -2.120609
122.55276 -177.89139 -2.130676
122.80606 -177.8373 -2.0975549
124.18739 -177.82191 -2.0874989
125.00658 -177.82681 -2.0716679
130.21387 -177.93445 -2.0114241
130.59334 -177.83134 -2.0072751
138.74416 -177.92047 -3.5223351
139.9104 -177.9041 -8.5585537
139.76715 -177.80954 -8.9170628
139.76068 -177.86226 -9.7986727
138.76888 -177.99155 -10.812469
139.29749 -177.91608 -11.388468
129.40137 -177.72253 -1.996857
130.49422 -177.68549 -1.979959
131.06323 -177.76288 -1.987748
132.55646 -177.78598 -1.9709001
133.42348 -177.77544 -1.96653
134.94496 -177.71532 -1.981777
138.21362 -177.68286 -1.9329979
138.60855 -177.70976 -1.9215651
138.98207 -177.73593 -1.91083
139.40512 -177.78658 -1.897097
139.83838 -177.78555 -1.885554
120.72162 -177.75192 -2.1524899
121.52248 -177.75224 -2.146033
122.12923 -177.64015 -2.1215169
124.55055 -177.74115 -2.08114
125.40627 -177.79019 -2.072104
125.78459 -177.79218 -2.0616429
126.12777 -177.73424 -2.045954
127.48268 -177.77405 -2.0493691
128.48116 -177.70612 -2.0146921
132.87267 -177.78589 -2.0156319
134.58017 -177.43903 -1.957134
135.01086 -177.45319 -1.9661601
135.45041 -177.4494 -1.970588
136.16685 -177.4613 -1.959404
136.46895 -177.50616 -1.959856
137.34296 -177.44669 -1.9576809
137.70462 -177.42627 -1.949247
139.71265 -177.46712 -1.8854671
120.17017 -177.5486 -2.126435
122.6171 -177.47258 -2.104017
124.9447 -177.48235 -2.065377
125.39589 -177.5005 -2.0800231
125.91299 -177.43546 -2.0483401
126.53122 -177.45831 -2.048918
128.68671 -177.52844 -2.03739
129.08322 -177.4006 -2.0167739
135.62267 -177.49837 -2.0163081
139.79712 -177.51753 -9.3982773
129.77768 -177.28406 -1.976199
130.2558 -177.37999 -1.98324
131.03255 -177.36342 -1.9779609
131.41983 -177.3495 -1.9636821
132.61667 -177.35034 -1.942584
132.93478 -177.31509 -1.941484
133.3652 -177.36182 -1.943944
133.82242 -177.33958 -1.953841
134.0891 -177.33667 -1.959398
135.87248 -177.33762 -1.959656
136.22047 -177.25977 -1.959872
136.5882 -177.29182 -1.9479229
136.93405 -177.30525 -1.952479
138.20415 -177.30161 -1.939167
138.6416 -177.28848 -1.917189
139.01367 -177.31493 -1.910073
139.60901 -177.36082 -1.813477
120.88582 -177.35141 -2.1461639
121.67001 -177.33189 -2.124228
124.63356 -177.27057 -2.072886
125.14629 -177.39975 -2.050554
126.12352 -177.3407 -2.0330729
127.82357 -177.3791 -2.024807
129.49777 -177.05643 -1.977368
129.87473 -177.14047 -1.968861
134.99245 -177.07741 -1.949118
135.84996 -177.00635 -1.947646
136.64453 -177.09813 -1.952497
137.03693 -177.07341 -1.947086
137.46849 -177.13368 -1.94128
137.83401 -177.12506 -1.9395061
138.17883 -177.14514 -1.925917
138.50815 -177.09769 -1.9201289
120.11623 -177.15881 -2.1210499
122.09773 -177.04971 -2.1117079
122.49851 -177.05881 -2.095576
123.46793 -177.02293 -2.0621719
123.83664 -177.00623 -2.046437
126.49317 -177.06924 -2.026988
127.76811 -177.00899 -2.0056441
130.05916 -177.1414 -2.024739
127.3058 -176.99191 -1.995852
128.94044 -176.93707 -1.9727629
130.09109 -176.93956 -1.956404
130.69435 -176.98401 -1.958743
131.06683 -176.99866 -1.943653
131.37453 -176.97769 -1.94989
131.79346 -176.98831 -1.940094
134.59613 -176.87401 -1.9323471
135.11575 -176.86292 -1.938983
136.17564 -176.93695 -1.943599
138.92572 -176.93552 -1.9058321
139.35852 -176.86469 -1.880198
139.8125 -176.92044 -1.870855
120.89587 -176.99704 -2.135905
123.12207 -176.858 -2.102412
125.06861 -176.96742 -2.052953
128.1795 -176.97891 -2.0023961
125.81789 -176.6534 -1.9975131
127.64122 -176.69495 -1.975279
129.4519 -176.65012 -1.965978
129.78586 -176.64285 -1.962327
130.23486 -176.70267 -1.9452569
131.39546 -176.63838 -1.919223
131.81496 -176.69437 -1.933356
132.69768 -176.62971 -1.9210351
135.35989 -176.61981 -1.927596
135.74271 -176.61703 -1.93205
138.12927 -176.60336 -1.907444
138.55627 -176.63882 -1.920874
138.87057 -176.67221 -1.910462
139.7561 -176.64313 -1.858112
120.61043 -176.63708 -2.112262
121.84919 -176.7002 -2.1084361
122.23114 -176.67738 -2.0882549
123.53254 -176.65692 -2.0510139
123.92207 -176.65987 -2.034456
126.46598 -176.66447 -2.006537
126.22627 -176.49025 -1.9927469
126.55711 -176.54814 -1.984378
127.15573 -176.56865 -1.98142
128.08682 -176.54721 -1.972736
130.50616 -176.50246 -1.932974
131.0211 -176.57564 -1.937982
135.96452 -176.51382 -1.925745
136.11581 -176.57297 -1.930202
136.53284 -176.55986 -1.925853
136.92906 -176.55675 -1.9186471
137.73013 -176.5701 -1.91282
138.05118 -176.56897 -1.814019
139.35567 -176.57785 -1.8695379
120.97614 -176.53757 -2.1161981
121.57497 -176.59802 -2.0996089
123.05148 -176.5226 -2.1139131
125.4274 -176.57516 -2.034188
126.93391 -176.54315 -2.0029731
126.58015 -176.23412 -1.976966
127.08684 -176.20236 -1.9857889
128.59607 -176.25838 -1.9683501
128.93665 -176.28365 -1.944572
131.80862 -176.25206 -1.901383
132.53142 -176.26521 -1.908042
134.1678 -176.20129 -1.90379
134.99698 -176.23718 -1.909079
135.40953 -176.33871 -1.9228441
135.6803 -176.34435 -1.929494
135.8045 -176.30869 -1.925234
136.29721 -176.28049 -1.932022
136.64659 -176.28717 -1.926445
137.01871 -176.22675 -1.912477
137.40759 -176.22546 -1.9090281
137.82809 -176.32277 -1.873131
138.20071 -176.24974 -1.8960201
138.5912 -176.29123 -1.886215
139.03537 -176.30396 -1.87252
139.41916 -176.23676 -1.856766
139.79808 -176.26585 -1.846397
122.20705 -176.25372 -2.0690989
123.34788 -176.26297 -2.05176
124.86827 -176.29898 -2.0323999
125.7879 -176.16483 -1.985868
126.25929 -176.18939 -1.978179
127.46088 -176.16432 -1.95056
130.1497 -176.16606 -1.933368
130.92786 -176.11758 -1.9085031
131.41461 -176.09413 -1.91091
132.14716 -176.14301 -1.8900909
132.84006 -176.17514 -1.907461
133.32852 -176.13156 -1.903226
133.77824 -176.12749 -1.895679
134.57565 -176.13821 -1.9099211
120.76524 -176.19423 -2.0776291
121.53374 -176.16801 -2.09727
122.69909 -176.06354 -2.0793359
122.93384 -176.16846 -2.093081
125.79236 -176.15585 -2.032326
139.92105 -176.02104 -2.9023631
126.53772 -175.83936 -1.9732569
127.75926 -175.81894 -1.933708
129.48712 -175.89941 -1.92338
129.73172 -175.8223 -1.916087
130.24396 -175.823 -1.912151
130.66092 -175.82199 -1.910776
131.06897 -175.83398 -1.897797
133.70932 -175.83691 -1.890221
136.65155 -175.89246 -1.914831
137.46838 -175.83722 -1.900542
137.87299 -175.81944 -1.898026
138.27789 -175.84709 -1.888886
139.40349 -175.80695 -1.855267
121.23177 -175.804 -2.0985539
122.11989 -175.84183 -2.060704
123.45157 -175.88713 -2.030164
123.7948 -175.85405 -2.0109839
124.6521 -175.7142 -1.9895051
125.87589 -175.62309 -1.947696
126.95502 -175.73709 -1.9522049
127.38622 -175.73882 -1.971603
132.2029 -175.79237 -1.8815809
133.04053 -175.74959 -1.873708
133.43376 -175.67371 -1.88
136.83884 -175.6411 -1.946249
137.10707 -175.78394 -1.905816
138.60297 -175.73444 -1.8797359
139.00665 -175.74582 -1.865052
139.85376 -175.6983 -1.826197
120.76162 -175.79558 -2.0660009
127.00209 -175.43158 -1.931123
127.28551 -175.48022 -1.948817
127.81137 -175.45358 -1.902196
130.27327 -175.40784 -1.889001
131.13681 -175.44513 -1.875044
135.84888 -175.50214 -1.893995
136.18736 -175.56451 -1.898065
121.7589 -175.41264 -2.0463581
122.12759 -175.47627 -2.050818
123.79019 -175.40048 -2.009146
124.12484 -175.40758 -2.0172811
139.16185 -175.5368 -3.4256289
123.83569 -175.35571 -1.9842499
124.50171 -175.38771 -1.985779
124.90604 -175.38069 -1.971604
125.13728 -175.25104 -1.973901
125.73876 -175.3764 -1.958869
126.19824 -175.24371 -1.939024
126.26981 -175.31055 -1.957507
126.50941 -175.32748 -1.942977
127.92933 -175.28787 -1.910253
128.79597 -175.28981 -1.95346
129.31287 -175.3427 -1.905105
130.02167 -175.39713 -1.894848
131.52682 -175.3913 -1.847698
132.86125 -175.34113 -1.8639801
135.37485 -175.33978 -1.88386
121.373 -175.38651 -2.0675671
123.8718 -175.07816 -1.9623621
125.054 -175.1619 -1.970745
127.55256 -175.06383 -1.858639
129.36319 -175.1228 -1.8584729
129.5195 -175.13467 -1.846612
129.85501 -175.12024 -1.8859
130.172 -175.10918 -1.837587
130.28104 -175.116 -1.84457
131.10252 -175.12059 -1.8249201
132.42468 -175.11215 -1.80575
132.95802 -175.09528 -1.858868
134.6915 -175.12714 -1.858193
135.03284 -175.10272 -1.8697309
135.34273 -175.05977 -1.859261
121.35814 -175.08325 -2.0537961
121.79713 -175.09033 -2.0421021
122.68044 -175.03632 -2.0236261
124.03283 -175.17036 -2.0071919
124.92649 -175.10617 -2.0141909
123.49554 -174.8815 -1.947302
127.86924 -174.88101 -1.847152
130.64859 -174.84352 -1.833262
131.09177 -174.91167 -1.813886
133.8501 -174.84686 -1.845219
134.10052 -174.8652 -1.852983
136.90674 -174.8241 -1.876255
137.35529 -174.8721 -1.880604
137.80215 -174.88837 -1.872087
138.07501 -174.90582 -1.863802
138.48523 -174.94891 -1.853107
138.89792 -174.99088 -1.836612
132.70428 -174.68791 -1.772331
139.87708 -174.70963 -1.771737
126.04078 -174.79532 -1.88283
127.50417 -174.64816 -1.86484
127.85187 -174.63635 -1.834745
139.51672 -174.63165 -1.812482
139.89713 -174.68892 -1.80295
121.4173 -174.7804 -2.0460711
131.03645 -174.4798 -1.782177
131.50299 -174.52463 -1.780305
121.94748 -174.4543 -1.91432
124.59926 -174.586 -1.881755
126.17244 -174.58896 -1.87949
126.52121 -174.53976 -1.8738869
128.12158 -174.54626 -1.82428
133.82083 -174.56514 -1.827631
135.05136 -174.48245 -1.844942
135.48315 -174.52632 -1.859138
135.91669 -174.51859 -1.863384
136.28958 -174.55003 -1.8692
136.62202 -174.5132 -1.865945
137.02396 -174.4884 -1.868382
137.51598 -174.48856 -1.852577
137.92273 -174.50461 -1.84729
138.32541 -174.52432 -1.840771
138.68243 -174.57466 -1.837255
139.05333 -174.58774 -1.825682
139.76466 -174.4409 -2.422991
138.52206 -174.59634 -3.4154911
131.52451 -174.24405 -1.7871881
131.86337 -174.22653 -1.742291
139.27463 -174.39378 -1.769856
128.25569 -174.28714 -1.839783
134.29623 -174.34317 -1.814835
134.65353 -174.30394 -1.834628
135.01286 -174.28882 -1.836045
136.21661 -174.29065 -1.87597
136.55658 -174.27841 -1.863557
136.97395 -174.27931 -1.860875
138.98114 -174.26668 -1.826239
139.38277 -174.22137 -1.813861
129.31009 -174.13693 -1.773752
131.11548 -174.0535 -1.76938
131.34091 -174.13274 -1.773084
131.5262 -174.05849 -1.776494
132.58965 -174.17053 -1.723834
133.87712 -174.08633 -1.74786
120.51524 -174.07072 -1.938987
124.63683 -174.19688 -1.868198
124.93311 -174.01274 -1.8569109
125.80551 -174.15573 -1.918063
126.31613 -174.07635 -1.898959
126.51643 -174.02969 -1.927789
126.72273 -174.10806 -1.868032
127.08138 -174.03439 -1.9699399
127.35056 -174.09857 -1.926963
127.59877 -174.06604 -1.987963
127.68353 -174.04416 -1.896969
127.93053 -174.03351 -1.91359
135.34062 -174.08594 -1.8466049
135.74933 -174.17926 -1.864397
137.37766 -174.13242 -1.8488131
137.77194 -174.19675 -1.844758
138.13535 -174.1087 -1.8406889
138.58664 -174.18861 -1.8333319
139.89534 -174.12776 -1.8614039
128.56996 -173.85985 -1.770479
130.30127 -173.89273 -1.750259
131.49231 -173.97772 -1.747992
132.19698 -173.95592 -1.721313
132.25946 -173.80367 -1.709182
132.91241 -173.86346 -1.769855
133.67758 -173.8302 -1.730263
123.10299 -173.84276 -1.8345439
123.86113 -173.86266 -1.862597
124.65608 -173.83662 -1.9347219
124.86686 -173.91095 -1.962275
125.08466 -173.95125 -1.876669
125.53049 -173.97821 -1.91742
125.77429 -173.87869 -1.942346
126.16107 -173.83664 -1.952992
126.6703 -173.985 -1.930403
127.00769 -173.85796 -1.992929
127.35431 -173.90598 -1.987929
127.90623 -173.93323 -1.90819
134.46771 -173.91776 -1.808081
134.70343 -173.82947 -1.813423
128.40521 -173.62805 -1.784687
131.31804 -173.75304 -1.712577
131.87509 -173.77252 -1.719843
132.29169 -173.7706 -1.717587
132.51315 -173.7576 -1.697168
134.18735 -173.69397 -1.762643
134.5054 -173.69997 -1.749511
120.46683 -173.75641 -1.9060071
123.45153 -173.74834 -1.82758
124.14807 -173.77689 -1.852337
124.34563 -173.73068 -1.910495
124.93208 -173.62633 -1.999149
126.137 -173.6974 -1.975265
127.21172 -173.76392 -1.9922889
128.10924 -173.65503 -1.865154
134.95009 -173.73528 -1.8197761
136.57077 -173.77789 -1.853466
137.79298 -173.79636 -1.84396
139.04846 -173.75862 -1.8172719
125.0885 -173.66696 -2.0207729
125.44852 -173.6647 -2.0574601
125.80949 -173.64813 -2.0423369
126.13492 -173.67865 -2.115361
126.29536 -173.69368 -2.1401899
126.51466 -173.69577 -2.1454949
126.68358 -173.70927 -2.099545
127.11549 -173.71889 -2.0807979
127.4706 -173.76395 -2.031394
127.67364 -173.69608 -2.056257
139.93533 -173.69054 -9.9168282
128.54288 -173.45221 -1.757116
128.98064 -173.43579 -1.7363009
131.05946 -173.46776 -1.688531
131.86722 -173.4657 -1.7088701
132.28142 -173.49786 -1.697404
132.42278 -173.51073 -1.675687
132.61185 -173.42908 -1.675837
133.47237 -173.40401 -1.707372
120.43057 -173.54446 -1.857971
123.35403 -173.48969 -1.835887
123.79613 -173.43407 -1.839149
127.69467 -173.54535 -1.99546
127.9869 -173.5489 -1.874761
128.09354 -173.57245 -1.925046
128.51611 -173.52026 -1.880138
137.45422 -173.51212 -1.824231
126.27252 -173.40358 -2.1588609
126.64431 -173.44423 -2.1502831
127.07646 -173.45183 -2.1461639
127.82558 -173.55203 -2.115205
128.13364 -173.53741 -2.0629859
128.49387 -173.48178 -2.073247
127.46403 -173.50772 -2.2300229
128.52115 -173.53882 -2.2661841
127.52475 -173.52164 -2.5055709
127.77252 -173.5246 -2.4845021
128.22804 -173.52605 -2.466902
128.53131 -173.51579 -2.480051
127.49286 -173.52675 -2.7864239
128.38338 -173.53848 -2.759665
128.52275 -173.55215 -2.643929
127.52986 -173.50183 -2.875186
127.73943 -173.49359 -2.906863
128.17853 -173.50909 -2.9012101
128.50575 -173.46288 -2.883574
127.46975 -173.51047 -3.175951
128.52826 -173.53177 -3.15412
127.51831 -173.47977 -3.2547331
127.7683 -173.41673 -3.259793
128.10074 -173.42621 -3.2660501
128.22066 -173.4864 -3.2621529
128.47696 -173.48581 -3.2342069
130.50919 -173.34428 -1.719342
131.37836 -173.24196 -1.679728
132.40317 -173.24527 -1.6719151
133.02255 -173.36108 -1.684418
121.08411 -173.3188 -1.845214
135.69441 -173.37076 -1.813242
138.61423 -173.39255 -1.8044471
124.36392 -173.20454 -2.1866679
127.30457 -173.3739 -2.1105609
124.76837 -173.22702 -2.2066259
124.90846 -173.27029 -2.265233
125.04382 -173.30881 -2.2544761
125.33952 -173.32616 -2.26491
125.76888 -173.36311 -2.277822
126.20361 -173.37106 -2.2748051
128.49295 -173.38492 -2.477587
129.01274 -173.07677 -1.722046
132.61894 -173.02139 -1.671154
122.96111 -173.00937 -1.804283
136.87448 -173.14307 -1.831847
124.17863 -173.17574 -2.1614611
124.54994 -173.05542 -2.207984
124.70445 -173.17465 -2.284327
124.81215 -173.18816 -2.305922
125.09607 -173.03529 -2.3135221
125.37122 -173.01494 -2.3546381
125.46371 -173.10823 -2.3149819
125.77085 -173.05385 -2.340966
126.16794 -173.09621 -2.2899351
126.30006 -173.14093 -2.3328991
126.41574 -173.07805 -2.3080831
126.65562 -173.07819 -2.335402
127.03658 -173.09018 -2.3439131
125.54616 -173.04857 -2.4296241
125.67358 -173.05672 -2.4393849
125.87599 -173.04549 -2.4190929
126.46474 -173.04675 -2.4251881
127.07983 -173.12251 -2.407269
127.20632 -173.18539 -2.4193771
130.78731 -173.01289 -2.9549589
127.62263 -173.03465 -3.2589941
128.45123 -173.15376 -3.2598021
129.38535 -172.95686 -1.7150871
129.80841 -172.96339 -1.717666
132.22864 -172.96233 -1.672033
132.91685 -172.95459 -1.671957
128.52771 -172.92307 -1.915946
124.2993 -172.97739 -2.1558399
128.52975 -172.98138 -2.092989
124.44601 -172.94601 -2.292861
124.78156 -172.84494 -2.325649
124.88071 -172.95233 -2.320308
125.13941 -172.99136 -2.3214009
126.12164 -172.99136 -2.430685
126.50838 -172.94992 -2.421495
128.54721 -172.95026 -2.448437
128.567 -172.88297 -2.779372
129.92883 -172.95847 -2.77829
130.07941 -172.96582 -2.7613029
130.27223 -172.96001 -2.7721429
130.56631 -172.97058 -2.7949259
130.82204 -172.92587 -2.7798531
128.62471 -172.98447 -2.8874991
129.04776 -172.90387 -2.8890791
129.40874 -172.91692 -2.8838379
129.82355 -172.93408 -2.8989949
130.18198 -172.94968 -2.911437
130.58597 -172.94073 -2.920022
130.78722 -172.96634 -2.8853819
130.81136 -172.9303 -2.961164
128.56573 -172.91464 -3.183784
130.72456 -172.96371 -3.1277361
130.81178 -172.97589 -3.0350659
127.67188 -172.89163 -3.249125
127.86519 -172.88309 -3.2405519
128.05362 -172.91951 -3.2474251
128.54575 -172.96228 -3.224751
129.0433 -172.89062 -3.219111
129.3076 -172.89998 -3.2214029
129.50722 -172.88489 -3.21806
129.80801 -172.90747 -3.2165949
130.15021 -172.9017 -3.2258151
127.51025 -172.81705 -5.3590832
127.48328 -172.85095 -5.5237942
127.61214 -172.84698 -5.5945539
125.65782 -172.80914 -5.7559772
127.02599 -172.8551 -5.744278
127.51651 -172.87941 -5.7474298
127.61185 -172.90103 -5.7151942
124.96338 -172.80162 -5.8688111
125.29239 -172.81393 -5.830863
125.65789 -172.82788 -5.8675232
126.17538 -172.83386 -5.8601432
126.61231 -172.86888 -5.8695531
127.02063 -172.86783 -5.813056
129.41684 -172.65176 -1.73763
129.6868 -172.70193 -1.724695
131.46692 -172.69519 -1.709355
137.90846 -172.6169 -1.790163
138.21979 -172.64143 -1.794325
138.59958 -172.70035 -1.796661
139.01471 -172.75272 -1.775007
139.36375 -172.64836 -1.77637
139.77597 -172.64519 -1.760618
120.01154 -172.78876 -1.826247
120.25105 -172.6828 -1.847814
120.92211 -172.62321 -1.807977
124.37109 -172.76196 -2.2948511
124.50897 -172.64447 -2.2981751
125.78936 -172.77785 -2.4300771
126.18005 -172.77637 -2.4278879
130.81978 -172.63611 -2.909869
129.517 -172.76595 -3.1494679
127.67603 -172.63586 -3.2373929
129.27161 -172.76541 -3.2641389
129.77649 -172.68341 -3.2338049
130.19336 -172.73647 -3.2263131
130.21782 -172.62939 -3.217263
130.75487 -172.76956 -3.212224
127.48945 -172.60522 -4.492835
127.52631 -172.63382 -4.6737609
127.47819 -172.69009 -4.9416771
127.50973 -172.72397 -5.0938029
127.5189 -172.78189 -5.3175511
127.53206 -172.78156 -5.4220538
124.37029 -172.75281 -5.7703929
124.85528 -172.77647 -5.7766628
124.03626 -172.65811 -5.8996539
124.30818 -172.71909 -5.8241191
124.53514 -172.74622 -5.849576
124.66562 -172.78436 -5.8991041
124.90341 -172.74631 -5.8925219
125.0831 -172.78664 -5.893065
125.42225 -172.78642 -5.9056492
130.06776 -172.54044 -1.787395
130.53632 -172.49867 -1.7274261
131.1283 -172.54974 -1.727609
131.84383 -172.57947 -1.7010469
133.85901 -172.55101 -1.675639
134.25185 -172.51823 -1.683154
134.66219 -172.53778 -1.6997091
136.67902 -172.54932 -1.787739
120.56604 -172.51117 -1.8523279
128.55266 -172.57892 -1.899326
128.55127 -172.54008 -2.2728779
128.56232 -172.59473 -2.491992
125.32291 -172.42032 -2.6890769
125.88857 -172.46286 -2.654305
126.20986 -172.48376 -2.6677639
126.62331 -172.53566 -2.6466789
130.83069 -172.54837 -2.7709191
129.01927 -172.50696 -3.2142711
129.32854 -172.53104 -3.234103
127.48386 -172.44077 -3.9475429
127.63251 -172.40239 -3.9633241
127.5349 -172.4743 -4.1453838
127.46774 -172.54578 -4.3554668
127.61137 -172.49689 -4.2735128
127.60834 -172.4911 -4.6086898
127.62048 -172.51773 -4.9947019
127.62386 -172.53329 -5.4229841
126.34916 -172.54214 -5.7477851
127.62614 -172.53587 -5.8032408
130.14598 -172.30289 -1.751134
130.55882 -172.2957 -1.793131
130.93077 -172.26913 -1.748423
131.13776 -172.25484 -1.731456
131.36197 -172.31665 -1.713976
131.50433 -172.24832 -1.749366
132.22784 -172.28227 -1.685214
136.20674 -172.25636 -1.77118
136.56406 -172.28804 -1.775853
136.90967 -172.21411 -1.771566
137.28757 -172.23706 -1.768415
137.65588 -172.21756 -1.780501
120.58888 -172.22975 -1.846349
128.54604 -172.22102 -1.9509079
128.64293 -172.24983 -1.903374
130.20023 -172.2139 -1.863927
131.58673 -172.24432 -1.895385
131.61346 -172.27316 -1.875614
129.32239 -172.20412 -2.0426321
129.76472 -172.23361 -2.0506179
130.25732 -172.22354 -2.034399
130.45004 -172.23804 -2.094033
130.61967 -172.21622 -2.0608189
131.04721 -172.24413 -2.044163
131.52438 -172.24843 -2.1072149
128.65991 -172.21646 -2.242377
130.49623 -172.22266 -2.316685
131.02396 -172.25414 -2.3932359
131.5788 -172.23965 -2.2870469
131.61038 -172.2558 -2.238106
124.42838 -172.23944 -2.582149
128.63129 -172.23863 -2.4624159
130.49146 -172.23514 -2.4883699
130.68796 -172.21927 -2.4744191
130.96811 -172.24982 -2.586431
131.3868 -172.21376 -2.4836609
131.58398 -172.26309 -2.517509
124.52042 -172.23822 -2.6324821
124.89807 -172.27213 -2.6886621
125.06105 -172.27705 -2.660254
125.30786 -172.36443 -2.693985
125.48551 -172.29057 -2.7292969
130.86159 -172.21889 -2.766423
131.59375 -172.2529 -2.6951039
124.43735 -172.22737 -2.978375
130.91219 -172.24805 -2.9115269
131.58365 -172.25949 -2.8942659
124.4377 -172.22574 -3.0905609
124.61477 -172.22649 -3.0985391
124.86555 -172.25565 -3.1090939
125.1065 -172.23169 -3.1053369
125.36889 -172.21062 -3.1233151
125.44638 -172.23453 -3.1285479
128.90305 -172.25238 -3.197082
129.24951 -172.34511 -3.1949761
129.77481 -172.34682 -3.1924059
130.17383 -172.28697 -3.1984379
130.84695 -172.21783 -3.022012
131.59091 -172.24445 -3.034723
131.60954 -172.2131 -3.042855
127.51125 -172.25485 -3.3359699
130.43027 -172.3484 -3.206852
131.5799 -172.25078 -3.2942829
138.88483 -172.25572 -3.3567541
124.46902 -172.21411 -3.4905331
124.91585 -172.23648 -3.5357239
125.14302 -172.2023 -3.551928
125.32487 -172.22675 -3.5003929
125.44571 -172.22818 -3.5249231
127.52 -172.29312 -3.511765
131.58456 -172.22327 -3.569802
124.48632 -172.211 -3.74843
125.44705 -172.21307 -3.6339109
127.5432 -172.31483 -3.691474
131.58936 -172.22694 -3.716404
131.60956 -172.20889 -3.703114
124.91417 -172.21835 -3.8771491
125.3999 -172.2184 -3.929044
124.40938 -172.20976 -4.056376
124.87402 -172.21147 -4.1004028
125.48224 -172.22234 -4.1405792
127.58912 -172.38715 -4.0621219
131.61304 -172.21881 -4.0805621
125.4603 -172.23126 -4.3573251
128.85431 -172.22498 -4.3420901
130.52933 -172.28574 -4.3517509
131.5703 -172.21683 -4.2645092
131.62247 -172.20731 -4.2646761
125.46429 -172.22726 -4.5169191
128.86874 -172.22682 -4.513607
130.50671 -172.28122 -4.5198979
124.87181 -172.2052 -4.6132579
125.4771 -172.20996 -4.7087922
128.88882 -172.22183 -4.7089062
130.4744 -172.27585 -4.7076912
131.64433 -172.2005 -4.7063742
125.47617 -172.21021 -4.8783388
128.88969 -172.22379 -4.8680339
130.4985 -172.26215 -4.9236679
125.46555 -172.2068 -5.0652809
128.87401 -172.2081 -5.1062188
130.46628 -172.25797 -5.0866151
125.45492 -172.20718 -5.3232269
128.88057 -172.20082 -5.3918009
130.44254 -172.23022 -5.3225861
130.45227 -172.24857 -5.4970722
123.81394 -172.2222 -5.7678552
124.62897 -172.20697 -5.7172308
126.1489 -172.32953 -5.744803
126.26492 -172.34111 -5.6444149
126.68813 -172.36702 -5.6290731
130.51685 -172.25113 -5.6582189
128.58975 -172.1705 -1.790786
128.60388 -172.1416 -1.775581
131.66696 -172.09448 -1.7963181
132.62445 -172.10576 -1.6696121
133.32013 -172.07645 -1.663891
133.71799 -172.12027 -1.6781991
134.93697 -172.06592 -1.704859
135.76175 -172.13837 -1.767926
138.19263 -172.16547 -1.779809
121.05591 -172.1637 -1.862427
128.55585 -172.17638 -1.912297
128.94806 -172.17674 -1.8160371
129.09006 -172.16495 -1.911881
129.49881 -172.17453 -1.836244
129.78969 -172.18486 -1.933557
128.57767 -172.13832 -2.090467
129.12341 -172.13983 -2.1276541
129.31332 -172.16537 -2.1383669
129.57495 -172.17725 -2.1165049
131.59212 -172.17094 -2.0500779
131.60718 -172.16391 -2.1759419
123.64957 -172.00635 -2.2266109
128.57877 -172.14542 -2.3184481
128.6035 -172.13533 -2.2992389
129.06139 -172.12148 -2.292912
130.51796 -172.18643 -2.379324
123.8893 -172.0097 -2.574482
128.58105 -172.15967 -2.456233
129.07364 -172.16609 -2.471365
130.50446 -172.18546 -2.495209
131.59731 -172.19415 -2.4671299
124.24936 -172.09521 -2.633703
131.53471 -172.19571 -2.911453
124.43448 -172.18672 -3.1081989
130.78084 -172.1667 -3.1497121
125.46902 -172.19812 -3.3911619
127.68347 -172.14531 -3.2836139
128.14099 -172.13351 -3.2921391
128.73187 -172.11539 -3.254926
129.03825 -172.14273 -3.2540121
129.4256 -172.12741 -3.3064871
129.72745 -172.14499 -3.256701
130.07843 -172.15433 -3.308867
130.22275 -172.16722 -3.2202671
130.57414 -172.17 -3.291296
131.02086 -172.18973 -3.328974
131.52945 -172.1642 -3.326232
131.61746 -172.15733 -3.293519
122.92422 -172.00964 -3.501689
123.46133 -172.01968 -3.546946
123.79124 -172.02931 -3.5516219
124.18456 -172.07402 -3.547374
124.21945 -172.01953 -3.5558741
124.62917 -172.19337 -3.5635209
127.59837 -172.19699 -3.5377049
131.62064 -172.15526 -3.5213931
124.4357 -172.17926 -3.7187181
125.44681 -172.17996 -3.7515049
127.72596 -172.05782 -3.6656449
128.21616 -172.06116 -3.7049971
128.64326 -172.07797 -3.7024939
129.05255 -172.09714 -3.707412
129.35355 -172.13477 -3.7157259
129.78491 -172.11455 -3.69473
130.2038 -172.13957 -3.730598
130.60248 -172.15285 -3.709307
131.00598 -172.16223 -3.704272
131.54059 -172.13672 -3.708163
131.61377 -172.13564 -3.6914001
124.36685 -172.11635 -3.9905331
124.44741 -172.18332 -3.9471519
124.62659 -172.194 -3.9480989
125.07068 -172.18869 -3.935816
125.46819 -172.1566 -3.9961851
131.61971 -172.11327 -3.9264801
124.36926 -172.12434 -4.130044
124.45309 -172.1691 -4.071506
124.61151 -172.18231 -4.1334901
125.08482 -172.19821 -4.126688
125.39626 -172.17413 -4.1149049
127.69082 -172.08902 -4.107708
128.26312 -172.05444 -4.1346321
128.67627 -172.07481 -4.1375279
128.952 -172.14478 -4.099432
129.28558 -172.11551 -4.138535
129.69592 -172.13568 -4.1513371
130.18053 -172.14001 -4.1426158
130.60963 -172.1452 -4.1257911
131.0549 -172.16696 -4.1361542
131.5607 -172.15573 -4.1033802
131.62219 -172.15884 -4.0875702
124.39854 -172.18068 -4.2075052
124.42651 -172.18405 -4.3645368
127.63521 -172.06445 -4.3449368
128.55357 -172.06412 -4.3466401
128.87599 -172.15875 -4.3187289
129.03717 -172.18776 -4.3033142
131.59734 -172.19637 -4.294507
131.61517 -172.13417 -4.2917228
124.18887 -172.02321 -4.4622779
124.44453 -172.16058 -4.5256138
124.64622 -172.17059 -4.5458322
125.11926 -172.18637 -4.546175
125.3455 -172.16536 -4.5411801
125.4836 -172.17929 -4.4996848
127.70964 -172.05405 -4.5391502
128.24896 -172.05078 -4.5780869
128.48236 -172.06137 -4.5401201
128.6599 -172.09181 -4.5127211
129.26891 -172.12337 -4.5295072
129.43683 -172.14572 -4.5295038
129.78357 -172.13239 -4.5652218
129.97664 -172.15413 -4.5328169
130.12289 -172.07419 -4.59832
130.57858 -172.17612 -4.5105262
131.06587 -172.16647 -4.5546541
131.52335 -172.12564 -4.5346131
131.62158 -172.12492 -4.502357
124.46998 -172.17403 -4.7579069
125.47018 -172.19444 -4.7629199
127.63261 -172.05008 -4.7362232
128.56284 -172.0412 -4.7082939
128.88431 -172.1712 -4.6669269
129.27866 -172.12662 -4.7280369
129.52885 -172.1221 -4.7407742
129.71321 -172.02826 -4.6990342
130.57727 -172.14006 -4.7569618
130.62433 -172.12537 -4.6785688
131.59546 -172.16539 -4.690526
131.62482 -172.16934 -4.6906481
124.32918 -172.07779 -4.9119902
124.47704 -172.17493 -4.9235721
124.90343 -172.1942 -4.9652948
125.08772 -172.1636 -4.9695692
125.37642 -172.15152 -4.980845
125.4814 -172.18045 -4.9095998
127.69247 -172.04877 -4.9731121
128.17439 -172.02666 -4.99651
128.5455 -172.04405 -4.9107132
128.8853 -172.17221 -4.9666762
129.30307 -172.10326 -4.93431
129.41232 -172.09821 -4.981276
129.73285 -172.07648 -4.9593878
129.92912 -172.01894 -4.9758859
130.07516 -172.05585 -4.9853091
130.55806 -172.18933 -4.961585
130.62271 -172.11366 -4.9012151
130.91826 -172.14139 -4.9550219
131.4886 -172.13811 -4.9423642
131.61392 -172.16095 -4.9268961
124.4921 -172.14737 -5.0946889
124.63097 -172.14943 -5.0035672
125.46756 -172.17874 -5.0708499
127.62706 -172.04216 -5.1320291
128.56277 -172.06195 -5.0697608
128.91405 -172.17307 -5.1249371
129.26178 -172.09512 -5.1176772
129.53595 -172.13766 -5.0241561
129.99806 -172.14075 -5.0641332
130.64169 -172.13945 -5.0667849
131.62222 -172.15828 -5.0888309
124.44786 -172.13766 -5.2933278
125.46834 -172.17661 -5.25878
127.6444 -172.02271 -5.3329558
128.54808 -172.04752 -5.3222752
128.90314 -172.18463 -5.3273392
129.33388 -172.06519 -5.284308
129.5231 -172.11072 -5.2590489
129.78632 -172.07335 -5.268908
129.92805 -172.10562 -5.2685761
130.56378 -172.14301 -5.3057451
130.64374 -172.14174 -5.3360448
130.98849 -172.14807 -5.3440061
131.39272 -172.12946 -5.3512712
131.62326 -172.11589 -5.2858758
124.47537 -172.12791 -5.5107298
124.6703 -172.13596 -5.4544392
124.89114 -172.1655 -5.487464
125.12254 -172.15143 -5.4131742
125.2752 -172.159 -5.588634
125.46278 -172.11331 -5.4638858
127.66503 -172.07349 -5.458961
128.14832 -172.03467 -5.4220691
128.51216 -172.03348 -5.4896951
128.89523 -172.13637 -5.4374509
130.51605 -172.16762 -5.459404
130.63121 -172.10107 -5.5260248
131.56296 -172.16887 -5.447134
131.64102 -172.11658 -5.4866219
123.75632 -172.18777 -5.7632742
124.30098 -172.16745 -5.7532158
124.47105 -172.13171 -5.641439
124.76531 -172.17903 -5.759367
124.8736 -172.17854 -5.7533331
125.04781 -172.17105 -5.7142291
125.32327 -172.16705 -5.7405238
125.46114 -172.16859 -5.6962199
125.69201 -172.02151 -5.698966
126.8177 -172.06635 -5.6374469
127.63992 -172.02792 -5.7023282
128.36823 -172.03381 -5.7477689
128.5226 -172.00568 -5.6903481
128.70737 -172.10837 -5.7471871
128.89371 -172.15787 -5.7458348
129.88641 -172.17575 -5.7281861
130.25851 -172.11133 -5.724812
130.54817 -172.19482 -5.7885828
130.61777 -172.1235 -5.7021461
131.02774 -172.11426 -5.7569919
131.46527 -172.132 -5.729569
131.64339 -172.09491 -5.7380729
127.66536 -172.05069 -5.842104
128.18805 -172.02348 -5.8284969
128.64655 -172.05365 -5.817976
128.89804 -172.17209 -5.854207
129.38121 -172.14519 -5.8160739
131.64299 -172.12903 -5.8618121
127.79404 -172.00485 -6.111732
128.16603 -172.01379 -6.1675248
128.95078 -172.04803 -6.1902242
130.23016 -172.07367 -6.1931319
130.63448 -172.09021 -6.1822491
131.02876 -172.09904 -6.1802711
131.4971 -172.09064 -6.1388888
131.63583 -172.10907 -6.1213942
128.58739 -172.0318 -6.2372322
129.3251 -172.03452 -6.2384262
129.79808 -172.04787 -6.2279859
131.65742 -172.09401 -6.2631879
128.20789 -172.0099 -6.520009
128.98663 -172.0354 -6.5992179
130.20544 -172.0831 -6.5615911
131.03656 -172.09724 -6.5752158
131.47864 -172.08545 -6.5790248
131.63205 -172.12714 -6.4958129
128.58746 -172.01828 -6.6178722
129.4202 -172.02908 -6.646729
129.88168 -172.04721 -6.622056
130.59554 -172.0697 -6.616148
131.633 -172.0965 -6.6794658
128.32553 -172.00497 -6.8593659
128.63983 -172.01114 -6.915452
131.08292 -172.08151 -6.9807668
131.48241 -172.09578 -6.961813
131.6347 -172.12354 -6.848628
128.98318 -172.01364 -7.0379839
129.37407 -172.02933 -7.0143142
129.86743 -172.02884 -7.0460591
130.23846 -172.04071 -7.036386
130.63605 -172.06003 -7.0094352
131.69035 -172.02419 -7.0366659
130.23404 -172.05634 -7.3931088
131.04663 -172.05368 -7.3993082
131.45648 -172.07135 -7.3712811
131.66246 -172.09006 -7.2607412
129.38907 -172.01454 -7.4676452
129.81972 -172.03592 -7.428967
130.6275 -172.02557 -7.460278
131.69031 -172.02937 -7.4610071
126.16769 -172.00931 -7.6667328
127.08546 -172.04964 -7.771791
127.47513 -172.02396 -7.7176108
127.67078 -172.0421 -7.7029572
129.77275 -172.02759 -7.7816119
130.16525 -172.0455 -7.7467918
131.42517 -172.07355 -7.7750611
131.67172 -172.11725 -7.6255798
127.59437 -172.06946 -7.9717631
129.29073 -172.00244 -7.8268418
130.67752 -172.04041 -7.8311939
131.02969 -172.05827 -7.8035378
131.69052 -172.03552 -7.8918281
127.61595 -172.01601 -8.1978731
131.70218 -171.84164 -1.6947221
132.54901 -171.87956 -1.664965
132.70401 -171.96944 -1.647514
132.92891 -171.81723 -1.6512181
133.32382 -171.8959 -1.656539
135.10831 -171.85739 -1.7337101
136.2133 -171.83612 -1.685815
137.44559 -171.80463 -1.736506
138.59938 -171.83426 -1.764928
138.97653 -171.80493 -1.763168
139.38007 -171.81183 -1.750374
139.81361 -171.84628 -1.7318341
120.1129 -171.86099 -1.856925
120.53548 -171.86023 -1.874944
121.37247 -171.88693 -1.926998
121.70221 -171.88858 -1.9289581
122.15838 -171.89531 -1.946314
122.63772 -171.92584 -1.969919
122.88405 -171.95239 -1.982468
121.81798 -171.87999 -2.042295
122.24597 -171.89554 -2.0606561
122.48346 -171.91779 -2.0606489
122.99668 -171.9295 -2.0459039
123.39374 -171.97908 -2.1165409
131.59471 -171.85312 -2.09532
120.2715 -171.80367 -2.3536799
120.65381 -171.81705 -2.358187
120.93267 -171.84979 -2.268697
121.37119 -171.86853 -2.24157
129.16675 -171.83566 -2.3425541
120.60658 -171.81757 -2.4473269
121.04404 -171.82687 -2.4381399
121.41879 -171.84097 -2.454073
121.87057 -171.85936 -2.463125
122.20498 -171.88821 -2.493819
122.51643 -171.88443 -2.5037391
122.94577 -171.89412 -2.522167
123.42674 -171.91953 -2.5530989
123.82965 -171.936 -2.5758829
124.05145 -171.9472 -2.5747099
129.18063 -171.85757 -2.456234
131.59874 -171.87067 -2.479027
121.04334 -171.80969 -2.94257
121.35744 -171.83653 -2.9481909
121.68549 -171.83289 -2.9686041
122.19623 -171.84764 -2.991349
122.54932 -171.8804 -3.0005291
122.93622 -171.87248 -3.0227351
123.44641 -171.90021 -3.042696
123.86279 -171.92017 -3.055455
124.04884 -171.95239 -3.0671501
123.82689 -171.92456 -3.3974609
120.56577 -171.8053 -3.438395
121.4161 -171.83951 -3.4769011
121.84305 -171.87003 -3.4893579
122.11874 -171.93417 -3.480336
122.53981 -171.9491 -3.517688
122.98011 -171.95636 -3.5046699
123.42843 -171.91862 -3.446701
120.74 -171.90982 -3.635412
121.14316 -171.9328 -3.656343
122.34737 -171.83495 -3.702744
122.75171 -171.86742 -3.6488531
122.33818 -171.84018 -3.912878
122.58482 -171.83836 -3.930865
123.00858 -171.86552 -3.9238861
123.39737 -171.87793 -3.932333
123.84293 -171.89812 -3.938653
124.06361 -171.92316 -3.9290359
125.48467 -171.8105 -3.952765
122.35361 -171.80492 -4.0973129
122.47314 -171.83942 -4.140574
122.92464 -171.8385 -4.10041
123.43686 -171.86493 -4.1277971
123.8315 -171.88217 -4.131948
124.11017 -171.89633 -4.088623
125.48193 -171.92371 -4.0980492
122.35556 -171.83588 -4.3111429
122.37354 -171.82806 -4.4466171
122.53928 -171.81067 -4.5469322
122.96136 -171.82658 -4.549737
123.40971 -171.84671 -4.5554199
123.80011 -171.86288 -4.549973
124.11697 -171.89258 -4.5504441
125.49638 -171.86316 -4.5464849
129.00241 -171.84453 -4.5541062
124.04144 -171.88449 -4.7998281
127.84644 -171.99281 -4.795423
129.59341 -171.99977 -4.7899122
123.36643 -171.85693 -4.9499002
124.07896 -171.88025 -4.9918289
125.50415 -171.8338 -4.9908652
127.64268 -171.99153 -4.800056
128.9393 -171.83026 -4.9845538
130.0797 -171.90765 -4.919888
122.39536 -171.81505 -5.1100402
122.65855 -171.8132 -5.0198941
123.04227 -171.82104 -5.0154328
123.73374 -171.855 -5.0102568
124.02204 -171.86549 -5.1936622
127.88742 -171.98309 -5.140296
128.32266 -171.99123 -5.17839
122.39343 -171.80273 -5.3042102
123.46858 -171.81451 -5.498075
123.88242 -171.83293 -5.4822469
124.13029 -171.83159 -5.553699
124.20786 -171.92471 -5.4578109
125.49928 -171.85242 -5.4232588
127.66949 -171.97198 -5.4398379
127.92118 -171.9747 -5.4719939
128.3429 -171.98518 -5.499763
128.56039 -171.99716 -5.4238768
128.94888 -171.8246 -5.4262362
122.62354 -171.80779 -5.684391
123.32787 -171.92172 -5.795053
123.76799 -171.84309 -5.67907
124.02973 -171.85324 -5.6411099
125.50305 -171.90427 -5.6822882
125.69254 -171.83591 -5.70964
126.52536 -171.98643 -5.6335912
128.97475 -171.93378 -5.6869569
129.04993 -171.92574 -5.725441
121.81779 -171.84677 -5.9001031
122.99671 -171.91225 -5.8137169
127.19569 -171.95555 -5.9969349
127.60666 -171.95927 -5.9016428
127.91368 -171.96552 -5.9157319
128.25288 -171.97528 -5.8947129
128.70685 -171.99182 -5.913815
125.09389 -171.87187 -6.1762748
126.97839 -171.95297 -6.174799
123.82886 -171.8156 -6.253511
124.24771 -171.82974 -6.22191
124.62582 -171.84787 -6.2189541
124.92134 -171.86053 -6.3598452
125.39523 -171.88133 -6.273396
125.78615 -171.89809 -6.259254
126.17707 -171.92126 -6.258841
126.5897 -171.9386 -6.207736
127.30142 -171.94688 -6.2646971
127.78532 -171.95152 -6.334816
128.24896 -171.96165 -6.335351
128.54913 -171.97833 -6.2718992
128.95186 -171.98965 -6.2965608
123.78877 -171.80624 -6.5839739
124.17785 -171.80164 -6.5524139
124.66722 -171.82892 -6.5197692
124.88753 -171.84921 -6.57902
125.34248 -171.85249 -6.5403709
125.80576 -171.86736 -6.534647
126.26074 -171.89478 -6.5515652
126.66165 -171.91115 -6.5250058
127.37582 -171.96062 -6.5776272
127.77867 -171.98578 -6.5729752
125.09231 -171.85123 -6.6238132
127.00171 -171.94684 -6.6261692
128.19937 -171.96147 -6.730958
128.60199 -171.96774 -6.7256942
129.0168 -171.98749 -6.7060471
129.55801 -171.99326 -6.6623878
124.90192 -171.84195 -6.9031711
125.47073 -171.84517 -6.9440961
126.19577 -171.868 -6.9465981
126.67441 -171.89658 -6.979218
127.41 -171.92656 -6.8907752
127.82466 -171.95279 -6.88766
124.60284 -171.80254 -7.0149431
125.06939 -171.82037 -7.0336041
125.84399 -171.86311 -7.0158458
127.00345 -171.92303 -7.0471172
128.18459 -171.97861 -7.0118699
128.57872 -171.94525 -7.0773749
129.01068 -171.95505 -7.1424422
129.44933 -171.97771 -7.1236982
129.976 -171.98778 -7.0146742
124.88583 -171.81821 -7.306283
125.88342 -171.84167 -7.379035
126.20086 -171.87997 -7.3360658
126.61361 -171.86507 -7.3751779
127.06163 -171.88895 -7.3393822
127.4447 -171.90657 -7.3513761
127.86805 -171.92984 -7.3280182
128.51817 -171.95685 -7.302187
130.31824 -171.99577 -7.3702478
125.11795 -171.8082 -7.4497108
125.47957 -171.82217 -7.4174819
128.20935 -171.95683 -7.4185882
129.00574 -171.98944 -7.4458089
129.5687 -171.96176 -7.5210409
129.96667 -171.97995 -7.485981
131.68231 -171.81104 -7.4063678
122.73663 -171.88635 -7.7135172
123.44182 -171.8476 -7.766685
124.91286 -171.88162 -7.7482319
125.26153 -171.97575 -7.6780472
126.66986 -171.93062 -7.7385921
127.09997 -171.97299 -7.7124891
127.77864 -171.923 -7.7801971
128.21515 -171.92381 -7.7340188
128.65314 -171.9528 -7.7103052
129.05273 -171.96771 -7.7426329
123.70737 -171.85083 -7.8288312
124.56167 -171.81169 -7.8023891
125.45097 -171.82729 -7.9523721
125.79352 -171.81596 -7.8566551
130.36281 -171.996 -7.982347
131.68372 -171.87149 -7.8000932
125.06152 -171.82246 -8.0447102
125.33734 -171.83005 -8.1338367
126.97308 -171.81369 -8.082056
127.26167 -171.80344 -8.1624422
127.8459 -171.90921 -8.1975193
128.35469 -171.90985 -8.1531935
128.76866 -171.92661 -8.1155338
129.41556 -171.95186 -8.0595474
129.87488 -171.97363 -8.02104
124.94311 -171.80042 -8.3083401
125.48297 -171.83289 -8.2403955
132.19054 -171.75635 -1.673068
132.5538 -171.69379 -1.676932
134.25574 -171.77954 -1.668918
135.07416 -171.74033 -1.687199
135.76518 -171.64357 -1.677201
135.88402 -171.74179 -1.692005
136.14354 -171.77126 -1.698818
136.29308 -171.66013 -1.689231
138.2133 -171.73834 -1.759333
129.16577 -171.6907 -2.152406
129.56604 -171.75462 -2.1318159
131.60789 -171.77563 -2.193938
129.18622 -171.63959 -2.3335941
129.39708 -171.66426 -2.3248019
129.84651 -171.65167 -2.2698441
130.16512 -171.70084 -2.3260479
120.2742 -171.78967 -2.458838
129.15134 -171.61874 -2.5325739
129.36008 -171.64899 -2.4627359
129.80284 -171.64638 -2.5137529
130.13081 -171.65111 -2.431551
131.61459 -171.70895 -2.579056
120.14169 -171.78668 -2.8932259
120.57697 -171.786 -2.92433
131.61301 -171.73201 -2.894196
125.47406 -171.78708 -3.1179249
131.61548 -171.70816 -3.3189039
120.23319 -171.75163 -3.4436131
120.97088 -171.79784 -3.4691069
125.47701 -171.78403 -3.581357
120.32208 -171.73508 -3.740747
121.45421 -171.76917 -3.7115459
131.62068 -171.78108 -3.7258551
120.24047 -171.7196 -3.9048181
121.88223 -171.62231 -3.9043181
122.26865 -171.76503 -3.9380381
120.18552 -171.70761 -4.105546
120.27055 -171.73148 -4.042325
121.69899 -171.63287 -4.1870208
122.21828 -171.71771 -4.12323
131.63506 -171.71146 -4.1306019
120.13463 -171.73592 -4.387557
120.31667 -171.75201 -4.259233
120.45949 -171.63106 -4.379993
120.87454 -171.63254 -4.3814092
121.40625 -171.62985 -4.3148808
120.15755 -171.70963 -4.457953
120.29263 -171.71515 -4.5336652
120.53574 -171.62329 -4.4946198
121.02559 -171.6412 -4.4946308
121.37418 -171.63127 -4.5535889
121.81387 -171.65524 -4.5385671
122.06887 -171.65579 -4.568933
122.29083 -171.76851 -4.4983211
122.41132 -171.79315 -4.516459
130.08549 -171.76251 -4.5635881
131.64194 -171.70129 -4.5617461
120.29633 -171.74315 -4.7359748
122.41055 -171.79596 -4.7494078
122.35609 -171.78902 -4.8920088
131.64616 -171.73462 -4.9624252
120.26467 -171.68008 -5.086484
120.51788 -171.6097 -5.0062041
120.99016 -171.62393 -5.005414
121.44538 -171.6183 -5.0501251
121.92767 -171.6423 -5.0897541
122.30495 -171.75336 -5.0641661
122.42958 -171.78859 -5.0848999
120.21838 -171.70395 -5.2913022
120.54294 -171.60541 -5.3037229
120.88725 -171.60553 -5.321404
122.40594 -171.78554 -5.35074
129.89424 -171.6227 -5.3544512
130.06664 -171.61627 -5.3166509
131.64815 -171.73369 -5.3663712
120.22844 -171.67728 -5.4839182
121.33931 -171.60962 -5.50705
121.73824 -171.62349 -5.488687
122.11069 -171.65021 -5.4212031
122.34801 -171.74985 -5.4325271
122.517 -171.78452 -5.4994402
122.98705 -171.79773 -5.5155091
120.08589 -171.69409 -5.72542
120.28876 -171.68823 -5.6767321
122.10637 -171.65372 -5.7544789
122.30797 -171.75089 -5.6815648
122.49617 -171.78641 -5.697248
128.98531 -171.75496 -5.6771388
129.36188 -171.74727 -5.6656361
129.74068 -171.60713 -5.6449809
131.65146 -171.76868 -5.768394
120.55345 -171.77269 -5.9305992
120.98425 -171.73331 -5.9395952
121.47668 -171.78061 -5.8971052
120.22261 -171.65872 -6.1905241
120.61467 -171.66898 -6.1945319
121.12543 -171.64728 -6.1182618
121.32574 -171.6277 -6.198554
121.71069 -171.73247 -6.1125278
122.29732 -171.74098 -6.1733341
