# .PCD v0.7 - Point Cloud Data file format
VERSION 0.7
FIELDS x y z
SIZE 4 4 4
TYPE F F F
COUNT 1 1 1
WIDTH 1617
HEIGHT 1
VIEWPOINT 0 0 0 1 0 0 0
POINTS 1617
DATA ascii
130.17903 22.051008 3.5555241
134.25354 22.108047 3.5466249
136.38086 22.19376 2.4337511
120.10457 22.11573 1.062927
120.03586 22.099285 0.58156103
120.15377 22.023937 0.121964
121.19028 22.142267 -3.796185
131.16656 22.318811 3.8562951
131.71527 22.260008 3.684222
132.64755 22.232817 3.7597189
133.25037 22.239422 3.4648349
136.30188 22.221729 3.36678
136.41766 22.229082 3.3922601
136.33015 22.239704 2.8087981
136.44128 22.215725 2.627162
136.34332 22.269751 2.3636
136.45407 22.212076 2.399035
120.05165 22.35181 1.841254
136.27365 22.272404 1.902573
120.06144 22.345682 1.331056
136.34756 22.252064 1.339985
136.45517 22.267757 1.39754
136.31815 22.258617 0.99594599
136.45601 22.282534 0.401535
136.32834 22.335882 0.16912
136.23657 22.400827 3.381047
137.16322 22.486835 3.370302
137.0215 22.469807 2.85233
120.28591 22.570263 2.5943141
120.29467 22.533497 2.165952
120.1852 22.514477 1.823032
120.27278 22.425488 1.579396
130.54875 22.570774 -1.6800081
130.98428 22.526491 -1.683342
122.7448 22.663044 -6.7126799
129.80417 22.994091 -4.599165
130.24858 23.254593 -2.5925419
129.79805 23.403111 -3.6582689
130.73618 23.796364 -1.791431
129.99039 24.528849 -2.6346209
130.08134 24.487755 -2.632833
130.27155 24.450394 -2.9402151
131.01965 24.72784 -0.70300198
131.07919 24.751116 -0.98280197
131.06647 24.882128 -0.95659798
131.17722 25.095245 -0.72317702
130.98517 25.014374 -0.88999599
130.64421 25.033072 -1.825372
131.0697 25.242268 -0.73014402
130.86371 25.350109 -0.96247
128.60239 25.521446 -2.7385769
129.40871 25.549744 -2.757874
130.57941 25.786905 -1.8911819
131.98062 26.636026 4.0156822
123.4122 26.663078 3.5767081
123.64239 26.687469 3.5974569
121.44294 26.750626 3.201612
121.60413 26.723417 3.182755
123.50354 26.718773 3.1513319
121.43471 26.757433 2.9204309
123.4678 26.686806 2.6724269
123.61941 26.66326 2.2091269
121.55632 26.746016 2.124356
123.49811 26.720238 1.82516
123.50501 26.797924 1.469568
121.56769 26.770086 1.110603
121.78861 26.765709 1.116837
122.23824 26.749607 1.1295429
123.59885 26.718697 0.81896502
120.40294 26.791651 0.702878
120.98481 26.77943 0.709566
121.3712 26.777082 0.72591799
123.42301 26.703669 0.71476102
122.98593 26.707657 0.51473802
124.41912 26.67189 0.42128199
120.161 26.798252 0.28555799
120.55726 26.794153 0.29373899
120.88809 26.774311 0.31728801
121.90591 26.720373 0.201784
121.54143 26.738852 0.19664299
124.65626 26.659975 0.038323
125.18729 26.641825 0.104426
123.82295 26.692568 -0.012454
124.03854 26.682589 -0.0064019999
125.41422 26.644432 -0.0090690004
123.71848 26.740103 -1.5519741
130.43785 26.654224 -1.856903
130.27112 26.621426 -2.0101271
123.4506 26.783707 -3.4656661
123.75714 26.773298 -3.4760821
136.03992 26.976374 4.1250811
123.47318 26.97488 3.4448309
123.63631 26.955656 3.269788
136.36871 26.934263 3.3868661
121.44582 26.953884 3.031111
136.2774 26.966377 2.968554
123.41191 26.923113 2.5896671
136.34575 26.958582 2.4157219
136.47374 26.880199 2.5522671
123.63071 26.987907 2.20614
121.44123 26.931549 2.076396
123.44061 26.958544 2.1847041
123.41933 26.85256 1.8071049
136.11832 26.975744 1.908403
123.40514 26.982508 1.308486
134.85593 26.990124 1.255609
135.39694 26.984083 1.356143
120.08706 26.823708 0.55271101
120.61754 26.806072 0.59597898
120.29521 26.808697 0.238791
121.48214 26.864695 -0.92976701
121.36166 26.997774 -1.434163
120.32619 26.890205 -3.3982389
121.15773 26.864931 -3.3968899
121.55099 26.864651 -3.409214
123.04877 26.804424 -3.4532509
120.12519 26.90416 -3.6446731
123.59301 26.947496 -4.3934479
120.28146 26.81192 -6.865211
121.75424 26.855453 -7.0644612
123.76437 27.141312 3.625622
124.58618 27.055115 3.4243641
121.50031 27.021889 3.309706
121.49548 27.019804 2.526206
136.30469 27.072828 2.2200661
136.47537 27.04458 2.1052921
132.74527 27.158453 1.925271
134.43765 27.181728 1.806607
136.10141 27.104702 1.889569
121.47739 27.029459 1.753437
132.9129 27.165382 1.747254
133.10155 27.16128 1.741074
133.72879 27.005684 1.320622
134.21233 27.089344 1.309764
134.66946 27.008593 1.219897
121.53328 27.063482 1.002735
134.65643 27.042416 1.188392
121.43024 27.006681 -0.111029
121.37994 27.032516 -0.43606001
123.502 27.020426 -1.428478
123.58038 27.057343 -2.609889
123.56079 27.185207 -4.4246159
132.80063 27.353739 3.6208019
132.91956 27.344097 3.557164
121.49609 27.271315 3.237354
124.42163 27.290163 2.9271901
124.4927 27.343147 2.7517841
121.47902 27.230879 2.586623
132.27783 27.354565 2.0890081
132.64229 27.37771 2.151217
136.2782 27.217588 2.0936921
121.52225 27.247337 1.802143
132.78107 27.3573 1.9242181
123.60669 27.353746 1.641119
124.28555 27.390575 1.7690099
124.45345 27.363663 1.7113661
133.11101 27.259899 1.770612
134.78174 27.230833 1.2716171
134.83165 27.280725 1.26815
135.38397 27.358883 1.335853
121.50883 27.35537 1.019248
134.68082 27.3255 1.1668971
121.51434 27.308226 -4.343924
123.39288 27.550232 3.6098051
132.67319 27.486313 3.698709
132.64917 27.492273 3.43488
120.72198 27.46756 3.3006411
121.09665 27.596279 3.237211
123.05533 27.55827 3.244832
123.47062 27.551208 3.3032539
123.80161 27.559895 3.319998
124.04331 27.536373 3.3044889
120.61548 27.531876 3.007525
120.94411 27.476208 3.019794
121.58978 27.592138 3.143337
122.00397 27.598759 3.1758339
122.61288 27.552944 3.02367
122.96795 27.582901 3.000838
123.75079 27.556892 3.1760609
132.70921 27.483307 3.016824
123.30907 27.5741 2.9567649
124.11721 27.445135 2.956522
120.60373 27.517406 2.6403079
123.45985 27.40629 2.7497439
132.6523 27.488152 2.6847069
124.29332 27.40502 2.5672381
120.69292 27.531469 2.325001
123.7355 27.526918 2.2769971
120.2065 27.566511 2.183394
120.84749 27.465534 2.000659
121.54665 27.403347 2.031321
123.55212 27.539505 2.1839421
124.13541 27.491613 2.097122
124.43426 27.402229 2.1359041
132.83908 27.435347 2.170203
120.66868 27.54689 1.816105
136.09311 27.476177 1.894413
120.69221 27.546852 1.403345
124.21398 27.442938 1.431653
123.55217 27.584368 1.240002
133.80684 27.453804 1.3136899
134.28906 27.428696 1.28232
120.69818 27.534142 1.0429879
134.1734 27.429251 1.150358
124.28715 27.406437 0.84197599
124.5466 27.401697 0.88958699
124.27057 27.4762 -0.13748699
124.54123 27.43358 -0.054051999
124.23955 27.504166 -0.44378799
124.47091 27.591585 -4.528163
122.66799 27.631088 3.5514009
120.27061 27.651854 3.352834
121.11338 27.694084 3.3574591
121.43865 27.638329 3.3052549
121.71558 27.62841 3.3478341
122.98455 27.624121 3.30632
120.52907 27.680199 3.157156
121.05132 27.678373 3.0502789
121.31566 27.667747 3.055258
121.86143 27.628548 3.127614
122.62386 27.644962 3.1736791
122.86667 27.624401 3.152173
132.50829 27.723732 3.071053
120.1248 27.687069 2.949703
120.29714 27.670378 2.6027491
121.0713 27.689901 2.7373281
121.72011 27.652496 2.6905029
122.59062 27.661837 2.7694199
123.22092 27.624664 2.755908
121.37295 27.666109 2.4826519
121.71922 27.697531 2.2179711
123.62057 27.759035 2.2080481
120.19011 27.694214 2.156157
120.50085 27.64819 2.1691561
121.10892 27.708855 2.1598339
121.37199 27.688148 2.1756251
123.08324 27.683891 2.122309
123.45839 27.756645 2.1309271
136.31598 27.70472 2.089087
120.27197 27.706665 1.860664
121.04198 27.699062 1.938531
122.65993 27.73859 1.848587
123.56447 27.61755 1.984055
120.49715 27.671757 1.775893
121.35096 27.679609 1.742617
123.63695 27.60771 1.6391031
133.07982 27.675844 1.729015
120.03149 27.782961 1.457956
120.5336 27.71019 1.494615
121.1083 27.694427 1.526361
121.55856 27.668959 1.5764689
135.09824 27.658567 1.429639
123.44244 27.740591 1.303785
134.40619 27.697729 1.251931
120.31763 27.674187 1.055622
120.47772 27.61816 1.071779
121.07098 27.751867 1.047884
134.4707 27.786873 1.161837
121.36878 27.734177 0.91635102
121.62965 27.73292 0.88887101
122.29876 27.69487 0.879704
122.45587 27.728138 0.91344798
120.57809 27.731516 -0.156844
121.06216 27.764952 -0.15947799
121.40748 27.787754 -0.15003601
121.63847 27.712784 -0.12647
122.15131 27.750326 -0.13807499
120.58093 27.714243 -0.56759399
121.36595 27.773199 -0.51943499
122.70877 27.700565 -0.77179199
120.69012 27.625031 -0.95731401
121.48614 27.766714 -0.99738199
120.5696 27.698847 -1.421405
120.69057 27.612932 -1.750741
120.91214 27.657442 -1.755142
120.75285 27.635054 -2.6150501
121.00053 27.717997 -2.6276619
121.46666 27.771172 -2.6408551
121.72697 27.753578 -2.6434481
122.60445 27.761063 -2.6605561
123.03296 27.738865 -2.666918
123.33325 27.737804 -2.673126
123.6727 27.63533 -2.670186
120.7013 27.654999 -2.9581909
120.99088 27.780151 -4.507483
123.5359 27.783987 -4.8788028
123.95772 27.784855 -4.8847251
121.74226 27.69043 -5.692132
121.18505 27.703821 -5.8890152
132.88246 27.835072 1.92241
136.03458 27.801805 1.885615
133.0795 27.889883 1.741421
133.86818 27.872438 1.306872
120.17712 27.808722 -0.165969
120.16992 27.872267 -0.44524601
121.12598 27.831148 -0.53136998
121.42151 27.806595 -1.76886
122.07166 27.914185 -2.167295
120.07013 27.887709 -2.813369
121.40598 27.837372 -4.517632
121.64965 27.828861 -4.4452591
135.94945 28.155947 1.860543
122.06097 28.147427 -2.192677
122.57165 28.152916 -2.186177
132.46915 28.278284 2.087682
136.01198 28.20355 1.891493
133.08145 28.246941 1.787038
134.56946 28.298252 1.1508729
136.23454 28.522228 2.074327
135.93732 28.593952 1.866348
133.23622 28.591919 1.717111
134.14545 28.515213 1.442696
134.57051 28.56933 1.143306
138.46564 28.564867 -4.7763982
136.89264 28.603491 2.304332
132.55879 28.729919 2.086791
133.09384 28.650372 1.833529
133.82559 28.712969 1.461542
132.76646 28.998924 3.6735511
133.02542 28.937214 3.687042
133.0408 28.956085 3.253933
133.39523 28.841476 3.3316081
133.0723 28.967964 1.915529
134.1759 28.838802 1.437776
134.54352 28.927727 1.1278
136.88026 29.162943 2.2976029
132.54031 29.069099 2.1338069
135.91559 29.028572 1.857012
133.28125 29.054249 1.729014
134.92493 29.257389 3.854636
136.20091 29.279568 2.062479
133.13248 29.315414 1.913474
135.89192 29.393398 1.849228
134.17935 29.545086 3.8015449
136.90341 29.45196 2.2955551
132.5813 29.472416 2.1315801
133.3399 29.459885 1.723863
137.52063 29.554356 -4.7455211
133.98596 29.778475 3.774421
133.18962 29.773415 1.909655
135.88017 29.779587 1.841099
134.6524 29.777563 1.215039
132.638 29.937166 3.668092
134.03976 29.927456 3.733248
133.06906 29.910595 3.2609701
136.90041 29.832701 2.291168
132.63104 29.807579 2.1305411
136.18956 29.800022 2.054817
133.39944 29.863216 1.7187639
134.58327 29.997353 1.096202
139.74341 29.978153 -1.2826869
139.64215 29.993183 -2.309793
132.38934 30.195047 2.1265521
136.19661 30.184982 2.0498509
124.45565 30.086689 1.9126379
135.93018 30.152588 1.855413
133.37386 30.187717 1.732913
139.89459 30.161171 -0.164763
139.76271 30.068871 -1.1766
139.64084 30.07341 -1.323248
138.51315 30.164944 -4.8691292
136.43301 30.368654 3.9802899
132.9574 30.368254 3.681793
136.91612 30.2306 2.287482
132.67653 30.239738 2.1283619
133.36574 30.214149 1.800142
134.68073 30.222286 1.20622
138.537 30.598719 4.1545701
132.39224 30.534182 3.651334
132.76703 30.543777 3.7282159
135.71642 30.592577 3.467319
136.38799 30.430698 3.5796549
136.40314 30.457043 3.4361489
132.90012 30.437836 3.265399
133.61429 30.423485 3.248955
132.82141 30.462353 3.015506
136.37006 30.421783 2.916487
136.4644 30.422588 2.9897931
132.7627 30.466656 2.6883719
136.5 30.402559 2.4066119
136.66516 30.564901 2.271199
136.92041 30.527395 2.284339
132.67278 30.546682 2.161855
136.16786 30.548077 2.0434279
133.40749 30.420891 1.730454
134.59698 30.484144 1.264827
134.64537 30.553799 1.083346
133.71777 30.630558 4.0110531
132.81667 30.654558 2.076334
133.43687 30.628542 1.762174
133.55556 30.955021 3.7790439
132.66339 30.995962 2.1505439
133.3286 30.914436 1.899828
133.47794 30.909054 1.725288
133.60504 30.939734 1.6843849
134.64226 30.923086 1.259452
132.29323 31.101414 3.67063
133.50362 31.162605 1.722064
134.69395 31.074636 1.14893
132.6808 31.344866 2.227531
132.80977 31.340504 2.1242449
133.6803 31.343321 1.679274
134.73132 31.390598 1.1228319
122.07562 31.565584 2.782228
132.95081 31.503744 2.0725651
133.50426 31.443823 1.808859
134.71677 31.401295 1.314664
120.302 31.666054 2.8021691
133.4762 31.790283 1.894173
135.52208 31.906267 3.8593371
133.82729 31.997923 3.403856
133.09727 31.935726 3.222574
120.63904 31.911266 2.831763
120.16092 31.940006 2.6359329
120.63182 31.913311 2.716923
120.9642 31.892445 2.740736
132.95586 31.811481 2.097528
133.70721 31.858299 1.6944439
134.73105 31.810604 1.357127
124.54781 32.039116 2.649827
122.75361 32.198242 2.0808849
123.05657 32.164951 2.0944171
135.32922 32.285839 4.1733742
121.42961 32.265579 2.830152
120.04398 32.325649 2.635206
121.37678 32.294479 2.626471
122.40237 32.231316 2.697742
121.0033 32.286911 2.4134691
121.76891 32.263332 2.4949751
122.13148 32.239307 2.5531111
120.64805 32.3451 2.2291341
121.0491 32.318485 2.2551711
121.43565 32.306892 2.2803221
121.80026 32.293873 2.2065539
120.33171 32.348312 2.1126261
123.57915 32.258335 2.1817789
133.01292 32.237343 2.0952311
120.58817 32.360477 1.823465
120.96161 32.320892 1.924824
121.68761 32.297668 1.8277
133.55768 32.202808 1.892065
122.11127 32.297977 1.755636
133.78217 32.253132 1.6902651
121.42277 32.305054 1.474633
121.78658 32.309883 1.49483
122.09232 32.290691 1.539062
134.81976 32.244492 1.304917
137.0282 32.409477 2.3275421
132.96051 32.760849 3.723052
132.6834 32.746902 2.111788
133.76279 32.611801 1.742404
134.84512 32.753803 1.359683
133.10687 32.918297 3.764637
133.82333 32.971432 1.772164
132.70071 33.023308 3.752445
133.10361 33.087585 2.118875
132.86264 33.371933 3.6900411
133.01477 33.362297 3.296603
136.5703 33.272129 3.3857219
136.54501 33.30619 2.9856839
132.90227 33.388596 2.6023591
136.61864 33.279434 2.2896099
133.00038 33.369431 2.1422861
133.72585 33.374809 1.882836
134.04721 33.385841 1.652383
134.93727 33.291447 1.230104
132.9478 33.414028 2.9988379
134.33524 33.563572 1.589342
137.1129 33.988068 2.304944
132.86424 33.982578 2.1060269
134.11392 33.816311 1.646109
134.4425 34.059547 1.584295
132.62366 34.271667 2.5091341
137.10179 34.287704 2.301218
132.9193 34.387299 2.103889
133.89059 34.247452 1.8778189
134.13293 34.254463 1.667408
133.95358 34.530998 1.876644
134.53773 34.531162 1.579142
133.08987 34.699062 2.1662681
133.46284 34.683792 2.0580699
134.18719 34.61446 1.662909
135.05714 34.673763 1.210829
133.9856 34.817951 1.873865
134.57816 34.812271 1.57524
133.24077 35.00824 2.22964
134.2453 35.024715 1.657481
134.60641 35.221676 1.56801
133.09525 35.56179 2.0983109
134.65121 35.630634 1.561599
133.17456 35.985157 2.0970099
133.42633 35.805199 2.16749
134.1969 35.86898 1.769614
134.42511 35.809753 1.616876
132.88467 36.166332 3.6579239
134.71094 36.081703 1.555025
132.48206 36.328983 3.747606
133.11786 36.206375 3.3516829
136.69183 36.243546 3.1741681
133.08777 36.264996 2.9429131
133.02644 36.250015 2.6294799
133.22731 36.397095 2.094552
134.24481 36.22065 1.7661591
134.50269 36.272022 1.610314
133.4646 36.517021 2.2296619
134.29881 36.534477 1.763519
133.4239 36.958839 2.160805
134.27206 36.954926 1.855261
134.45657 37.038658 1.662535
134.6096 37.023891 1.5985889
133.71825 37.245728 2.0987079
134.81709 37.2183 1.536132
134.35065 37.430424 1.851801
133.73103 37.763519 2.1633911
134.81583 37.623425 1.527385
137.3244 37.874168 2.711235
134.49724 37.808174 1.751688
132.61409 38.096275 2.5371301
133.78629 38.192894 2.1618061
134.77151 38.127098 1.581545
134.56628 38.214535 1.748262
132.66624 38.56794 2.5394371
133.82672 38.489685 2.1608291
137.39954 38.631462 2.7151351
134.70537 38.671341 1.6445889
133.86624 38.863354 2.1588089
134.90082 38.924622 1.536613
133.14334 39.164787 3.786288
136.82829 39.123764 3.432472
136.71915 39.147003 2.923171
133.11639 39.185989 2.692054
132.67752 39.029293 2.539166
134.74829 39.122406 1.638308
133.13853 39.351562 4.1539922
133.08537 39.235973 3.9044609
134.89873 39.334866 1.5601341
132.74422 39.487804 3.883873
132.72484 39.52393 2.5411191
134.78261 39.429893 1.634262
134.80684 39.741222 1.629635
134.91522 39.757942 1.551129
132.77682 39.904461 2.543612
127.48284 20.112461 3.8015051
133.789 20.080235 3.8177271
123.39815 20.068773 3.778187
127.01697 20.173115 3.693378
136.6519 20.158094 3.737278
138.19962 20.192104 3.6526899
137.47528 20.040966 0.206545
137.77499 20.074579 -1.109714
137.7354 20.068558 -1.311922
137.76373 20.119041 -2.3495989
120.07341 20.133232 -2.4729371
122.01289 20.062212 -2.407187
137.75809 20.147411 -2.478235
137.84044 20.186026 -3.2500589
125.62538 20.39283 3.8049741
128.46172 20.216627 3.812474
137.94316 20.327545 3.816597
124.19221 20.239576 3.758997
128.22641 20.228296 3.7864449
138.76057 20.315985 3.6294429
120.26385 20.242758 -0.64183199
120.55834 20.226875 -0.62879097
120.91241 20.326443 -0.67590201
120.24179 20.301704 -2.2745521
137.8967 20.301231 -3.0715251
138.01392 20.224451 -3.028394
120.024 20.262993 -6.1381721
129.15776 20.520351 3.845438
124.33872 20.582731 3.773551
127.18919 20.430786 3.738255
127.34462 20.542751 3.693805
138.62686 20.456022 3.409946
138.64597 20.481998 2.950757
138.62115 20.471186 2.560817
138.59329 20.48926 2.2533741
138.48949 20.480082 2.185607
138.85986 20.459806 1.845212
137.1151 20.597031 1.32725
138.55786 20.588284 1.350166
138.60289 20.513422 1.04807
138.57484 20.594788 0.102492
138.569 20.590458 -0.088247001
120.97868 20.550207 -0.60783702
138.59616 20.577215 -1.080107
138.85782 20.537193 -1.055162
138.88722 20.538481 -1.248333
139.03595 20.572803 -2.526499
138.57928 20.556345 -3.131341
127.83687 20.619469 3.806128
130.28746 20.613974 3.8239801
124.08097 20.617945 3.769649
138.3692 20.655323 2.7088261
138.37106 20.723568 2.137964
137.31815 20.669384 1.754076
138.39705 20.724026 -0.57016802
138.6002 20.607725 -1.311334
120.08551 20.70969 -1.9109271
138.58949 20.619692 -1.915103
138.9276 20.609362 -1.900299
138.67911 20.601822 -2.346822
138.91512 20.612816 -2.3894179
138.67487 20.661579 -2.525526
137.90558 20.749172 -3.0511889
139.12933 20.671482 -3.147362
137.8502 20.712261 -3.316467
120.36486 20.786919 -4.4936671
130.00003 20.943293 3.8480029
131.44705 20.883768 3.8172221
133.02347 20.887558 3.8395851
124.21323 20.91114 3.7864051
127.74815 20.866743 3.6828411
137.28807 20.95023 3.6928201
127.78837 20.917206 3.362673
134.59799 20.983341 3.339818
137.10999 20.905279 3.319102
137.25314 20.899178 3.3983769
137.1608 20.963404 2.892688
137.2711 20.983932 2.4743609
138.47191 20.827404 2.5258999
120.07465 20.903566 -1.800092
121.6467 20.878174 -2.595634
122.67285 20.833315 -3.443923
132.84186 21.077326 3.8362579
122.94266 21.03124 3.784126
128.05223 21.087328 3.7247651
138.08359 21.047005 3.776088
137.0936 21.072901 1.801231
137.25465 21.028526 1.831063
137.11543 21.072746 1.448916
137.25557 21.097521 1.447089
121.07202 21.004726 -0.56895798
121.1218 21.130816 -2.353282
122.20133 21.101837 -3.457355
120.50903 21.047129 -3.7439129
122.47488 21.024939 -4.065906
129.78526 21.20569 3.857883
131.89008 21.281597 3.895757
128.27536 21.25433 3.7562389
138.56912 21.295982 3.4776831
134.5556 21.260008 3.346334
120.29955 21.37056 -0.68964499
121.30112 21.297298 -1.336127
120.96358 21.398453 -1.873524
120.75703 21.379957 -2.147228
121.09244 21.338169 -2.0728519
120.85004 21.280771 -2.872437
121.7142 21.208435 -3.2867129
137.90344 21.384483 -3.3443429
138.03967 21.368519 -3.248909
128.87442 21.499422 3.8215621
129.13638 21.45595 3.906281
120.1635 21.488426 3.747216
128.51959 21.465624 3.718137
138.31155 21.46129 3.4023719
138.56192 21.467941 3.13924
120.13034 21.44986 -1.3600219
120.50773 21.517319 -1.313327
120.64993 21.448183 -1.85136
137.9325 21.441713 -3.1644759
138.72079 21.518871 -3.154325
139.4912 21.506874 -3.173043
124.89024 21.729046 3.802408
129.33752 21.686512 3.872673
132.83279 21.630728 3.849663
138.09698 21.685314 3.818996
120.62007 21.761086 3.792542
120.88943 21.713226 3.796448
129.12363 21.621151 3.690218
129.4711 21.776701 3.7395041
137.81081 21.778862 3.6749949
128.94789 21.605124 3.4755361
137.72789 21.765518 3.505424
120.12621 21.769096 -0.668953
120.7234 21.648891 -2.2454381
121.8148 21.875454 3.8137541
128.71507 21.81007 3.8410771
132.80714 21.841112 3.859169
133.67383 21.83548 3.8812211
133.9214 21.89002 3.856796
134.06705 21.854601 3.853837
120.3454 21.839535 3.7706029
129.6671 21.892218 3.7495229
130.15712 21.938877 3.717211
135.38382 21.927803 3.6493151
136.51028 21.851418 3.675488
137.00983 21.856518 3.787715
137.44754 21.853441 3.6933789
124.67261 21.853285 3.302712
124.36063 21.902643 2.669446
120.18591 21.971439 -0.182888
120.32049 21.913948 -0.31265801
120.57951 21.904457 -0.56665403
128.27153 22.037453 3.833205
133.87358 22.171515 3.8113949
137.38017 22.116302 3.8291039
120.17941 22.193213 3.6155469
122.48242 22.027832 3.7846329
130.30219 22.133698 3.717977
130.59149 22.144085 3.680675
131.34854 22.138241 3.7477131
131.72989 22.195957 3.729059
134.19305 22.079014 3.667578
136.20874 22.105795 3.6250081
136.65179 22.007414 3.761693
137.05081 22.177603 3.6958151
120.16789 22.139364 3.4669311
130.21506 22.024683 3.5174811
130.74274 22.109602 3.4754939
130.92938 22.112251 3.4132929
131.51166 22.157885 3.5311711
131.89334 22.153841 3.4276471
133.16061 22.108225 3.3824921
120.04303 22.184864 1.055665
120.16115 22.160854 0.51955003
120.13792 22.031164 -0.069122002
120.30888 22.027927 -0.104265
120.95127 22.118591 -0.19781899
121.53578 22.21707 3.8235459
137.73398 22.242943 3.813436
120.59052 22.364689 3.68401
129.90237 22.203453 3.7616739
131.04041 22.22958 3.7614031
132.14706 22.225063 3.7567599
132.54007 22.257282 3.764874
133.33777 22.236931 3.683996
138.22351 22.372887 3.7181029
124.87473 22.31015 3.3542171
136.28996 22.313324 3.2902031
136.27676 22.271229 2.890841
136.43143 22.226521 2.9710469
136.42615 22.233084 2.6923809
120.12907 22.347771 2.5498221
136.44884 22.210327 2.3218839
136.35326 22.221582 2.106802
120.07362 22.348381 1.813679
136.48137 22.22644 1.684983
120.07088 22.324688 1.4208421
136.42581 22.229971 1.366819
120.15367 22.354649 1.058789
136.46442 22.22644 1.051386
136.48761 22.244747 0.57486701
136.45479 22.238903 0.25163499
130.85565 22.381243 -2.352483
122.12441 22.425554 3.7949431
137.0152 22.567417 3.3539441
137.23111 22.457172 3.1504719
120.30568 22.541977 2.538357
120.04829 22.450708 2.2899101
120.30009 22.517067 2.2449951
120.14191 22.56184 1.858219
120.00038 22.42416 1.62718
120.00301 22.406864 1.5376509
120.10307 22.423849 1.094263
120.20223 22.429928 1.144851
120.1161 22.420248 0.91569901
120.37102 22.528353 0.64040899
131.13589 22.55476 -1.128003
131.29149 22.452887 -1.180077
131.0166 22.542984 -1.376536
131.02185 22.599195 -1.841547
121.71217 22.55827 -2.095403
130.64999 22.567493 -2.185323
131.06329 22.558418 -2.137346
121.9378 22.564877 -2.607053
122.30325 22.568295 -3.5240271
123.53517 22.6521 3.8370111
120.50964 22.666788 3.633647
120.26244 22.72732 3.374819
120.19661 22.65527 2.977864
120.15752 22.700512 1.063727
120.20427 22.615396 0.96544403
120.16275 22.637703 0.49799001
120.12955 22.765221 -0.118524
120.50941 22.796427 -0.97220498
121.11422 22.689478 -1.289917
121.25143 22.650778 -1.391968
130.67569 22.636669 -1.78938
120.10641 22.968763 0.27668899
120.25027 22.974308 -0.121843
136.48141 22.955471 -0.062595002
130.66119 22.917227 -1.712271
124.20791 23.035414 3.8617179
129.77893 23.007751 3.801338
129.17564 23.128363 3.7964699
125.32872 23.015375 3.475143
120.3672 23.05648 3.2647381
120.1467 23.164503 3.0285399
120.10656 23.128855 2.354634
120.11371 23.056358 1.31872
120.17 23.072151 1.018196
120.24113 23.055506 0.55232197
130.32617 23.054314 -2.9641221
123.6923 23.354452 3.850297
120.65628 23.366989 3.7003701
120.33861 23.295868 3.5328701
130.42023 23.279217 -2.6004031
130.13892 23.304108 -2.9476359
122.599 23.426111 3.842298
123.00835 23.497772 3.871182
124.22312 23.51215 3.892591
124.58511 23.439789 3.9117999
125.15825 23.494118 3.9268701
125.83885 23.585321 2.942323
122.60364 23.725527 3.8185949
131.84372 23.775068 3.8410909
130.51326 23.709021 -2.5640049
121.41157 23.969509 3.8385479
123.10436 23.970411 3.860673
129.90921 23.828049 3.8793759
130.08418 23.954567 -2.9499559
122.88721 24.159101 3.8614969
123.72027 24.173353 3.9289131
130.73453 24.176023 -1.7766041
130.21213 24.19392 -2.85252
124.19029 24.338169 3.9267759
127.30992 24.284328 3.937433
130.85893 24.238255 -1.66443
130.01917 24.211336 -3.3281381
129.55081 24.268728 -3.4644959
125.7502 24.579811 3.9256909
125.90437 24.522038 2.604378
130.61333 24.573303 -2.205843
130.13098 24.570627 -2.501842
130.68629 24.594505 -2.444515
128.8304 24.480223 -4.305707
121.25452 24.608608 3.8963599
122.04913 24.615011 3.8425241
131.69727 24.743326 3.901453
130.98309 24.746929 -0.85899502
130.77393 24.744703 -1.494611
129.97502 24.662769 -2.550468
131.11398 24.951807 3.909868
132.75168 24.981218 3.914078
139.00676 24.919615 3.9250879
131.31905 24.876305 -0.30930099
131.28314 24.883434 -0.42418799
131.02094 24.911867 -1.0001431
130.93474 24.839836 -1.3872
130.71526 24.973089 -2.042841
131.11874 24.878532 -2.007978
127.51221 24.981321 -4.4372621
121.93377 25.123301 3.8793271
123.88397 25.049389 3.965646
125.26092 25.134771 3.952173
130.54903 25.155779 3.9592209
131.67245 25.05479 3.956038
131.09689 25.134747 -0.52350801
130.76553 25.007156 -1.517832
130.86424 25.035744 -1.744724
130.60793 25.124695 -2.2493091
123.72428 25.247894 3.9713261
125.00351 25.263012 3.9502499
128.84927 25.321697 3.88658
131.89355 25.394873 3.9187019
134.70461 25.320251 3.94238
126.50275 25.338547 3.5496449
131.16785 25.29155 -0.38273799
130.92316 25.326385 -0.91513997
130.76535 25.237608 -1.380309
130.85864 25.390915 -1.8242
130.31276 25.303478 -2.5309169
129.78482 25.31731 -2.954628
129.44826 25.343979 -3.0563669
129.32199 25.318876 -3.26898
122.26797 25.401402 3.935287
128.67609 25.577679 3.931268
130.73546 25.404766 3.928467
132.38469 25.543512 3.924566
126.88998 25.55175 2.9398
130.84134 25.446882 -1.558416
130.76007 25.413261 -1.860366
130.58061 25.51753 -2.293093
121.75544 25.780252 3.960592
122.03809 25.636314 3.9379699
134.49445 25.733191 3.955687
130.73267 25.775085 -1.5892169
121.50204 25.926498 3.9321251
122.77688 25.98546 3.9678521
124.15226 25.833883 3.9597509
128.35081 25.916901 3.96385
134.34456 25.950048 3.9596341
129.6452 25.864605 -2.59743
129.41318 25.875198 -2.6729059
129.03519 25.803331 -3.0439601
128.17557 26.133535 3.9721589
126.80139 26.104866 3.664197
130.16606 26.173445 -1.957973
129.46593 26.022738 -3.0700381
128.94893 26.1549 -3.341136
131.97424 26.380104 4.0095911
129.98715 26.291267 3.965795
130.50658 26.348009 -2.2935431
129.63165 26.504398 4.0218582
128.7009 26.505299 3.9576221
133.78801 26.565699 3.9611909
139.75461 26.548737 3.9162531
126.93581 26.524141 2.889962
125.32861 26.582367 0.84965098
125.32213 26.576942 0.66031802
128.20433 26.581648 -2.756166
130.28323 26.494276 -2.6908259
128.82771 26.486364 -3.238832
137.47308 26.687618 4.00454
121.33447 26.732742 3.934931
123.49275 26.677048 3.8107679
130.95654 26.680738 3.9728799
123.69266 26.694523 3.7352281
121.466 26.76185 3.4181819
123.47398 26.662331 3.4890871
123.71008 26.654272 3.4712811
121.38951 26.755684 3.283788
121.46537 26.758482 3.3363039
123.46571 26.671999 3.3757551
121.38755 26.747372 3.187156
121.56525 26.740166 3.101963
121.36745 26.746002 2.910182
123.3815 26.6772 2.6455679
123.46587 26.681374 2.717593
121.36421 26.772947 2.5501161
123.47088 26.697472 2.1290431
121.49763 26.778854 1.912653
123.43689 26.70826 1.898065
121.37878 26.776085 1.73755
123.47576 26.723095 1.291085
121.52602 26.781485 1.150262
122.30113 26.784546 1.068558
122.63125 26.77561 1.1196949
123.01687 26.761009 1.144997
123.3658 26.734867 1.132993
121.84178 26.767014 0.95893502
122.41853 26.744434 0.84199399
123.52023 26.735023 0.89713901
124.64049 26.653513 0.81213403
125.01434 26.654284 0.83163399
121.10607 26.77368 0.600501
121.33534 26.764885 0.61219102
121.77141 26.761051 0.64432001
122.23318 26.727623 0.60951298
122.65413 26.707682 0.63839102
123.08096 26.689102 0.62104398
124.88992 26.615738 0.66105902
125.10013 26.608959 0.62106699
125.28345 26.607506 0.68950802
120.60979 26.787224 0.54894602
123.53993 26.670765 0.52324599
123.91149 26.658016 0.547988
124.32037 26.640495 0.57734603
124.68345 26.624897 0.59365302
121.45645 26.760279 0.280285
122.31114 26.734249 0.30177501
121.93074 26.749115 0.166529
122.57326 26.735975 0.188186
123.09764 26.720791 0.124902
123.38364 26.708038 0.19011199
123.8476 26.687487 0.15663899
124.34944 26.678629 0.048549
124.69104 26.663673 0.13551299
124.86361 26.64819 0.056564
125.13605 26.650116 0.063454002
125.33762 26.641718 0.046160001
121.60376 26.770123 -0.0080260001
122.27939 26.793036 -0.041990999
123.47276 26.773907 -0.17312101
123.52486 26.790226 -0.83639097
130.47681 26.61853 -1.81893
123.58092 26.799019 -2.2210059
123.27002 26.770603 -2.9530771
124.91093 26.714806 -2.861074
125.12566 26.699978 -2.945302
128.59589 26.606365 -2.8424981
122.62688 26.791912 -3.0611041
122.96104 26.781281 -3.0339329
123.76611 26.759941 -3.062964
124.1095 26.753551 -3.0403759
124.87973 26.723398 -3.0039439
125.03819 26.700449 -3.0171571
125.25183 26.69981 -3.0297141
129.39148 26.651058 -3.2682731
123.49428 26.791771 -3.4960721
123.78435 26.783764 -3.488354
124.51643 26.762653 -3.6571791
120.90511 26.766731 -6.9244351
127.50385 26.957167 4.0042329
130.74992 26.974525 4.002192
136.08141 26.971315 4.0622458
131.85046 26.960171 3.983357
124.89685 26.936747 3.7588339
136.30734 26.945042 3.6597929
123.48964 26.917095 3.4294491
124.81585 26.943445 3.5424819
136.23419 26.953247 3.4895771
121.43486 26.911425 3.366962
121.44672 26.877787 2.9929941
136.31409 26.954172 2.9803331
121.52686 26.923355 2.6348021
123.44415 26.886719 2.6263969
136.25261 26.985359 2.7030649
136.46741 26.937899 2.5122681
121.64517 26.976994 2.2007279
123.65845 26.919563 2.2610509
136.30933 26.990698 2.2425981
121.35771 26.941223 2.0698681
121.46859 26.884182 1.867902
123.44061 26.83786 1.8852431
136.11118 26.941898 1.8219171
135.33426 26.946993 1.4560339
121.54129 26.84605 1.362317
123.46597 26.995865 1.397456
121.32457 26.866482 1.049788
121.54433 26.825979 1.127462
122.00456 26.805346 1.129757
123.4417 26.918213 1.197318
120.32121 26.802277 0.83427203
120.23926 26.819601 0.55657399
120.70373 26.810768 0.58675498
120.10614 26.808189 0.33599901
120.81863 26.998894 -0.070970997
121.47668 26.915691 -0.249046
123.44457 26.856594 -0.27195001
121.39859 26.863684 -0.43630901
121.51817 26.918945 -0.690081
123.39053 26.840601 -0.91327697
123.4807 26.85313 -0.90992701
121.4157 26.982761 -1.065112
121.46817 26.961536 -1.463555
123.45032 26.818861 -1.656567
123.57181 26.831345 -2.1953759
121.53143 26.921856 -2.343812
123.54758 26.824902 -2.285573
121.48911 26.940239 -2.5903029
122.60641 26.919277 -2.4865799
122.81013 26.849724 -2.5159221
123.40598 26.850616 -2.503628
128.90387 26.811626 -2.7158351
122.95544 26.818298 -2.956553
120.09323 26.913301 -3.0516601
121.48454 26.844616 -3.0426791
121.78899 26.833967 -3.0351641
122.10989 26.823166 -3.019906
120.21956 26.903908 -3.2876511
120.6682 26.870674 -3.2423079
121.47932 26.866648 -3.387722
121.84587 26.853209 -3.3859389
122.04166 26.839533 -3.3083589
122.75993 26.813717 -3.443939
123.26117 26.818544 -3.554781
120.42848 26.911171 -6.9315162
137.52071 27.056181 4.0224628
121.52266 27.030783 3.974354
124.12685 27.092396 3.831563
124.64548 27.063442 3.715209
126.96524 27.106251 3.7013991
123.71671 27.056292 3.43309
124.49801 27.125111 3.4863541
124.63875 27.035133 3.4780879
124.85734 27.129967 3.5450981
121.42992 27.009626 3.2087419
123.67419 27.040642 3.023133
123.60882 27.049328 2.762316
132.35619 27.151894 2.0444679
136.30141 27.019188 2.067404
136.65746 27.115898 2.070215
123.45559 27.101467 1.91293
134.62383 27.179699 1.931581
135.07486 27.127888 1.996042
136.56084 27.041235 1.986623
132.90286 27.151211 1.747498
135.77628 27.091644 1.787395
121.66696 27.101332 1.46435
133.84302 27.127213 1.413322
134.23547 27.102341 1.2304519
134.72601 27.056396 1.2602381
134.54639 27.026405 1.0924309
120.0518 27.191919 -0.97956401
123.55093 27.050951 -4.4396491
126.34128 27.388947 4.0738649
120.5257 27.285576 3.9285481
131.19014 27.210028 3.9713049
133.20967 27.215956 3.964673
124.21707 27.307951 3.7566221
124.17077 27.343781 3.451525
132.87737 27.369942 3.5759399
121.47063 27.308865 3.286449
127.2636 27.233431 3.001374
124.19523 27.388939 2.8149879
124.17722 27.367395 2.728456
124.27925 27.378693 2.736099
124.44173 27.364326 2.674577
121.45472 27.250349 2.539968
124.51026 27.384481 2.2714579
120.01605 27.276144 2.0687759
134.50497 27.222708 2.009094
133.56152 27.317379 1.964484
133.3231 27.396624 1.798049
134.63898 27.223494 1.607318
135.16013 27.252207 1.630285
135.87543 27.290089 1.7546149
134.95824 27.259245 1.402855
124.47971 27.396744 1.336805
134.10175 27.314816 1.327686
134.52206 27.284674 1.306129
123.5247 27.248949 1.149686
134.54152 27.376284 1.09805
121.49241 27.207485 -0.103735
120.07462 27.260727 -0.889691
121.39404 27.324326 -1.5915051
121.38465 27.333336 -1.6492029
121.59604 27.236904 -2.37289
125.33802 27.261234 -2.803545
122.99495 27.399502 -3.8504691
132.10139 27.460985 4.0436802
132.65402 27.449173 3.813693
120.27975 27.42646 3.784024
122.21812 27.595638 3.717541
122.54492 27.570038 3.7445779
123.28693 27.570673 3.7357571
120.66521 27.50647 3.426826
123.40471 27.557961 3.4135871
123.84664 27.514574 3.4286749
124.5772 27.473259 3.5476029
132.73065 27.425028 3.514544
120.33119 27.5907 3.3283529
120.49676 27.502026 3.316134
120.65709 27.508167 3.2942319
122.79148 27.566668 3.2171259
122.98088 27.59223 3.3988941
120.19978 27.592512 3.192482
121.59412 27.493271 3.053031
121.68484 27.514114 3.040302
123.7709 27.550556 3.0197151
124.10023 27.477686 3.0206139
132.66599 27.460617 3.0488629
120.53668 27.57061 2.8994141
120.71855 27.508917 2.924685
120.8746 27.509125 2.930402
122.65234 27.589422 2.984127
123.35316 27.584137 2.924113
120.16405 27.565525 2.6020491
120.49945 27.545946 2.6080289
121.88139 27.461525 2.6426289
123.48651 27.557041 2.691056
123.8167 27.583973 2.696898
132.72191 27.456871 2.6949069
120.5411 27.534708 2.459914
120.65511 27.532013 2.5626791
124.24052 27.422247 2.2697001
120.64407 27.555967 2.1405311
123.51379 27.495619 2.1510701
124.15754 27.593346 2.08605
132.82962 27.420294 2.0896649
136.38644 27.503529 2.0950849
136.76279 27.479919 2.122045
123.4603 27.597116 1.922665
123.8736 27.563156 1.820435
124.24463 27.415056 1.8629791
124.45905 27.4744 1.937116
132.88712 27.511345 1.904024
120.58569 27.542606 1.713963
120.71798 27.548141 1.784009
124.56 27.40992 1.711197
133.02795 27.445038 1.73137
124.29077 27.416508 1.4621969
133.84532 27.41061 1.434896
135.32007 27.403406 1.45183
124.3508 27.410973 1.32216
124.56255 27.446716 1.3779401
120.71311 27.571392 1.0729311
124.27581 27.44276 1.097494
124.52142 27.405413 1.032046
134.20018 27.422596 1.174437
120.85612 27.576082 0.86879897
120.04847 27.412096 -0.17811701
120.72469 27.599783 -0.028723
124.2604 27.466667 -0.154311
124.44326 27.447269 -0.16433799
124.46026 27.494778 -0.577438
124.34755 27.496357 -0.750781
124.61911 27.49609 -0.67231101
123.56023 27.593855 -0.90318799
124.30882 27.487507 -0.921637
124.51723 27.486868 -0.86377698
124.41274 27.513168 -1.333106
124.34388 27.509769 -1.487267
124.25601 27.506781 -1.712196
124.42909 27.493231 -1.653603
124.25299 27.552563 -2.271713
124.4956 27.510632 -2.2399881
121.78597 27.546835 -2.439703
124.54795 27.513729 -2.6157169
121.3572 27.471952 -3.873596
124.34332 27.584238 -4.510951
132.8459 27.742455 3.976131
120.18051 27.703287 3.672884
121.68353 27.622328 3.7115741
122.06156 27.621246 3.716466
120.44505 27.743374 3.4345491
123.00042 27.614555 3.5059071
123.28089 27.602474 3.5372031
124.72092 27.703367 3.4361
120.17745 27.72827 3.2878089
120.43251 27.634834 3.3016241
120.93884 27.67367 3.2882559
121.43695 27.634892 3.337121
121.77901 27.644735 3.3558071
122.20399 27.62862 3.3764069
122.59026 27.611546 3.3955431
123.30942 27.611177 3.0441599
121.26126 27.695475 2.9434719
122.5254 27.617828 2.957643
122.9903 27.619116 2.9677031
123.84431 27.614292 2.9173279
124.57387 27.69907 2.886615
126.87372 27.650166 2.9962721
121.9297 27.710205 2.6284709
122.26297 27.710691 2.672472
123.01321 27.707804 2.648629
123.41129 27.632549 2.7573099
123.79065 27.610891 2.7637801
120.17798 27.706663 2.50719
120.70406 27.676453 2.532691
121.00069 27.69873 2.576787
121.51721 27.707045 2.576602
120.16 27.704596 2.1093681
120.47859 27.72681 2.1546061
121.38939 27.677803 2.0285721
123.04778 27.733582 2.183825
123.8045 27.607006 2.188818
124.07245 27.60848 2.1040111
132.34909 27.681583 2.088732
120.48354 27.706045 1.884728
121.44543 27.678402 1.84343
121.80911 27.739527 1.834029
122.04428 27.766001 1.803755
122.2691 27.771002 1.920523
122.65903 27.760111 1.8946379
123.5229 27.655598 1.897169
123.88366 27.609308 1.919627
136.05185 27.792511 1.817085
120.1972 27.723902 1.754634
120.96804 27.733358 1.7994111
132.9877 27.66131 1.757969
133.28552 27.775623 1.6780469
135.81366 27.790102 1.767166
120.55695 27.770247 1.409776
121.79574 27.725975 1.403704
123.73553 27.6166 1.424291
120.48803 27.717064 1.343196
121.07396 27.754751 1.3716609
124.05156 27.618134 1.3027771
134.13275 27.772079 1.294075
120.19524 27.766636 1.041136
120.48561 27.653191 1.04243
120.98008 27.754082 1.047848
121.31723 27.734545 1.105706
121.80243 27.755764 1.024969
122.16302 27.777294 1.109199
123.89297 27.642658 1.004614
124.0106 27.638933 1.19524
122.65404 27.768768 0.92859501
122.9985 27.698948 0.88169998
123.35671 27.665604 0.90246099
121.77017 27.762897 -0.178122
120.5847 27.692749 -0.26167601
121.49944 27.710655 -0.29797199
122.23615 27.751593 -0.229624
122.75562 27.729862 -0.286293
123.03148 27.720228 -0.290189
123.42478 27.668724 -0.254199
123.8045 27.689472 -0.230529
120.58515 27.638731 -0.50797701
122.18716 27.780874 -0.414763
121.84231 27.778456 -0.68412298
122.6207 27.750721 -0.64879501
123.09602 27.753014 -0.67877102
123.44843 27.671537 -0.73721498
123.99507 27.751907 -0.78672302
124.09769 27.749397 -0.69304103
120.65433 27.700478 -0.97223997
121.00677 27.78068 -0.90789598
123.32048 27.748291 -0.86134899
123.66003 27.666365 -0.88172197
124.07724 27.654488 -0.950077
121.50435 27.704473 -1.002534
120.56627 27.661674 -1.297364
121.48075 27.758587 -1.296962
123.68694 27.730082 -1.5555151
124.07895 27.711874 -1.540042
120.90343 27.710846 -1.702831
123.7095 27.749023 -1.717435
124.15623 27.679659 -1.618011
120.89839 27.783318 -2.191777
120.63312 27.725628 -2.2096479
123.4142 27.700167 -2.281224
123.77257 27.737297 -2.3461061
124.10207 27.766678 -2.203578
120.61069 27.749329 -2.516577
123.7262 27.701405 -2.5601139
124.11511 27.676945 -2.51579
125.33268 27.747658 -2.867734
125.54066 27.741217 -3.595978
123.82564 27.798599 -4.4922099
124.1898 27.780962 -4.600883
132.13713 27.866463 4.0555429
124.92113 27.84651 3.8508451
135.1711 27.870283 3.7810471
132.4055 27.936428 2.0885489
136.73807 27.992794 2.1427219
132.8829 27.82423 1.874248
135.26736 27.831963 1.626056
122.26436 27.848965 1.309736
122.67087 27.904078 1.270378
134.41508 27.899868 1.248014
134.29684 27.886408 1.142326
125.37102 27.967915 0.86658102
120.12856 27.82675 -0.219455
120.95872 27.80669 -0.246811
120.20282 27.849329 -0.53040397
120.95972 27.813566 -0.50337499
120.60115 27.829226 -0.87343001
121.77095 27.916813 -0.96179998
122.76022 27.804136 -0.94847798
120.18076 27.843971 -1.005712
120.19527 27.863455 -1.381278
121.02563 27.803406 -1.482805
122.84676 27.926111 -1.567634
120.18979 27.909626 -1.762255
120.50699 27.801884 -1.7469651
121.51518 27.905701 -1.866061
121.91237 27.966385 -1.830307
122.99667 27.906013 -1.804329
121.41412 27.838537 -2.284138
123.02872 27.928268 -2.3737869
120.93422 27.803329 -2.5660419
122.56854 27.87829 -2.47351
123.37545 27.804453 -2.4962521
120.2076 27.872444 -2.648262
120.1002 27.893888 -2.8317361
121.34145 27.824305 -2.984839
122.5741 27.809479 -2.9929659
121.98055 27.898752 -4.3817649
120.26315 27.903553 -4.4925938
121.02123 27.84086 -4.5254941
124.6031 27.915775 -5.3375921
129.35432 28.059576 4.0720472
132.14525 28.159405 4.0626831
124.95521 28.176617 3.764945
124.75448 28.114538 3.124795
124.82967 28.165321 3.1983581
124.56986 28.193636 2.5738649
124.57713 28.100794 2.1266739
136.13766 28.157232 1.929467
135.57233 28.120958 1.661212
134.33495 28.191746 1.1356829
134.52942 28.12874 1.102657
125.3979 28.185133 0.86070502
121.76484 28.120396 -1.040789
122.24076 28.089674 -1.020107
122.4815 28.13448 -1.126629
121.64994 28.166454 -1.227574
122.18027 28.118359 -1.4397269
122.72538 28.151985 -1.5936019
123.26633 28.110718 -1.559233
122.5233 28.136089 -1.72253
122.13339 28.13006 -1.841722
122.54025 28.150352 -1.848227
122.03745 28.169828 -2.2519579
122.96168 28.054298 -2.366601
123.3033 28.106922 -2.4367099
125.34197 28.083702 -2.911921
121.86462 28.13681 -4.9315982
122.31705 28.172365 -4.8671989
122.43146 28.158176 -4.9308639
130.32556 28.242138 4.0709538
138.34752 28.30587 4.00529
132.60382 28.2019 3.9920981
135.02995 28.260431 3.7523761
135.07985 28.241222 3.5415061
135.24417 28.257944 3.346405
132.35567 28.344616 2.2303021
132.37012 28.386223 2.1167009
132.52545 28.330967 2.06706
136.69482 28.333063 2.146112
124.48905 28.382399 1.964752
133.31442 28.23822 1.663231
125.33133 28.270277 0.51926798
121.77562 28.207924 -2.333585
125.37894 28.213278 -3.2400091
139.12563 28.364117 -4.589766
139.25105 28.337656 -4.5368061
124.6148 28.298763 -5.4078212
126.47491 28.487988 4.1606598
126.89252 28.469646 4.1054821
128.82126 28.4224 4.1077909
136.18533 28.502382 4.0743041
132.45605 28.455435 3.9999709
133.85684 28.557793 3.7583439
135.0275 28.447096 3.6376891
124.76931 28.449484 3.4949839
133.01682 28.545242 1.809801
134.49146 28.534927 1.168432
138.84729 28.452007 -4.489912
130.07562 28.608604 4.0820332
124.96933 28.614895 3.9226551
139.47401 28.743774 3.967777
125.01073 28.713638 3.760901
135.7587 28.62476 3.7833381
133.55054 28.759415 3.501698
136.09859 28.667173 3.507242
124.69376 28.660221 3.0351591
127.11492 28.787544 2.996954
124.63245 28.729027 2.2196109
136.84151 28.611792 2.219609
132.49112 28.721781 2.103703
133.37885 28.646587 1.667432
124.55401 28.686798 1.30414
124.64335 28.618416 -0.876634
139.70061 28.71225 -4.3385859
125.49715 28.905989 4.0793948
132.23007 28.877726 4.0147042
132.99193 28.969667 3.6600859
133.40866 28.947582 3.699049
134.634 28.934517 3.7368021
132.96112 28.943014 3.501503
133.34808 28.865894 3.400816
134.91504 28.966976 3.4726219
124.66836 28.937073 3.1564441
124.59973 28.906502 2.61094
124.38458 28.863897 2.1893129
132.6575 28.956884 1.957487
135.76088 28.956867 1.754272
125.382 28.949444 0.94548798
126.36579 29.041393 4.1908689
129.78363 29.005993 4.0943608
124.99689 29.014469 3.9601469
132.53857 29.020159 3.4442739
124.81054 29.025442 3.190141
124.62646 29.179298 2.1641719
136.29497 29.079882 1.957914
134.27121 29.062126 1.3316391
134.509 29.019171 1.158163
139.33345 29.150654 -4.5840111
127.50355 29.311491 4.1247911
131.33029 29.353855 4.1341238
139.46268 29.362965 4.0280471
125.08998 29.251133 3.8547809
125.23663 29.320684 3.78844
125.1059 29.317219 3.391675
125.25746 29.384861 3.2277701
124.42651 29.377554 2.1561501
124.52341 29.218271 1.990602
125.15005 29.372681 1.346874
125.38711 29.336773 0.93825197
124.71471 29.295517 -0.837228
137.75833 29.295176 -4.7399158
137.87021 29.385036 -4.8037362
125.3716 29.430815 4.0219402
128.40041 29.400637 4.0871038
130.22731 29.420181 4.0838599
131.15775 29.575459 4.1355591
127.13689 29.545609 3.0519209
125.24767 29.421354 2.9139259
124.82874 29.431721 2.505096
125.31113 29.442106 2.465589
125.34846 29.514433 2.1374409
136.7175 29.496267 2.1514859
125.43976 29.428106 1.6811399
135.72415 29.465111 1.724553
125.39886 29.559135 1.434226
124.68454 29.540745 1.353786
125.3506 29.526608 1.359635
134.31961 29.521679 1.341608
125.46095 29.574541 0.50387502
125.26334 29.49218 -0.19687399
125.25888 29.513248 -0.67824501
125.1346 29.551939 -0.92484701
125.2798 29.518085 -0.88771898
125.32272 29.518242 -1.466959
125.17796 29.546635 -1.682358
125.33757 29.536467 -2.379535
125.16423 29.524012 -2.4342611
125.27751 29.519676 -2.5814149
139.41537 29.502697 -4.465806
137.53937 29.480167 -4.7370038
137.3367 29.45536 -5.9366531
128.3905 29.641577 4.0992541
129.2901 29.668163 4.1108379
130.22603 29.759134 4.1288261
132.13206 29.734476 4.0712738
139.41078 29.762877 4.018682
139.31924 29.670467 3.995707
125.32818 29.606369 3.0024331
136.23878 29.752783 2.019942
125.40212 29.69359 1.684636
124.94821 29.773033 1.311162
125.457 29.627972 -0.32409999
125.5575 29.635452 -0.67527199
125.46867 29.640451 -0.88040203
125.45454 29.664539 -1.501109
125.47218 29.635201 -1.69733
125.51825 29.6404 -2.3505449
125.38706 29.693466 -2.551183
139.10057 29.767929 -3.9086771
138.4808 29.649506 -4.8391671
131.03616 29.947342 4.1510191
139.02036 29.871201 4.0361609
132.97888 29.938297 3.7436979
133.44678 29.879402 3.768775
133.8887 29.868586 3.7297759
134.09402 29.849846 3.7943749
132.92761 29.91144 3.427501
133.306 29.911964 3.441076
133.81975 29.880651 3.521888
124.58415 29.894161 3.217165
124.81123 29.938332 3.241874
125.40324 29.848404 3.3150401
124.64442 29.961382 2.888238
124.90506 29.953514 2.9163051
124.69918 29.877558 2.4286571
124.7209 29.981298 2.188724
124.89751 29.952671 2.0926881
125.03918 29.976795 2.198102
125.26204 29.976377 2.056478
132.61508 29.890938 2.066432
133.6564 29.836727 1.6906281
124.72034 29.920074 1.391515
124.73748 29.952312 -0.17913701
125.10367 29.986214 -0.267627
139.849 29.987432 -1.325974
139.68803 29.976295 -1.96156
139.54135 29.973087 -3.2074981
126.26358 30.065277 4.2547088
129.06049 30.154747 4.1335688
132.05847 30.157713 4.097434
139.36246 30.152096 4.0250239
133.77504 30.181713 3.575774
125.25263 30.06284 3.261081
124.68095 30.001366 3.0557649
124.91206 30.008131 2.2358921
124.32969 30.069618 2.030514
124.64993 30.022911 2.109488
133.67711 30.101154 1.6881371
124.93211 30.010757 1.422527
124.64468 30.002203 1.2327009
125.44109 30.093437 0.056226999
124.88007 30.093479 -0.19919799
125.07585 30.072014 -0.214304
124.70641 30.101542 -0.757644
124.98899 30.106117 -0.784926
124.72801 30.100792 -0.99033803
124.87064 30.112574 -0.93424702
125.23497 30.118729 -0.98394102
124.9089 30.108269 -1.7341141
124.70827 30.150137 -1.8165261
139.56306 30.06889 -2.211926
139.63412 30.013756 -2.2245829
124.75397 30.149179 -2.616297
125.07366 30.166676 -3.0529389
125.20953 30.183456 -3.3361261
139.44531 30.039076 -3.228009
137.82419 30.143211 -6.0516381
129.5164 30.330524 4.1004882
130.79749 30.345636 4.1469421
136.61304 30.255661 3.783241
136.52228 30.394396 3.2651711
136.90256 30.278584 2.242506
133.28235 30.230009 1.788295
138.61183 30.291117 -3.968013
138.98096 30.202251 -3.9591
138.90869 30.245335 -4.0580859
124.99785 30.266897 -5.049262
124.69336 30.284264 -5.7708211
127.05518 30.431759 4.1993089
132.85866 30.461136 3.7582331
135.88034 30.538572 3.6743541
132.68062 30.550482 3.4895761
135.78223 30.54353 3.55667
136.53613 30.458197 3.414443
133.68408 30.431786 3.396744
132.91743 30.423901 3.035275
136.44177 30.417482 3.0539999
132.82294 30.447559 2.6139801
136.39474 30.431036 2.7817919
132.83339 30.466576 2.537375
136.51396 30.426813 2.539629
132.6889 30.574947 2.078059
133.00928 30.446514 2.1573429
133.29317 30.413548 2.135288
133.85333 30.412689 2.17028
136.27847 30.43786 2.0975111
133.17963 30.529043 1.84014
133.67351 30.597916 1.656106
134.69505 30.444672 1.753545
135.43533 30.467758 1.659802
134.25534 30.502937 1.562199
135.27878 30.595066 1.547811
134.60046 30.506891 1.392781
138.37666 30.554253 -4.1594791
137.73161 30.407467 -6.0716701
138.3546 30.614998 4.1204991
132.34047 30.653683 3.6641669
132.59288 30.689259 3.730808
137.4704 30.678104 -5.054955
128.24472 30.852417 4.15273
130.62077 30.988976 4.189291
132.82341 30.853369 2.0742049
133.51904 30.881731 1.675535
133.66798 30.949986 1.672591
129.69061 31.06937 4.1797609
138.53265 31.011797 4.159389
139.33949 31.027111 4.061605
132.23204 31.135462 3.720557
132.96948 31.019115 3.726902
125.72258 31.399792 4.25704
137.05539 31.326675 2.340766
132.84393 31.360765 2.0828691
