# .PCD v0.7 - Point Cloud Data file format
VERSION 0.7
FIELDS x y z
SIZE 4 4 4
TYPE F F F
COUNT 1 1 1
WIDTH 943
HEIGHT 1
VIEWPOINT 0 0 0 1 0 0 0
POINTS 943
DATA ascii
134.88234 40.116398 1.6263551
134.95009 40.196484 1.542698
134.15051 40.352543 3.939203
134.92435 40.594589 1.619449
132.87369 40.665836 2.548147
133.55252 41.094929 3.9772739
132.94281 41.034912 2.5517559
134.95554 41.062073 1.612185
132.94925 41.370548 2.55145
134.97273 41.377754 1.607071
133.00911 41.767189 2.5544119
134.97693 41.823635 1.598819
133.25414 42.041054 3.790062
136.88358 42.077675 3.204561
136.85854 42.046349 2.926868
133.04626 42.127937 2.5560069
133.08029 42.524452 2.5573261
133.13507 42.924782 2.5599599
137.04385 45.188927 3.3510361
136.96317 45.211308 4.12675
139.53375 49.477356 -1.384631
139.73648 49.905617 3.0970311
139.84573 49.808502 1.519354
139.44266 50.191612 3.1332681
138.89499 50.155312 1.462665
139.79892 50.224785 1.507792
139.26991 50.425953 1.4760621
132.70622 40.19548 2.601557
125.66904 40.10677 1.892289
134.93391 40.120552 1.567768
128.33659 40.017384 -0.47238499
125.74067 40.030689 -1.204978
125.64514 40.301567 3.979099
133.7709 40.221436 2.1442671
125.76012 40.399796 -2.2642241
134.18259 40.402714 4.009809
127.40785 40.710484 4.5739951
125.86115 40.62669 -4.3897958
133.25684 40.735882 -6.900969
138.94583 40.802994 4.4712372
133.85776 40.98962 2.1495171
139.26738 41.04356 4.5142288
133.44211 41.034019 4.1490979
133.6162 41.133354 3.8344131
134.2962 41.135834 1.928861
134.57542 41.023834 1.830996
134.9561 41.150589 1.581255
133.96643 41.191528 -7.1749649
132.94852 41.782166 2.5969269
133.34009 41.986923 4.2286878
133.41045 41.997932 3.5657859
133.34677 42.02774 4.0985169
136.96809 42.055325 3.3244259
133.25774 42.066456 2.9721971
136.94727 42.047062 2.709054
126.26009 42.483681 4.6400928
125.58758 42.50782 4.126945
125.84852 42.566547 3.8301089
125.77369 42.536819 3.0676329
125.73745 42.558231 2.5514221
135.05203 42.580597 1.700947
128.79491 42.591915 -4.7660322
134.63406 42.61739 1.922647
125.76982 42.612778 -1.325989
134.67677 42.820438 1.823341
126.08503 42.910465 -3.464375
125.84827 43.132629 4.2429819
133.52295 43.068783 2.519845
125.57232 43.157761 -0.252033
125.98068 43.144848 -2.443521
134.08621 43.389252 2.165375
134.85211 43.394314 1.8762701
137.41399 43.565746 2.714469
130.41798 43.486263 -4.8616228
137.38364 43.510586 -7.4222531
135.23434 43.727531 1.6403919
128.91988 43.776733 -4.1930299
132.86955 43.919613 2.6043379
137.36618 43.801647 2.7111771
134.56586 44.15741 1.987659
134.47638 44.512634 1.994992
133.35196 45.076523 4.224544
137.09796 45.18811 4.119463
137.08081 45.188126 3.818434
133.40437 45.137611 3.027775
133.72041 45.190784 2.5377879
134.6131 45.040421 1.989849
136.98183 45.204941 3.4085829
134.17587 45.393539 -6.4617209
128.38922 45.555721 4.63766
126.2521 45.413086 -2.5287859
127.31019 45.948906 4.45643
129.4857 45.850613 -4.147779
128.60698 46.128849 4.5611591
128.17636 46.547653 4.600101
135.91135 46.924793 -6.9360242
127.43455 47.083729 4.1795301
131.93967 47.859116 -4.2789192
137.85387 48.071602 -5.79456
138.13753 48.305168 -5.7676291
126.28956 48.93417 -0.709001
139.948 49.081604 3.485765
139.83563 49.060959 -3.745003
139.99007 49.216171 3.615073
139.60889 49.393375 -2.0908771
139.67445 49.370708 -2.584512
139.73732 49.247501 -3.335161
136.57176 49.353973 -4.2429008
138.96643 49.370468 -5.8815212
138.96095 49.343464 -7.2069569
139.95142 49.451496 2.9747269
139.48026 49.595551 -1.073746
139.54924 49.463341 -1.4982311
139.51743 49.410263 -1.8588279
137.13278 49.561501 -3.8246579
134.38617 49.774826 1.98025
134.56577 49.750305 1.983857
139.63176 49.680832 -0.729518
139.62354 49.793835 -3.994895
139.27693 49.694115 -5.191988
139.21274 49.669128 -5.5966802
139.85002 49.977959 3.727494
139.80087 49.900051 3.356472
135.37131 49.862251 1.8385431
139.80789 49.842693 1.326044
139.48654 49.957474 0.93867302
139.36649 49.835377 0.30884299
139.87447 49.83905 0.32909599
139.94205 49.823177 -0.883026
138.79097 49.916 -1.082056
138.70209 49.924011 -1.492072
139.92953 49.918713 -1.502544
138.51315 49.975296 -1.7358789
139.82832 49.927593 -1.6409301
139.95621 49.972256 -2.484046
138.24078 49.956421 -2.6253531
138.48434 49.929863 -2.616045
139.71606 49.897903 -2.955375
139.56284 49.850845 -3.823936
139.55603 50.172321 4.304975
139.65936 50.074253 4.2824111
139.68288 50.146637 3.801378
135.08461 50.159416 3.299736
139.55502 50.185349 3.354089
134.91325 50.188568 2.0997441
138.90706 50.177406 1.440963
139.71364 50.126663 1.480516
137.59535 50.124172 -1.508975
139.42212 50.236382 3.117276
139.03299 50.222275 1.670036
138.75256 50.255405 1.453074
138.53224 50.338848 -2.9990871
138.36383 50.385345 -3.1120119
138.56493 50.372009 -3.3921211
139.45734 50.466434 4.3225188
138.79004 50.493477 0.94418699
137.02061 50.490864 0.541408
138.90846 50.536915 -0.100885
139.47559 50.520233 -1.656468
139.47476 50.639236 1.329816
138.10571 50.621838 -4.6277118
138.03149 50.631958 -4.8480172
137.27991 50.930382 -3.610934
138.78641 51.132683 0.96740401
138.63995 51.356667 0.26616901
138.40254 51.554417 -0.080637999
138.42123 51.605862 -0.485636
138.2316 51.696777 -0.97785902
138.10001 51.781036 -1.206429
137.73178 51.933865 -0.83527499
138.13396 51.840935 -1.783917
137.95744 52.012856 -1.259883
138.68175 52.275681 0.93649399
135.12842 52.569199 1.801988
135.36221 52.982697 3.4169669
127.31734 52.980183 0.52927899
136.94765 52.825844 -1.9215471
139.9984 54.452694 -5.1007528
139.983 54.443275 -6.1998501
139.68867 55.401211 -6.0089502
135.42271 55.793907 2.8850579
135.45615 55.823315 3.5025899
126.28257 40.023304 3.4092381
137.34062 40.171539 2.7153151
125.82118 40.186882 -0.530909
133.02394 40.116467 -7.5443392
133.79471 40.071205 -7.4865608
126.4966 40.278793 4.6021619
125.73849 40.241226 3.5947151
125.69467 40.275772 3.074924
125.69132 40.241547 1.943489
134.1806 40.302361 1.960158
134.50839 40.208721 1.796865
125.91492 40.265945 0.43573499
125.36325 40.289497 -0.65379
125.81987 40.210243 -1.3497699
125.77252 40.301594 -2.3081019
125.90936 40.205688 -2.4565499
132.65137 40.208176 -6.8897882
134.97566 40.286144 -7.5129008
125.3842 40.481625 3.7234049
134.97617 40.547333 1.615944
125.75143 40.467709 -0.175347
125.56288 40.487976 -0.46506599
125.8134 40.583405 -1.850222
125.9277 40.405247 -2.7508509
127.21368 40.588356 -6.941967
133.91046 40.562637 -7.4617772
126.59472 40.71244 4.1276002
126.15411 40.695496 3.008353
133.31117 40.705383 2.5003271
125.78046 40.606995 2.34635
136.55879 40.613422 2.2745531
125.82483 40.637272 -2.3787069
124.78316 40.687408 -3.9388239
135.42097 40.750343 -7.9203219
132.88051 40.987663 2.590724
134.24405 40.888741 -6.8295531
134.31937 40.987946 -7.6352482
134.05682 41.00058 3.831965
135.00357 41.041996 1.609165
127.77864 41.04578 -4.3009601
134.53259 41.079544 -6.8467979
133.11482 41.02702 -7.0042019
133.38036 41.138447 -7.0069261
133.8114 41.382515 2.235029
134.62466 41.397469 1.794313
134.66603 41.264317 -6.5898099
133.86238 41.246155 -6.6099768
132.7691 41.554726 2.600682
133.3985 41.493931 2.5077541
135.12036 41.510929 -6.6065168
134.00963 41.541004 -7.8028488
128.49251 41.964859 -4.2909598
133.19989 42.059052 3.781441
137.81613 42.093861 3.477675
128.75131 42.160099 -4.2959509
126.45479 42.229057 4.632771
133.88747 42.396553 2.2422781
134.85214 42.247749 1.7648849
128.90823 42.341385 -4.7272601
125.65132 42.542431 3.5262301
132.92316 42.538422 2.607836
125.7802 42.549667 -0.224123
126.41208 42.690639 4.6830268
128.1969 42.787102 4.7601271
137.38507 42.796059 2.776032
125.48274 42.784931 1.940192
125.94371 42.700356 1.688552
125.93731 42.656803 -1.610499
132.8279 42.903343 3.792078
133.00471 42.957329 2.5898221
133.10378 42.861408 -6.1152372
125.46712 43.071819 1.506338
125.46043 43.161427 -0.73582602
125.55285 43.003712 -1.853775
128.86162 43.096935 -4.3989978
134.38515 43.392128 1.988904
125.58071 43.273472 -0.54468602
125.65014 43.247906 -1.6605411
125.56349 43.243858 -2.4790969
125.96969 43.268639 -4.692637
130.17229 43.301094 -6.382144
126.13796 43.43647 3.1299679
127.90685 43.582664 -5.4988379
137.34032 43.54475 -7.3199568
129.1769 43.405556 -8.1934719
135.00075 43.617184 1.759104
132.23991 43.738766 -5.1567769
127.77428 43.602264 -5.511065
137.34634 43.843239 2.8257439
134.24303 43.886101 2.0825329
132.27499 43.951996 -5.2495699
131.74516 43.930168 -5.7687531
132.17459 43.910645 -5.7418199
132.22842 43.821079 -6.31634
132.76837 43.924622 -6.2986932
137.5816 43.987301 -7.2759299
134.97174 44.06337 1.816803
126.04662 44.160286 0.92058003
129.79596 44.051178 -5.9770279
136.32779 44.08123 -7.2826838
133.68211 44.370525 2.5329411
130.71709 44.294231 -5.0263052
129.52858 44.324562 -5.955111
136.47795 44.312687 -7.3161478
129.74373 44.321495 -7.5333791
135.308 44.387108 -7.7163229
134.27647 44.416954 2.083997
130.91084 44.516884 -5.0410409
127.4136 44.408085 -5.6407232
135.33426 44.496387 -7.4842792
135.24309 44.788124 -7.1406989
134.77921 44.799686 -7.4926982
136.4111 44.764648 -8.5943222
134.79156 44.903351 -7.186316
133.40085 45.091774 4.4956369
133.42426 45.071453 3.7978301
133.40028 45.109753 3.08707
134.08235 45.169582 2.909688
137.05107 45.184162 2.984045
132.64948 45.17907 -5.3186331
130.08308 45.005409 -6.7178612
136.92203 45.067566 -7.5001011
136.98123 45.201965 4.408185
127.33191 45.952988 4.529006
125.87762 45.850822 -6.488461
128.99066 46.058372 4.5894279
130.01022 46.057163 -4.0947471
130.11247 46.267696 -4.955071
131.40491 46.587292 -5.5774379
135.66946 46.542198 -7.1942549
129.77147 46.701012 4.7147121
137.24559 46.614323 -7.7575498
134.52554 46.841042 -6.316371
137.03392 46.938293 -7.195931
126.5611 47.014671 4.6174002
127.44858 47.06646 4.2143612
126.24765 47.303551 4.617065
130.30461 47.281097 -2.985858
130.44057 47.343739 -3.1388569
137.58231 47.284286 -7.8594151
136.08313 47.667915 -6.241097
137.0267 47.767673 -8.5949621
132.08887 47.910412 -4.2792459
127.81529 48.192032 4.0203862
134.48613 48.153774 -6.9163289
133.13097 48.317612 -4.4988432
133.27408 48.418816 -4.5011611
138.35928 48.466587 -7.6145892
126.13347 48.608646 3.4810309
139.97437 48.741058 -4.5415492
137.00592 48.730648 -7.18502
134.02702 48.874374 -4.5058508
136.87828 48.912899 -7.2205858
135.31926 48.867077 -9.1285601
136.84146 48.984592 -9.4234009
139.94141 49.192581 -3.213428
136.81033 49.193268 -4.3351369
138.90833 49.081169 -7.0709181
126.93403 49.368889 4.3685679
139.55719 49.32032 -2.992063
139.73085 49.311657 -2.8230979
139.11322 49.275848 -8.3952503
138.89 49.246536 -8.8042526
138.74767 49.21563 -9.0251284
139.88843 49.575268 -0.34698299
139.71678 49.50082 -1.144946
139.73174 49.405396 -1.886511
133.10265 49.4025 -3.2935901
137.92914 49.554859 -3.8834391
129.46237 49.565704 -5.3684969
133.80884 49.442371 -5.359869
134.30241 49.513756 -5.2837029
139.32541 49.549553 -6.2544341
139.04243 49.442062 -7.4293342
135.00217 49.753056 1.808399
139.84073 49.789562 1.7073621
139.71323 49.690327 -0.25547799
139.59271 49.785355 -0.507411
139.48227 49.685402 -0.894921
131.65387 49.706718 -3.042974
137.4537 49.704308 -3.4869649
137.7045 49.70853 -3.424902
133.58208 49.673107 -4.3102942
138.23799 49.743095 -4.3222079
134.72467 49.679577 -4.4969459
131.92128 49.651325 -5.6163459
139.31604 49.631802 -5.8541522
136.82141 49.720516 -6.0731459
135.17404 49.736683 -9.3079348
139.38138 49.832989 0.22145
139.4305 49.816475 -0.25472701
138.53627 49.962555 -2.1317959
138.19733 49.963009 -2.229805
138.57896 49.951385 -2.5559549
138.20442 49.918324 -2.67365
137.83606 49.847961 -2.979497
138.11465 49.859829 -2.928468
139.71077 49.806892 -3.335072
137.70476 49.823524 -3.8034921
139.52531 49.847301 -3.89167
139.65973 49.809864 -4.242188
136.91621 49.832062 -6.405901
138.73479 49.851624 -7.2036772
139.57068 50.122501 4.2004828
139.78366 50.048454 4.1959562
135.29596 50.15184 3.401015
135.58769 50.156643 2.6570511
135.47029 50.170204 2.0552349
139.49858 50.107243 1.494905
139.69257 50.104313 1.475365
139.96146 50.021984 -0.83197403
138.06694 50.119389 -1.267289
137.57684 50.076725 -1.503316
139.05765 50.019291 -1.7549911
138.6098 50.033398 -2.1861751
138.07513 50.064484 -2.5313561
139.67892 50.06794 -3.0058241
139.46188 50.247879 3.6781559
136.05568 50.230251 2.073797
135.29211 50.204128 1.822984
137.25571 50.300922 -1.863851
139.24162 50.396809 -3.0533471
133.6675 50.237518 -4.0650759
139.51128 50.445808 3.856241
139.39682 50.474552 1.679621
138.79506 50.468872 -0.201737
139.35762 50.575211 -1.427794
138.33865 50.421303 -3.510886
138.23758 50.469627 -3.8993161
138.73697 50.533886 -9.0593414
139.84079 50.686909 -1.407578
138.11613 50.662971 -5.0085559
135.65529 50.62199 -7.5585709
139.01756 50.924671 1.6698329
137.85133 50.965328 -2.85465
130.39426 50.962986 -4.885397
138.85849 50.878777 -5.7292681
138.99431 50.902206 -9.7113895
126.82835 51.230637 4.321878
138.4048 51.526482 -0.148661
138.4426 51.548592 -0.54066801
138.77742 51.597767 -1.862435
137.89848 51.565109 -2.385186
137.04359 51.452984 -3.1505949
138.0806 51.415226 -7.161921
138.23586 51.66993 -0.56163901
139.04053 51.649269 -3.917062
137.59744 51.649773 -7.2209158
137.55388 51.940376 -0.84628803
137.841 51.900414 -4.2189989
125.92823 52.009529 0.535653
137.96077 52.074863 -1.319337
126.55327 52.598358 -0.40485999
137.74884 52.652332 -2.7418129
135.18242 52.946777 3.3789461
126.65322 52.990784 1.428908
127.37429 52.995296 0.58880597
135.58025 53.012592 3.781554
126.11198 53.165913 -0.43670699
124.87416 53.28046 4.508904
125.06004 53.246735 4.5163889
125.27386 53.241707 4.115262
126.12439 53.308346 3.06023
127.72609 53.396523 0.148293
139.98053 53.91362 -3.3828621
138.55159 53.862846 -7.5150361
139.93193 54.174244 -5.3886042
139.25694 54.2234 -7.5382099
138.1884 57.210472 -7.0676718
134.05716 58.200924 -3.9666679
125.81104 40.043594 2.5170181
126.25952 40.089863 2.355068
134.95451 40.138474 1.621803
125.77328 40.073433 -1.967649
134.26874 40.178162 -7.8734221
125.41307 40.253777 3.4046869
126.54382 40.238556 2.9982629
133.26767 40.327324 2.4966769
125.83218 40.308571 0.87008399
125.36102 40.39563 -0.19834
133.43301 40.340767 -7.869482
126.33074 40.570366 4.5119629
125.79388 40.520317 3.417942
126.39508 40.518791 3.441643
124.99251 40.459026 3.38413
125.20233 40.444302 3.3912239
125.29945 40.477909 2.598357
125.03687 40.503181 2.306006
133.9068 40.594856 2.0659621
134.58493 40.512863 1.818669
125.84735 40.450874 1.644631
125.35407 40.441307 1.460613
125.41163 40.49691 -1.248975
125.80488 40.536636 -1.2723401
132.16763 40.511032 -7.4587889
133.14062 40.587498 -7.6748061
134.77574 40.599228 -7.9274402
127.13617 40.64822 4.5497699
139.20529 40.688866 4.5772638
132.7261 40.605453 2.6058969
126.41917 40.678379 2.3818481
125.45225 40.623848 -0.50413197
125.70751 40.666195 -1.868571
125.54508 40.761887 -2.080467
127.49935 40.748291 -3.8467209
127.69786 40.799271 -3.984951
124.79908 40.725735 -5.1457748
134.01843 40.781055 -6.8236008
134.35138 40.92704 2.020092
125.20535 40.825951 -1.891443
125.45113 40.869282 -3.413882
127.76054 40.964958 -3.9067039
133.3923 41.082241 3.828126
135.64851 41.133572 -7.9016972
135.08835 41.377457 1.619544
126.05746 41.341164 0.607072
137.43651 41.526356 2.7517459
134.20604 41.599682 1.981251
134.97299 41.517181 1.577606
135.5692 41.63813 -7.7361259
134.22572 41.896275 1.976193
135.01463 41.880653 1.5855941
133.13562 42.061638 4.2899418
136.94501 42.02676 3.794282
133.43814 42.11187 3.204144
133.19933 42.104305 2.9709189
136.97327 42.044197 2.983315
132.89413 42.10952 2.6036301
133.93939 42.106064 2.7973411
135.22919 42.000248 2.22929
136.10115 42.00066 2.2834461
134.0759 42.191826 2.074347
133.2551 42.038818 -7.092464
133.46771 42.285522 2.5141981
133.53848 42.248062 -7.8140788
125.16187 42.524277 4.5189109
125.31579 42.524261 4.5807261
125.4901 42.516392 4.218184
125.81165 42.531441 2.6490819
132.03255 42.542259 -5.8318172
126.24844 42.78656 4.2596841
126.3894 42.713703 3.5650229
134.12303 42.757416 2.076576
134.32706 42.771679 1.985341
125.9526 42.610493 -0.50186098
125.7493 42.631065 -1.34743
125.76052 42.662613 -2.424408
132.48145 42.745796 -6.2110052
137.29495 42.634354 -8.122324
128.35852 42.836342 4.7778568
132.79543 42.907845 4.0075679
125.91877 42.906292 3.90413
132.2583 42.907578 -6.2501602
136.22223 42.804585 -8.2087975
127.02173 43.044979 4.661984
125.5976 43.174347 1.676868
125.73033 43.157097 -0.53181499
129.9478 43.007462 -5.0293422
130.17285 43.115643 -5.0133719
128.93462 43.223164 4.5124369
126.05251 43.382271 2.455693
131.49704 43.355343 -5.1532311
137.35757 43.534492 2.8271201
133.59843 43.521679 2.525507
132.02068 43.495857 -5.2066741
131.21231 43.443768 -5.7323852
136.543 43.498894 -7.452992
135.58975 43.541344 -8.0654316
126.01771 43.630455 0.91862601
128.30304 43.73423 -4.5133071
130.31625 43.765423 -5.829946
137.98541 43.677097 -7.1317291
132.84801 43.982376 -5.1516132
131.57413 43.898952 -6.944767
135.62871 43.962948 -7.2979822
127.49297 44.001862 -4.8535199
130.88553 44.092651 -5.2875791
132.04051 44.033443 -6.436409
137.71136 44.055294 -8.0594263
131.27696 44.397453 -5.3020248
130.45995 44.261223 -7.0719199
131.75664 44.328899 -7.0033698
133.69817 44.782467 2.5352011
134.29944 44.927734 2.084873
135.67143 44.980091 -7.149106
136.53017 44.943703 -7.1014748
135.62442 44.898373 -7.5392509
133.52304 45.12233 3.254612
132.95013 45.122578 2.6289909
135.14854 45.039936 1.75266
130.1873 45.173431 -4.3174868
131.32973 45.128368 -5.957973
131.66437 45.123009 -6.2399359
137.04181 45.021584 -7.7195082
137.92709 45.22485 4.8111491
136.98563 45.214497 4.0640702
137.33173 45.387268 -7.1374722
134.24431 45.414242 -5.897481
126.14387 45.777607 -2.7049789
129.47762 45.777939 -4.1217051
129.87665 45.941853 -6.48524
137.70067 45.965401 -7.5499921
136.99136 46.171021 -8.5096111
128.61987 46.270149 4.6390448
128.16135 46.301353 4.5286522
135.51227 46.34621 -7.726871
126.18512 46.540741 -2.3166461
130.07547 46.497177 -4.4947639
129.59343 46.724567 4.6408639
126.16833 46.797356 1.6013499
126.28321 46.657059 -6.4863739
129.46562 46.861404 4.730453
135.03783 46.934414 -6.0773649
126.85032 47.00214 4.6609859
130.23407 47.110828 -4.1863861
130.58182 47.304153 -3.1542449
131.08792 47.548717 -4.1747522
125.12168 48.035042 -0.372293
125.65137 48.232662 3.338762
133.80711 48.379078 -4.4099841
134.02748 48.469833 -5.665143
139.20631 48.570702 -7.9444828
138.51401 48.438011 -8.3056698
138.74556 48.722397 -7.4240608
138.90051 48.973915 4.737165
133.47774 48.872044 -4.4728651
134.52753 48.965466 -6.4030099
132.99741 49.084263 -3.989686
138.7757 49.052311 -7.1661839
139.85071 49.323074 3.332309
139.89607 49.338726 2.888231
139.49979 49.380611 -2.247375
132.48805 49.254837 -3.524621
136.65103 49.381378 -4.1347728
135.77396 49.357395 -4.807333
136.94263 49.310032 -5.0613928
139.12718 49.355618 -7.1071229
134.21985 49.2421 -8.3893375
137.00583 49.417915 -4.1807408
136.94363 49.522995 -4.7690072
134.66084 49.548161 -5.3264599
136.97017 49.468628 -5.2092309
132.70334 49.445026 -5.5409508
139.8584 49.768173 0.96894503
139.89423 49.774803 -0.101854
138.17348 49.714478 -3.8878729
137.44423 49.689369 -4.7647052
139.43057 49.70755 -5.0209451
139.166 49.6404 -5.9605179
138.83777 49.60733 -7.7887039
139.84598 49.938522 4.32655
139.80447 49.828083 3.0371461
135.90979 49.867363 2.1739881
139.85553 49.814602 1.4440531
139.34372 49.868008 0.47042999
139.21782 49.886608 0.083929002
139.02426 49.887524 -0.34808099
138.90916 49.904377 -0.93850797
137.39845 49.891552 -1.832226
139.88371 49.847176 -2.5546429
139.72296 49.856979 -3.8597209
139.48164 49.833027 -4.2461109
136.12331 50.165264 4.464035
139.80125 50.089626 3.8724861
135.23456 50.133347 3.6426821
139.66046 50.037441 3.372638
139.65228 50.135929 1.695518
139.06158 50.172207 0.94958901
138.56313 50.058384 -1.462706
137.73402 50.196415 -1.8329231
138.13214 50.035431 -2.210793
139.70552 50.134888 -2.451076
138.51231 50.11554 -2.724124
136.94246 50.334553 0.45857301
139.1382 50.243874 0.57920903
138.5652 50.339661 -0.58224702
138.30672 50.270607 -0.90477699
137.98404 50.241508 -1.124966
137.91608 50.219749 -1.280901
133.47176 50.208832 -4.295269
139.46382 50.444923 4.2149558
139.35112 50.451164 0.80897897
138.98398 50.444717 0.054315001
139.87888 50.569077 -0.87197298
138.41293 50.464397 -3.8310959
139.00233 50.599358 -4.3760891
138.53461 50.557667 -9.2979269
135.26541 50.775784 1.700085
139.5323 50.682961 1.348176
138.75702 50.626179 -1.02856
139.97714 50.751682 -2.543458
138.00461 50.68309 -5.3945069
138.95003 51.085548 0.91096598
137.32292 51.265827 -6.8204598
137.06627 51.328144 -8.1710091
135.67783 51.444202 4.5130229
138.30611 51.596329 -0.46032301
137.59485 51.578793 -2.887548
139.02348 51.682846 -0.53359401
135.11482 51.868992 1.804613
138.13582 51.819023 -1.384689
139.16051 51.948067 -1.513242
138.25636 52.017372 -2.6797199
137.79828 52.244297 -1.626316
137.14377 52.307674 -6.910059
125.14357 52.53656 3.724262
126.39805 52.530853 3.676084
125.7282 52.65398 4.100801
127.36741 52.795395 1.462575
136.8345 52.903793 -2.0563071
125.58343 53.142807 3.5585859
135.17773 53.032265 2.8459449
135.38089 53.035545 2.858063
126.91138 53.011497 1.442044
134.89624 53.103363 -6.989995
134.45741 53.237038 -6.3206449
125.1053 53.408356 4.6114831
124.80494 53.620689 3.936466
125.4789 53.756268 3.704515
139.99077 54.166813 -4.694737
138.66994 54.103867 -7.1741719
138.77237 54.106277 -7.270927
126.62063 54.279488 3.6283951
139.82767 54.228745 -5.0357342
139.18176 54.234112 -6.9434781
133.70161 54.57093 4.8759351
139.59471 56.146629 -7.2041488
133.91397 56.604862 4.8686442
127.99823 59.948971 -12.285545
125.64256 40.001335 4.1008272
125.53892 40.01619 3.9148901
125.7473 40.069649 1.476552
126.53766 40.187363 -0.29171899
125.92998 40.174759 -0.58646798
129.45468 40.010132 -0.63534498
129.15613 40.11652 -1.088066
125.63542 40.39642 4.484169
134.19951 40.358067 3.8849349
135.01648 40.360943 3.839633
132.8253 40.265678 2.5459239
125.8366 40.234161 -2.180757
127.40879 40.39603 -6.89816
133.10884 40.381695 -7.8981462
125.32062 40.491123 2.317817
125.55656 40.456581 1.933056
134.0943 40.483349 1.976474
134.93896 40.597134 1.587164
133.22261 40.500992 -7.607213
126.01234 40.614479 0.60868698
125.41437 40.60635 -4.9642329
133.76115 40.741379 -6.831831
133.31911 40.649944 -7.3978672
126.6075 40.828396 3.026227
125.92216 40.856453 0.43153799
125.97037 40.984177 -2.7922821
133.01474 41.143929 3.9510491
134.81705 41.068073 3.8695681
132.73026 41.1036 2.5943661
133.34778 41.093456 2.5036321
133.84436 41.092461 -7.067348
132.89285 41.360397 2.5924311
134.37718 41.258858 2.016829
134.70107 41.429817 -7.743187
136.44225 41.787991 2.2063639
133.93672 41.771469 2.155292
125.97061 41.774712 -2.4465799
133.42398 41.889122 2.510473
134.56888 41.818329 1.891927
132.9588 41.929756 -7.132823
135.07236 41.906292 -7.548255
133.31592 42.04541 3.775733
136.7774 42.093155 3.3179779
137.00534 42.041092 3.3771269
133.27374 42.037727 2.996474
134.7532 42.027302 2.0216961
134.60562 42.191582 1.822287
133.69774 42.16188 -7.671031
130.12775 42.275368 4.529542
134.28062 42.212135 1.98462
135.01393 42.322655 1.569748
126.19476 42.589905 4.6565642
125.83096 42.526348 4.1766119
125.81345 42.586903 3.797801
133.85458 42.49527 -7.2172799
133.66878 42.418182 -7.956471
126.52545 42.79887 3.575438
133.50232 42.688438 2.5174439
125.88118 42.632553 1.590454
125.82983 42.645336 -4.629612
129.707 42.821445 4.5380182
133.9693 42.969536 2.248513
130.66284 42.903103 -5.9785862
132.50465 42.813263 -5.8413239
129.74922 42.922298 -8.7434702
125.4569 43.105877 3.802196
125.30592 43.106041 3.5444429
125.21844 43.16621 3.1965261
125.95097 43.157463 2.8125629
125.46421 43.139568 2.7111421
134.94585 43.171692 1.760646
125.8549 43.072853 -0.232127
126.07117 43.315605 3.585891
125.27217 43.20908 2.4063821
132.28108 43.377163 -7.0785809
137.58223 43.307793 -7.7064171
132.9068 43.476295 2.625932
134.58557 43.42358 1.9772969
126.95058 43.482956 0.81449503
130.42136 43.423447 -4.8956451
131.86316 43.576927 -5.1590371
132.37964 43.504074 -6.2582779
134.40968 43.657127 1.991393
128.65439 43.657772 -3.954638
128.61176 43.640354 -4.1874051
130.54364 43.682442 -4.9617052
127.29287 43.724995 -6.0176568
133.63167 43.95739 2.5287881
129.01184 43.946655 -3.812216
135.70163 43.879757 -7.901083
132.92874 44.167732 2.6209109
132.60918 44.063953 -6.4043741
135.0032 44.598751 1.815068
129.29405 44.490578 -5.992537
132.93834 44.611935 2.624537
126.05827 44.629406 1.30995
135.56598 44.825958 -7.1292219
136.38899 44.994602 -7.1165552
137.07153 45.180771 3.3339341
137.24713 45.170761 2.934876
126.11707 45.193478 -2.6672969
137.97717 45.223427 3.6302741
137.04066 45.207199 3.4854701
136.98605 45.221077 2.9484589
126.09532 45.268215 1.318561
130.72578 45.311951 -6.0185528
136.22256 45.227547 -7.4913001
129.20715 45.4091 -4.127481
137.52275 45.566853 -7.4876881
129.40109 46.245201 4.627954
127.83024 46.675388 4.5528021
130.80679 46.730553 -5.6338682
130.67047 46.971287 -4.2032189
135.68753 46.997894 -6.2301831
134.70605 46.961777 -6.6515212
132.97633 46.899605 -7.6413779
135.78459 47.179436 -6.6940069
137.13934 47.146633 -7.4465151
131.41824 47.42823 -4.1412649
136.88013 47.575272 -6.255528
138.37386 47.413048 -7.7757349
127.44489 47.602352 4.1294332
131.78033 47.74157 -4.2135272
127.85259 47.864998 4.0482831
138.09682 47.899349 -7.8743062
136.43207 48.053474 -7.6393399
128.26823 48.334347 4.2167501
127.55424 48.27306 4.0157709
125.53895 48.230198 3.2929201
126.22547 48.486492 2.958426
136.29996 48.460693 -5.9195962
125.6537 48.684502 0.35433501
138.32706 48.683949 -5.8606
125.76656 48.930782 0.35906401
139.92798 48.885559 -4.2107038
132.94035 48.86013 -5.7786102
139.8945 49.040417 -3.752223
134.56116 49.001377 -4.43401
139.88556 49.254242 2.5451729
139.69029 49.372627 -2.2417631
139.64554 49.34594 -2.5943749
136.17374 49.372269 -4.5997219
135.87891 49.336021 -5.3396678
139.07007 49.377838 -7.7387371
138.96005 49.286045 -8.4951572
139.94504 49.535614 -0.479173
139.55258 49.458294 -1.427119
131.71147 49.568581 -3.201144
137.29521 49.543301 -3.796809
137.09518 49.561516 -3.8178091
131.1324 49.532192 -4.6888061
133.02107 49.409893 -5.5167861
133.24457 49.420769 -5.504365
136.34247 49.467003 -5.669353
139.15926 49.482788 -6.4657688
133.94075 49.761265 2.267518
139.81676 49.788128 0.22413699
137.90671 49.774788 -2.100693
137.37573 49.635406 -4.0146642
137.84274 49.643806 -4.3310499
136.90454 49.656723 -4.4281812
139.41826 49.777313 -4.5887241
139.64673 49.723942 -4.5668221
132.32765 49.633957 -5.3577271
138.45108 49.645382 -6.8735032
139.89297 49.974926 3.733345
134.30782 49.837341 2.0412381
139.8252 49.811047 0.47849
139.01955 49.884247 -0.656717
139.96449 49.893295 -0.95492297
138.91461 49.926838 -1.21067
138.6449 49.936844 -1.453436
139.92221 49.943237 -1.433522
139.36324 49.934319 -1.734609
138.35904 49.978062 -1.895514
139.85689 49.968052 -2.1190331
138.64478 49.819092 -3.0349841
131.26782 49.830601 -3.255074
135.22815 50.171108 3.0524089
139.44818 50.175144 2.9103479
133.91397 50.179268 2.2673171
134.25014 50.156967 2.2857461
135.74632 50.157879 2.071533
139.0442 50.184387 1.393042
139.25998 50.19632 0.96714598
139.24702 50.091457 0.62981802
139.11951 50.197968 0.339618
139.41754 50.003471 0.29793799
138.71289 50.072727 -1.1088361
138.23201 50.007271 -1.733675
138.70554 50.361683 0.49383599
136.38596 50.260197 -1.997167
135.04218 50.565712 1.862644
138.85278 50.450424 0.88344097
138.36205 50.46899 0.475725
139.22444 50.411655 0.27541399
138.89185 50.514343 -0.12978201
138.29808 50.46566 -4.0498648
138.8376 50.612129 -0.58230799
138.91885 50.602623 -0.81413299
125.42652 50.951492 4.7146869
139.02763 50.965988 1.410903
139.4485 51.099209 -3.842844
137.76729 51.18185 -6.5624862
126.65839 51.259537 4.3151159
137.16403 51.347 -7.1031761
137.79379 51.242653 -7.5651989
137.93423 51.320671 -7.899724
138.62738 51.412369 0.13476001
136.61354 51.787521 -7.4483099
136.70618 51.613449 -7.6734571
137.99536 51.936432 -1.218407
137.32475 52.153667 -6.8802762
138.85091 52.242973 0.89639199
134.67361 52.460037 1.992802
135.23158 52.555832 1.867429
138.39677 52.537155 0.51894897
126.59721 52.716709 4.1398969
139.99429 52.742428 0.37768301
137.01529 52.711514 -1.934559
127.74152 52.938812 0.63936502
127.99585 53.17918 0.165456
128.26053 53.161709 0.179858
136.59363 53.15271 -1.998167
124.72525 53.285118 3.8399019
125.40765 53.242779 3.677851
127.32376 53.296249 1.4828039
126.20211 53.666164 4.1766229
139.90985 54.115452 -5.8383212
139.53653 54.198475 -6.4829178
135.90889 56.336632 4.8070478
126.54037 58.081192 -4.45297
