# .PCD v0.7 - Point Cloud Data file format
VERSION 0.7
FIELDS x y z
SIZE 4 4 4
TYPE F F F
COUNT 1 1 1
WIDTH 101
HEIGHT 1
VIEWPOINT 0 0 0 1 0 0 0
POINTS 101
DATA ascii
139.91237 61.873894 5.0684009
128.00447 62.399467 -2.0634871
128.13275 62.379448 -2.6481309
128.69533 62.290115 -5.1796298
127.42618 62.880203 -0.61710697
139.54971 63.057709 0.68331301
126.61674 63.203453 -2.1959491
126.82555 63.239632 -2.1834249
139.86168 63.723709 -3.244489
132.28206 60.040401 -5.3647308
129.42194 61.286991 -5.6740422
129.10378 61.687378 -5.0964851
129.35333 61.683914 -5.0069809
127.54901 61.812218 -3.601764
127.62466 61.962379 -4.5186329
124.82383 62.288197 4.9022961
125.99905 62.2617 4.9598408
128.25436 62.35207 0.064988002
128.52812 62.29678 -3.056006
124.98785 62.563015 4.6326241
127.4163 62.432919 -1.209641
127.69938 62.42915 -1.56348
127.51419 62.53368 -2.1588709
129.38132 62.535 -3.0206151
130.33774 62.530651 -4.5356541
125.24498 62.742771 3.0637119
139.74915 62.78511 2.01968
125.46642 62.907249 4.6710472
124.24565 62.913029 2.4942341
125.45015 63.179153 2.378001
139.86258 63.024963 0.72576201
127.91064 63.161411 -3.1831839
128.91223 63.34145 -3.095325
126.26974 63.42041 -1.663419
126.03895 63.722355 0.47243601
127.17318 64.161827 -0.015504
138.04292 64.365349 3.1171329
127.37152 64.323166 -0.0068879998
125.34917 64.80677 -5.077776
139.94792 65.283737 -1.017014
138.84244 71.578835 4.0527172
130.68248 61.188732 -5.9492869
139.80478 61.792118 4.7648101
129.9827 61.98373 -4.5115471
127.45354 62.02338 -3.1435809
139.6886 62.220299 5.067266
124.6398 62.259312 4.8913832
127.04505 62.372585 -0.023487
128.1714 62.327946 -3.1189301
129.74197 62.205311 -5.7459202
131.01141 62.376949 -6.055305
124.79458 62.574841 4.625061
126.82433 62.430157 -0.036010999
127.15253 62.590668 -2.191045
127.7177 62.421726 -2.9237361
128.84938 62.538265 -4.265965
130.02509 62.51862 -6.129868
126.60228 62.954876 5.2170939
126.19153 62.942184 4.7033062
127.18192 62.882175 -0.022375001
128.93256 62.869717 -2.712218
139.92264 63.020123 2.656616
139.89627 63.180202 1.3105429
126.69782 63.337742 3.1579981
125.4444 63.329601 -5.8965139
138.29951 64.086708 5.3797498
125.23282 64.748672 -4.0287132
125.11049 64.995407 -5.1085091
137.11369 65.750221 -1.146265
125.40477 66.052956 -1.821279
125.55272 66.188072 -2.4151931
125.85641 66.555389 -4.524931
125.52313 66.436638 -5.1995592
121.56975 68.500679 -2.1278219
131.20653 69.503876 -6.7982912
128.60168 62.057682 -4.2446718
127.91309 62.399113 -2.133775
128.20078 62.377998 -2.5715721
128.50209 62.207615 -3.688637
125.96397 62.402264 1.827173
127.94839 62.489185 0.046882
127.48981 62.504894 -0.98495901
129.57652 62.43195 -4.5725808
125.16209 62.747822 4.6506
128.68535 62.666168 -1.484834
139.54079 62.996784 0.97360897
127.66963 62.803627 -1.147624
127.02637 63.066654 1.571327
126.82083 63.241295 -2.2036419
126.39137 63.408161 1.542721
125.30709 63.41383 -0.129271
125.31329 63.422771 -0.69014001
127.14157 63.489857 -1.6007
125.15672 63.440952 -2.313062
139.96825 63.691441 -3.701201
126.47708 63.95472 -0.64643103
126.31238 64.141457 -0.084305003
137.29352 65.76606 -1.1707979
125.63759 66.529015 -3.5160019
127.10489 67.069405 -5.103765
139.86145 67.923386 -6.1679139
