# .PCD v0.7 - Point Cloud Data file format
VERSION 0.7
FIELDS x y z
SIZE 4 4 4
TYPE F F F
COUNT 1 1 1
WIDTH 1518
HEIGHT 1
VIEWPOINT 0 0 0 1 0 0 0
POINTS 1518
DATA ascii
147.31168 -207.37292 -8.9925594
142.19858 -207.33307 -9.0139256
146.58725 -207.37704 -9.0280132
159.31442 -207.23047 -9.1206141
141.20166 -207.22617 -9.4010544
142.67343 -207.23271 -10.492481
142.21895 -207.39841 -10.607323
156.91336 -207.28894 -10.931464
141.28871 -207.05627 -2.569515
141.92601 -207.08275 -2.6814661
143.30008 -207.13689 -2.8634739
143.74638 -207.04628 -2.8978269
144.52832 -207.14355 -2.9572041
146.68896 -207.00237 -2.9392231
152.90004 -207.07666 -2.9348879
143.68454 -207.02562 -5.336854
150.14996 -207.08963 -6.987597
150.58713 -207.06097 -7.8649421
150.56625 -207.15225 -8.1254435
146.94283 -207.00494 -8.8977146
150.36163 -207.08957 -9.0087566
148.86919 -207.15099 -9.7129288
143.42166 -207.01691 -10.311436
159.30417 -207.19647 -10.234636
145.22777 -207.01024 -11.139072
146.93893 -207.16891 -11.304296
140.91519 -206.92215 -2.670512
142.48143 -206.89459 -2.7224391
142.88834 -206.84767 -2.884304
145.26263 -206.87733 -2.936923
146.84055 -206.96579 -2.88486
148.53381 -206.96594 -2.9551101
150.54434 -206.99306 -2.9990139
146.33127 -206.94098 -3.0004361
143.94916 -206.86716 -7.1642179
142.22804 -206.97546 -7.575439
150.39949 -206.86835 -7.5507469
141.91342 -206.88055 -7.661109
150.37067 -206.98508 -7.6198602
140.62018 -206.91827 -8.7070885
150.54205 -206.92526 -8.6089211
155.79756 -206.81012 -8.729475
146.58002 -206.97269 -8.9531708
149.65813 -206.90688 -9.555562
154.66733 -206.99045 -9.4258652
154.72961 -206.93106 -9.6879044
159.01102 -206.96159 -9.993453
155.17355 -206.83861 -10.117585
143.20299 -206.85043 -10.543839
145.45222 -206.91766 -10.719698
146.04604 -206.92499 -11.236668
141.04323 -206.63751 -2.678494
142.89041 -206.70586 -2.8481481
143.67339 -206.71509 -2.92365
147.76326 -206.76129 -2.875493
151.85812 -206.6796 -2.9625449
158.60876 -206.63309 -2.854039
144.20508 -206.72862 -6.406301
144.27164 -206.65842 -6.9783411
146.89368 -206.78973 -6.8180809
141.24634 -206.66086 -7.1766262
141.29547 -206.65092 -7.3290009
144.0891 -206.6427 -7.352437
150.54013 -206.6796 -7.6494851
159.35191 -206.62067 -8.5471067
140.19667 -206.74673 -8.7086678
155.5009 -206.61647 -8.6571598
155.69919 -206.6114 -8.6733828
140.56268 -206.61121 -8.9217463
146.57861 -206.7186 -8.8320255
146.99931 -206.65443 -8.9141312
156.38309 -206.73184 -8.8372374
146.13243 -206.78731 -9.1570129
156.13727 -206.69659 -9.7173033
147.65221 -206.78326 -10.249794
158.62909 -206.75156 -10.395044
145.76288 -206.62624 -10.910616
143.69855 -206.78445 -11.03577
146.24272 -206.71457 -11.285942
143.28279 -206.77838 -13.350161
140.68828 -206.43416 -2.6937921
142.51241 -206.55396 -2.7545481
143.75665 -206.55859 -6.1410861
141.63373 -206.59164 -6.3483362
140.04256 -206.4353 -7.1456189
140.93231 -206.53441 -7.3313718
142.25047 -206.49121 -7.6049919
141.35161 -206.48653 -7.9849749
146.37445 -206.45695 -8.5578299
158.94765 -206.55334 -8.4018278
157.06357 -206.54547 -8.6392794
140.15082 -206.55112 -8.8845482
144.87582 -206.47314 -9.5097437
155.4248 -206.5858 -9.7968597
146.20374 -206.47424 -10.945568
145.65117 -206.52855 -11.225105
142.74341 -206.27684 -2.8280101
146.13159 -206.22987 -2.983237
148.19843 -206.22704 -2.8959751
146.0979 -206.28531 -3.0824771
146.67117 -206.21092 -3.0210941
154.04741 -206.2077 -3.0426641
143.52466 -206.38078 -5.860558
144.15152 -206.29987 -6.606463
144.31284 -206.26669 -6.625648
146.3877 -206.2496 -6.6528239
142.56215 -206.246 -7.3986578
141.85327 -206.30879 -7.4142199
141.30711 -206.28613 -8.1459627
142.15701 -206.23462 -8.2300673
146.63858 -206.2587 -8.3526268
146.90263 -206.23726 -8.3494205
158.24484 -206.27345 -8.2160988
146.74728 -206.23218 -8.5228958
155.51276 -206.36896 -8.4858971
144.71489 -206.26831 -9.2558556
140.09473 -206.30948 -9.6709042
144.90906 -206.34645 -9.7563286
147.07748 -206.31342 -10.06868
147.39056 -206.30223 -10.293101
147.37387 -206.39319 -10.476696
149.4807 -206.34482 -11.022081
150.056 -206.31937 -11.009544
159.63133 -206.19235 -2.711653
145.07097 -206.14742 -2.9564929
145.86401 -206.04736 -2.971951
148.17929 -206.19595 -2.9041629
146.92499 -206.08511 -3.052
146.29303 -206.18414 -3.261524
146.65115 -206.12363 -3.3293049
146.80489 -206.03984 -3.322084
147.4729 -206.08969 -5.873045
146.65347 -206.19159 -6.543159
146.17377 -206.18251 -6.6653752
141.09612 -206.16589 -7.336431
142.1875 -206.1877 -7.3145752
142.17752 -206.1178 -7.7605109
142.55885 -206.12672 -7.7204318
157.884 -206.05713 -8.1942158
145.81793 -206.09476 -8.2177505
142.2101 -206.11206 -8.4344063
140.39365 -206.06274 -9.0809736
140.52115 -206.13545 -9.0656147
156.36029 -206.11252 -9.9663544
146.2027 -206.13066 -10.919299
141.02406 -205.82344 -2.5559781
143.78354 -205.95966 -2.9139559
147.10306 -205.93544 -2.9954791
152.14081 -205.83395 -2.9560101
154.39928 -205.8515 -2.9817989
146.12827 -205.99622 -3.103739
145.83328 -205.88025 -3.231688
146.47763 -205.8515 -3.3967831
143.68475 -205.82588 -6.251596
141.85098 -205.98082 -6.6160498
141.70496 -205.94775 -6.9590311
142.11627 -205.86194 -7.0802598
142.5004 -205.87422 -7.3868632
144.08676 -205.89148 -7.3405499
145.0173 -205.82182 -7.43786
144.15607 -205.87317 -7.7825742
142.29929 -205.97536 -7.8134141
142.6859 -205.84543 -8.2505789
142.67206 -205.86955 -8.490839
155.802 -205.92789 -8.9804983
140.13837 -205.88393 -9.0564613
156.95038 -205.97215 -9.4429169
140.66071 -205.89378 -9.8257046
146.2377 -205.83121 -9.8287506
147.67035 -205.82716 -9.8918304
156.57651 -205.91844 -10.27417
142.61383 -205.97052 -10.440912
145.96561 -205.95538 -10.769859
147.56528 -205.82637 -12.125896
150.53726 -205.77173 -2.888705
153.46678 -205.7572 -2.9880221
145.46274 -205.75867 -3.0386181
145.74013 -205.75269 -3.0160949
146.60419 -205.70062 -3.0134549
145.50183 -205.71387 -3.2611091
145.72041 -205.62759 -6.8960772
145.42722 -205.7142 -7.0312672
142.90308 -205.76898 -7.4515939
144.94232 -205.68033 -7.7052321
145.73776 -205.64426 -7.798511
155.15471 -205.69528 -7.6425409
145.35617 -205.77452 -7.8091521
159.09317 -205.77121 -7.8798752
141.8967 -205.6758 -8.0295019
143.86261 -205.75671 -8.1889
145.44859 -205.76064 -8.0074787
142.23351 -205.72876 -8.2129364
157.41023 -205.75391 -8.2941589
157.72156 -205.74434 -8.3299761
145.44406 -205.71762 -8.462429
145.62138 -205.78525 -8.530055
145.39243 -205.72614 -8.9516087
145.72549 -205.75186 -9.1807127
145.63692 -205.7601 -9.341629
147.1217 -205.75677 -9.3460398
146.26535 -205.69017 -9.587534
141.47575 -205.73776 -9.8775539
141.91638 -205.73288 -9.899209
147.71448 -205.70139 -10.044422
157.47894 -205.78703 -10.437786
145.67157 -205.61292 -11.037016
143.6756 -205.78186 -13.493679
141.93634 -205.55075 -2.645818
143.65385 -205.47815 -2.7931781
145.27859 -205.44223 -2.933521
146.22371 -205.4469 -2.9915409
148.65901 -205.5074 -2.8813021
148.96735 -205.54623 -2.8750739
152.45547 -205.43367 -2.960824
145.40511 -205.42902 -3.058223
153.87141 -205.42744 -3.37921
154.07794 -205.55923 -3.277544
146.25943 -205.44737 -3.4887321
146.12607 -205.43073 -4.0876932
145.97505 -205.47672 -4.270844
145.8246 -205.51303 -4.7108879
145.74347 -205.42914 -4.833076
146.66229 -205.5065 -4.8319702
146.50351 -205.45383 -5.5576558
143.3645 -205.54138 -6.9525771
147.43369 -205.47305 -6.8272119
145.06596 -205.42805 -7.021461
146.29541 -205.46582 -7.0228992
143.87929 -205.41559 -7.346384
155.04192 -205.41812 -7.2787161
141.14941 -205.4386 -7.4374781
144.9052 -205.47488 -7.4864969
145.75743 -205.43599 -7.5129719
146.20383 -205.47437 -7.456954
145.00865 -205.43733 -7.797523
145.39659 -205.42725 -7.7884641
145.73325 -205.52588 -7.7652779
146.00183 -205.5657 -7.7274618
146.20482 -205.41109 -7.6780038
157.02838 -205.4736 -7.640851
157.37878 -205.47488 -7.6468921
156.18977 -205.49129 -7.8253841
146.52902 -205.41541 -8.3495378
146.94873 -205.48137 -8.3377705
145.24548 -205.47812 -8.4904118
146.91556 -205.42668 -8.630497
154.95232 -205.52356 -8.7226
145.4566 -205.54326 -8.8796053
154.87741 -205.45911 -8.9312859
155.26205 -205.58917 -8.9317598
144.56729 -205.49026 -9.1211624
144.98189 -205.5464 -9.1029644
146.18759 -205.40225 -9.0399933
148.31708 -205.41043 -9.1684895
154.78224 -205.50417 -9.0335112
145.79504 -205.41222 -9.3386211
146.25371 -205.53452 -9.2741833
144.61729 -205.46297 -9.8206549
142.88309 -205.50142 -10.081076
144.19777 -205.45293 -10.15891
158.60739 -205.44148 -10.519476
146.91661 -205.41321 -10.625435
146.93945 -205.55739 -10.928812
146.93767 -205.4498 -11.302999
145.89012 -205.58965 -11.925972
146.57455 -205.54964 -12.650443
147.61575 -205.53375 -12.756823
143.61191 -205.57672 -13.487654
142.1329 -205.24965 -2.6661651
143.34137 -205.24417 -2.842273
149.41656 -205.27663 -2.878906
150.76297 -205.34424 -2.8973861
145.86087 -205.27985 -3.152983
153.82431 -205.39096 -3.2160549
146.54086 -205.34744 -4.0892639
146.80646 -205.24802 -4.572124
145.76588 -205.27765 -4.6959119
146.6196 -205.35675 -4.730803
146.16318 -205.25842 -4.9272289
146.53445 -205.30127 -5.0777831
146.61656 -205.30359 -5.5005989
145.77191 -205.33554 -6.1866212
146.63147 -205.3546 -6.2821102
144.60548 -205.35233 -6.722743
145.74432 -205.31053 -6.6553049
146.20694 -205.36821 -6.6455102
146.59604 -205.32364 -6.6344681
146.567 -205.34595 -6.8903918
154.7149 -205.28368 -6.960207
140.33788 -205.3847 -7.0413761
154.69424 -205.28659 -7.1521101
141.95581 -205.24823 -7.2764339
142.06415 -205.26692 -7.34795
144.6434 -205.31799 -7.3587322
153.94463 -205.22093 -7.3446159
145.42989 -205.31773 -7.5596409
146.40947 -205.38712 -7.52175
157.84644 -205.33952 -7.4432459
141.92459 -205.29663 -7.7109499
155.27003 -205.34564 -7.7389531
142.42827 -205.2139 -7.840446
144.56737 -205.34343 -7.8170552
146.54544 -205.30992 -7.8117738
146.83902 -205.33975 -7.8302021
146.69853 -205.3994 -8.0029516
157.25797 -205.26823 -8.1059523
143.91846 -205.28717 -8.2957811
146.14929 -205.35352 -8.333621
154.57979 -205.27028 -8.3498859
144.18127 -205.29698 -8.4833269
146.31158 -205.35251 -8.5693636
147.44582 -205.3938 -8.5079441
154.70584 -205.39732 -8.5747433
157.70404 -205.3822 -8.4666233
144.95844 -205.39111 -8.6249666
143.05066 -205.36879 -8.9041529
146.9883 -205.3985 -8.9466534
146.5378 -205.37456 -9.067708
144.64304 -205.3524 -9.3063087
147.91489 -205.2627 -9.2828712
153.98056 -205.2674 -9.3487759
141.74207 -205.298 -10.115507
144.46916 -205.37 -10.015955
143.51512 -205.27492 -10.587877
146.703 -205.39256 -10.537906
144.27849 -205.35149 -11.105604
145.33774 -205.03654 -2.969564
152.66663 -205.17496 -2.979696
152.15488 -205.03522 -3.016269
146.17514 -205.10037 -3.332006
146.20793 -205.00639 -3.3617671
146.86565 -205.00133 -3.2891519
153.6709 -205.10741 -3.2912071
153.60718 -205.04764 -3.5155799
145.98921 -205.19669 -3.7610531
146.53903 -205.07767 -3.637619
153.58795 -205.08324 -3.7789471
153.73009 -205.10852 -3.820369
146.36942 -205.13948 -4.3464799
146.23386 -205.09625 -4.5649881
146.55821 -205.09619 -4.5807662
145.49951 -205.0878 -4.9639602
154.08401 -205.08122 -4.9184642
153.71605 -205.01259 -5.145884
145.9501 -205.0806 -5.2469139
154.09207 -205.08157 -5.362175
145.98364 -205.10367 -5.5489602
153.7218 -205.08658 -5.463388
146.03601 -205.16162 -5.7202339
146.48291 -205.1311 -5.6452532
145.69525 -205.10007 -5.9822621
145.91815 -205.1655 -6.0608459
143.31532 -205.01256 -6.5483718
145.01392 -205.03563 -6.5900278
153.87527 -205.10201 -6.4475012
146.24333 -205.147 -6.9671888
153.8644 -205.03329 -6.891232
154.2811 -205.02283 -6.8450589
154.70358 -205.04617 -6.9580932
153.85571 -205.03557 -7.083405
159.35664 -205.16678 -7.0659118
145.07758 -205.00601 -7.378253
154.72687 -205.0562 -7.2846379
158.57153 -205.12662 -7.3994541
159.04204 -205.12102 -7.3322001
143.86969 -205.03525 -7.4690752
144.65706 -205.05829 -7.5036168
146.57588 -205.10075 -7.4671979
153.94513 -205.12738 -7.4581161
144.93816 -205.05435 -7.7982249
145.3551 -205.05356 -7.7682481
146.49277 -205.02139 -7.7067919
154.18443 -205.09105 -7.8482938
155.34767 -205.15811 -7.9210758
142.65352 -205.05573 -8.1567659
154.16882 -205.1114 -8.1755943
142.85118 -205.01855 -8.3257523
144.9411 -205.08054 -8.266283
153.90738 -205.10202 -8.6603184
145.86832 -205.08635 -8.9536829
154.435 -205.1192 -9.3966398
144.47769 -205.11293 -10.195943
145.75105 -205.11861 -10.114449
147.81647 -205.0488 -10.317461
148.22156 -205.14055 -10.562966
143.42711 -205.19942 -10.745773
143.61452 -205.04137 -10.712954
144.2153 -205.04457 -10.671724
143.85942 -205.03653 -11.572009
144.01547 -205.14574 -11.565352
141.75104 -205.05324 -12.368628
140.561 -204.88129 -2.5962911
142.46542 -204.87979 -2.729593
142.91989 -204.96378 -2.7545309
142.95697 -204.87222 -2.8144629
143.34673 -204.84238 -2.8460259
143.65701 -204.91766 -2.9264059
145.42383 -204.94304 -2.8958831
147.44487 -204.95717 -2.8970139
152.30513 -204.88506 -3.0847321
153.53072 -204.97194 -3.0852549
147.2101 -204.96313 -3.234571
153.94176 -204.93921 -3.3477089
153.74324 -204.85339 -3.8887
142.93808 -204.86888 -4.1115999
143.09576 -204.84323 -4.0283809
143.13069 -204.85229 -4.270256
145.73456 -204.91499 -4.9207311
145.56541 -204.96667 -5.0745091
145.62805 -204.91689 -5.0540252
153.58208 -204.88757 -5.1415071
145.50372 -204.92639 -5.2979579
145.93326 -204.89363 -5.3582482
146.11041 -204.97021 -5.3663778
145.3941 -204.92822 -5.4658561
145.77779 -204.867 -5.4015608
153.5601 -204.95692 -5.591929
145.28864 -204.89378 -5.6971779
145.14113 -204.94467 -5.8443141
145.78165 -204.97018 -5.8621082
153.85194 -204.96121 -5.9502158
145.1575 -204.92178 -6.3403139
146.53723 -204.98114 -6.27843
145.39 -204.96237 -6.5609579
145.81813 -204.94385 -6.5866628
146.51392 -204.91605 -6.5664001
144.58475 -204.94806 -6.6224852
146.11897 -204.9229 -6.6114349
154.32022 -204.94458 -6.6021719
142.76755 -204.93707 -6.9266772
144.95917 -204.99149 -6.946434
147.52695 -204.83655 -7.192975
145.47791 -204.94858 -7.3809338
154.18869 -204.94202 -7.2769251
143.58099 -204.81815 -7.6231451
143.81778 -204.98779 -7.7868681
144.24277 -204.99127 -7.7927852
153.59532 -204.9921 -7.707798
147.9527 -204.93701 -8.1645584
143.78986 -204.85388 -8.2876358
144.24429 -204.89478 -8.2330866
146.2475 -204.93265 -8.2469959
146.18408 -204.93179 -8.587163
146.5181 -204.93735 -8.5698357
147.03137 -204.91116 -8.5041027
154.20024 -204.99249 -8.5693998
147.06444 -204.91571 -8.956501
148.68932 -204.85892 -8.9244471
154.48642 -204.81325 -8.9078312
147.50098 -204.90887 -9.1219072
147.72446 -204.88354 -9.0440168
155.42473 -204.9575 -9.1073503
147.47412 -204.98593 -9.3089924
155.32834 -204.90393 -9.4300985
157.41643 -204.82491 -9.4359264
140.1405 -204.85989 -9.8658161
140.85103 -204.98044 -9.9466286
145.52533 -204.98267 -10.101479
146.99599 -204.98112 -10.235485
156.02263 -204.84001 -10.235963
146.74133 -204.86606 -13.057905
140.24176 -204.72165 -2.753885
140.8551 -204.7074 -2.6470909
159.14731 -204.76204 -2.7096641
143.31824 -204.64478 -2.850512
143.71654 -204.72922 -2.875818
144.28017 -204.69539 -2.86535
145.46127 -204.69098 -2.9697199
147.50604 -204.63713 -2.8884349
148.31712 -204.62415 -2.854104
150.68997 -204.65329 -2.9211979
153.5054 -204.63237 -2.9503119
144.94629 -204.68781 -3.0145669
145.48499 -204.6691 -3.1147571
146.97769 -204.73433 -3.1390181
152.52631 -204.64207 -3.130347
154.10146 -204.63625 -3.085499
140.42833 -204.63223 -3.2156811
145.55072 -204.62741 -3.2413599
142.70691 -204.6817 -3.901825
142.90894 -204.71597 -4.1279221
146.66 -204.79001 -4.1453319
153.78525 -204.74084 -4.2961569
143.40849 -204.62958 -4.5032592
153.879 -204.72653 -4.4295011
153.73679 -204.63947 -4.9278159
145.46922 -204.71713 -5.3723888
145.4252 -204.72597 -5.519289
147.82581 -204.61343 -5.550725
145.42018 -204.70317 -5.6654711
145.1326 -204.63028 -5.8803382
145.23404 -204.65289 -5.8650632
153.71234 -204.7039 -5.8774562
153.7403 -204.63165 -6.09655
154.00743 -204.79358 -6.0098491
145.10532 -204.63235 -6.2940912
145.89453 -204.62659 -6.2666521
144.62717 -204.74884 -6.554318
148.61206 -204.65485 -6.565495
153.87982 -204.66068 -6.4548092
145.065 -204.63583 -6.6144881
145.88046 -204.60657 -6.6215162
154.54132 -204.63168 -6.656249
143.01712 -204.70064 -7.0592918
147.49672 -204.68721 -7.1175318
143.80475 -204.69812 -7.3890052
144.50143 -204.62503 -7.3691258
145.02396 -204.67792 -7.292078
144.11426 -204.70343 -7.7724452
145.34628 -204.66577 -7.7215638
143.83133 -204.65729 -7.9065781
146.50749 -204.65674 -7.9115958
146.61292 -204.65134 -8.2585287
144.70592 -204.74016 -8.4326334
146.97476 -204.66595 -8.6660843
154.43056 -204.72906 -8.7392597
148.16733 -204.68768 -8.9074574
154.04468 -204.65945 -8.9202299
147.39621 -204.65448 -9.3254089
148.54846 -204.77696 -9.4733887
147.53784 -204.64706 -9.6604624
153.83907 -204.65094 -9.9279184
153.88225 -204.61411 -10.617682
146.58459 -204.61081 -11.753186
142.84514 -204.77924 -12.098389
140.11092 -204.50922 -2.96369
144.27194 -204.56233 -2.8624279
145.50414 -204.49734 -3.0961831
151.53415 -204.53416 -3.0272939
152.12071 -204.50998 -3.1617739
152.62842 -204.57549 -3.064142
140.27036 -204.52509 -3.259382
152.51758 -204.55255 -3.256413
152.63522 -204.48674 -3.253736
143.34058 -204.46442 -3.75771
142.94012 -204.57349 -3.827446
142.64069 -204.539 -4.110498
142.92184 -204.58177 -4.111361
143.76807 -204.5325 -4.0895538
145.05176 -204.57693 -5.4315639
145.18314 -204.43605 -5.9493532
147.72467 -204.46877 -5.8288531
153.74475 -204.48825 -5.9677572
142.76096 -204.51071 -6.3422742
143.04704 -204.47989 -6.2406182
144.57327 -204.48401 -6.2917428
144.98462 -204.56577 -6.242146
145.28271 -204.51778 -6.2753391
146.96121 -204.59898 -6.2953372
147.48729 -204.55975 -6.23595
142.66411 -204.40913 -6.4341249
143.34933 -204.59274 -6.526011
148.2142 -204.53587 -6.5927911
153.82138 -204.45982 -6.6952028
144.53519 -204.55383 -6.878891
153.85506 -204.50745 -6.9348898
144.30815 -204.54562 -7.3926468
146.53322 -204.58452 -7.3769808
145.84554 -204.59839 -7.4973459
147.49673 -204.57617 -7.4542389
145.90053 -204.48825 -7.7129579
147.72116 -204.48656 -7.7729101
144.15863 -204.59442 -8.1949015
143.79265 -204.5921 -8.2668591
145.38655 -204.49318 -8.2652845
143.74094 -204.46127 -8.4485378
145.56308 -204.56015 -8.4613543
147.09846 -204.57416 -8.9347687
143.81148 -204.50151 -9.0665007
147.33551 -204.56688 -9.1070995
159.05777 -204.50955 -9.1390018
155.8656 -204.53456 -9.4918861
157.63988 -204.54047 -9.5775471
148.16138 -204.52834 -9.675293
156.11134 -204.4929 -9.8888922
145.69055 -204.56592 -10.200997
152.883 -204.57965 -10.369326
153.87633 -204.46225 -11.22598
142.903 -204.5741 -11.726719
146.65459 -204.53094 -12.006279
141.18135 -204.33899 -2.5482819
140.93814 -204.32913 -2.6459301
159.30484 -204.38657 -2.7298541
140.24976 -204.32556 -2.9236431
144.58981 -204.28351 -2.872947
145.85786 -204.29318 -2.9631841
151.03731 -204.33743 -2.992435
140.09021 -204.31433 -3.032656
145.1091 -204.2616 -3.0206511
143.09534 -204.30548 -3.6511099
143.81215 -204.22899 -3.894259
142.51639 -204.2605 -4.057251
143.51987 -204.34384 -4.5378938
143.03595 -204.32666 -6.2715168
145.10364 -204.26602 -6.25599
144.62743 -204.23354 -6.5781388
144.99347 -204.29234 -6.534956
145.03424 -204.29422 -6.5030241
145.41815 -204.31467 -6.5727062
146.01556 -204.38719 -6.939898
153.50455 -204.30328 -6.8764038
153.74319 -204.28061 -7.0073199
144.21863 -204.27933 -7.3409901
153.72556 -204.28357 -7.331223
143.84608 -204.22699 -8.3044281
146.8808 -204.20483 -8.284688
147.46703 -204.30522 -8.2772245
143.32764 -204.28415 -8.4291782
145.49893 -204.26721 -8.5665474
146.65451 -204.29608 -8.5138025
153.00462 -204.25484 -8.9598303
143.18427 -204.22125 -9.1511526
143.77127 -204.23969 -9.0567608
147.4534 -204.2384 -9.4388056
147.77341 -204.21001 -9.8234425
155.08966 -204.3237 -9.8060417
144.51213 -204.202 -10.216248
147.71735 -204.36928 -10.220263
157.28561 -204.25291 -10.439219
150.23848 -204.36763 -10.717628
147.42645 -204.27397 -10.972421
143.32025 -204.30553 -11.491399
144.70555 -204.37474 -12.049012
146.43947 -204.31577 -12.706169
140.46196 -204.10962 -2.9425361
147.42351 -204.18088 -2.857372
151.02199 -204.1282 -2.9319091
154.75523 -204.00204 -2.802352
143.25815 -204.06555 -3.066669
142.52647 -204.11931 -3.7715189
142.49696 -204.10352 -3.8807809
142.89198 -204.18561 -4.178721
143.14853 -204.12808 -4.5058999
145.12619 -204.15648 -6.3090272
144.73245 -204.1041 -6.7363052
143.15692 -204.01236 -7.3283582
144.95566 -204.19174 -7.368844
146.66162 -204.14944 -7.346941
153.59129 -204.18201 -7.4283061
153.92136 -204.03439 -8.0962029
153.03923 -204.03757 -8.3178997
154.60129 -204.19916 -8.2104006
143.86833 -204.18442 -8.4733086
146.98141 -204.18764 -8.5607967
145.63699 -204.16592 -8.9114628
146.6839 -204.02713 -9.1995668
144.92886 -204.1138 -9.3506193
146.27002 -204.08501 -9.5605717
144.73505 -204.10091 -9.9009247
157.71672 -204.14767 -10.196874
158.07971 -204.00974 -10.267769
155.38327 -204.14458 -10.732958
153.34515 -204.05745 -10.951659
143.43275 -204.13959 -11.178991
143.71091 -204.12099 -11.060436
143.12991 -204.15802 -11.401667
141.74146 -203.86736 -2.3870511
140.43753 -203.91205 -2.667695
140.63597 -203.97745 -2.6119101
140.88458 -203.97287 -2.6848691
142.19025 -203.8674 -2.628952
143.6434 -203.85458 -2.7843111
156.22856 -203.85854 -2.7314229
143.30376 -203.86752 -2.9215591
143.58551 -203.82986 -2.801327
143.8197 -203.8613 -2.8512321
145.35321 -203.89897 -2.8809409
145.51022 -203.9774 -2.8738611
145.70091 -203.83923 -2.860956
148.05333 -203.93706 -2.833415
151.10782 -203.80804 -2.8707809
154.12946 -203.82448 -2.8374121
143.29367 -203.91016 -3.2790501
142.87482 -203.95221 -3.5004339
142.32974 -203.89078 -3.9158919
143.91376 -203.81474 -3.992888
142.89217 -203.95255 -4.0858278
143.03729 -203.8719 -4.0645118
142.53741 -203.93456 -4.2314739
143.02303 -203.89711 -4.3788161
142.7735 -203.98007 -4.4409919
142.92697 -203.83978 -4.4740009
144.36441 -203.99936 -6.2766771
144.61896 -203.89734 -6.5685759
145.82895 -203.94943 -6.538043
144.85951 -203.89159 -7.1077638
153.66019 -203.97528 -7.4846382
143.39981 -203.89653 -8.1893892
153.6796 -203.90915 -8.1259451
143.72781 -203.86314 -8.6284809
154.04066 -203.93286 -9.1683998
154.77095 -203.95108 -9.0111055
146.88388 -203.80103 -9.3484764
145.43286 -203.81833 -9.4559374
153.86847 -203.8111 -10.914662
141.79167 -203.99637 -11.68893
159.26492 -203.94142 -12.111262
148.87582 -203.85847 -13.005293
148.57602 -203.72 -2.789674
159.39552 -203.61858 -2.7380791
143.09296 -203.75026 -2.8820729
143.29759 -203.71513 -2.8731761
143.70042 -203.69356 -2.8670149
144.11838 -203.73178 -2.857728
145.40752 -203.73108 -2.861285
147.03462 -203.70181 -2.8570371
153.79472 -203.79886 -2.844197
151.82117 -203.77051 -3.0054181
152.5564 -203.76108 -3.0322299
152.94353 -203.60797 -3.015641
142.83591 -203.61891 -3.7499051
142.5354 -203.73004 -3.8899
142.66035 -203.63669 -3.9345939
142.35628 -203.73586 -4.1905298
142.84354 -203.65346 -4.1224461
142.88167 -203.67491 -4.3298402
147.34396 -203.62047 -6.4098301
143.78903 -203.75462 -6.8445392
144.8777 -203.65611 -7.0666761
144.18219 -203.68512 -7.4129238
144.48257 -203.77737 -7.8575802
144.45395 -203.79532 -8.0488253
152.99158 -203.72455 -8.1386223
147.23224 -203.73129 -8.2889566
147.16866 -203.65219 -8.43997
153.67685 -203.72983 -8.5876703
144.05852 -203.72961 -8.6524448
153.46112 -203.67834 -8.6663589
142.59305 -203.68604 -8.8595839
157.10062 -203.69885 -9.6599216
144.87671 -203.76779 -9.961071
145.66496 -203.7253 -9.8604689
153.66124 -203.76334 -10.144642
159.16547 -203.66278 -10.034012
153.51154 -203.72345 -10.603617
152.94843 -203.65417 -12.160137
140.27332 -203.5457 -2.6286459
142.50975 -203.44275 -2.6812301
145.41095 -203.48743 -2.86233
145.73245 -203.47113 -2.8495131
150.12091 -203.42253 -2.8332081
151.08728 -203.51642 -2.886703
154.35883 -203.53011 -2.8192649
143.05132 -203.56647 -3.7371509
143.0448 -203.46523 -3.977108
143.39757 -203.51501 -3.8683469
143.49138 -203.53682 -4.4033222
146.81921 -203.51151 -6.4188061
143.51105 -203.5202 -6.8226399
144.86469 -203.51151 -7.0887361
146.40004 -203.42206 -7.1306429
143.929 -203.48778 -7.4680858
144.21346 -203.5464 -7.4161758
152.08479 -203.41425 -8.7952623
153.80316 -203.46573 -8.6848497
153.75053 -203.53494 -8.9537067
158.24095 -203.45934 -9.1129456
159.14105 -203.51324 -9.0919628
143.72211 -203.44232 -9.3620396
146.25722 -203.49065 -9.303215
144.68198 -203.46411 -9.5214443
143.07182 -203.53705 -9.6296644
146.07861 -203.59894 -9.6052275
142.59201 -203.4426 -9.8065224
153.77097 -203.41457 -9.8402891
142.34605 -203.405 -10.006775
150.69981 -203.55009 -10.582211
145.84081 -203.49687 -10.672539
158.28922 -203.49673 -10.998966
153.20325 -203.44949 -12.21651
141.88817 -203.31654 -2.509073
140.00732 -203.30498 -2.649137
140.21301 -203.3298 -2.6147499
144.29642 -203.28433 -2.7696929
158.43263 -203.22868 -2.6836431
145.70914 -203.31857 -2.834816
152.42082 -203.25764 -2.8984599
153.36574 -203.26799 -2.830663
143.52139 -203.37103 -4.1434178
147.84854 -203.32217 -5.9528108
147.39792 -203.30527 -7.3948169
144.315 -203.34796 -8.1896038
143.12268 -203.31335 -8.5189152
140.73941 -203.36778 -8.6378784
143.77908 -203.37538 -8.9018984
140.63824 -203.25299 -9.0911226
143.44873 -203.31595 -9.1239815
155.52676 -203.26715 -9.1261921
140.77867 -203.33267 -9.2724228
149.53577 -203.31181 -9.4962959
143.57166 -203.22076 -9.797945
147.03442 -203.33694 -9.7408705
153.13193 -203.24953 -10.136458
145.79305 -203.35626 -11.341364
142.79512 -203.18225 -2.758759
147.93649 -203.06558 -2.772851
148.56941 -203.00639 -2.7157421
149.33556 -203.01884 -2.7811339
155.51523 -203.18604 -2.6981101
156.77448 -203.1933 -2.7124209
158.52184 -203.05006 -2.6794319
159.2549 -203.17215 -2.7908061
159.83565 -203.05064 -2.625582
143.35272 -203.12573 -2.8089011
144.24936 -203.04285 -2.826849
145.09686 -203.10463 -2.8239591
153.78589 -203.01738 -2.811084
144.93214 -203.03629 -7.3692031
140.62291 -203.12772 -8.6687584
140.54422 -203.07422 -8.9618206
153.98024 -203.15108 -8.9582081
143.31206 -203.1721 -9.1518993
154.11646 -203.11937 -9.1249056
140.97076 -203.05339 -9.3982372
158.34953 -203.15446 -9.2341204
159.06468 -203.02667 -9.3879395
140.61607 -203.02039 -9.4192104
157.72533 -203.0123 -9.710453
159.63324 -203.13277 -9.6110983
153.08301 -203.18777 -9.9151773
155.98698 -203.12912 -10.018705
143.75616 -203.0976 -10.231825
143.28061 -203.05112 -11.050848
159.91898 -203.10751 -11.459296
152.50117 -203.1434 -12.586384
140.88255 -202.89743 -2.6512859
152.28406 -202.85497 -2.793633
159.05611 -202.95807 -2.6701081
143.14735 -202.80623 -2.814225
146.20969 -202.8308 -2.8180561
144.92105 -202.84586 -7.3327298
145.62012 -202.90854 -7.3112388
154.88438 -202.93379 -7.628561
143.00452 -202.92632 -9.1437979
150.9635 -202.97221 -9.0866299
142.87549 -202.9904 -9.2420158
143.30119 -202.93982 -9.3303776
143.81808 -202.95236 -9.3470297
158.61104 -202.98643 -9.3422279
140.50818 -202.93222 -9.5516663
144.50519 -202.89616 -10.925285
142.9454 -202.88841 -11.910744
152.9772 -202.9417 -12.818089
142.13969 -202.70743 -2.6573219
142.4794 -202.67639 -2.687062
152.93863 -202.61331 -2.7407141
158.1864 -202.71474 -2.7713571
159.57635 -202.65756 -2.634346
140.1003 -202.62027 -2.9684889
146.46376 -202.73419 -2.811177
140.28381 -202.66891 -3.2722981
145.8407 -202.7005 -9.35882
143.0415 -202.68974 -9.5654755
146.18936 -202.67972 -9.4381008
143.61707 -202.62238 -9.6315546
146.48706 -202.63814 -9.6511211
140.1512 -202.64108 -9.8554249
140.63226 -202.76581 -9.8166075
153.67101 -202.60309 -9.922142
144.24025 -202.62065 -10.910788
142.99977 -202.73981 -11.132712
142.12617 -202.58427 -2.5922379
140.52359 -202.59906 -2.682385
142.41281 -202.47963 -2.681241
145.45798 -202.50079 -2.7902851
158.31131 -202.47202 -2.6531911
159.0936 -202.56073 -2.7491441
142.62254 -202.48843 -2.8062229
140.1496 -202.49875 -3.0606
140.49533 -202.52542 -3.1149809
141.96341 -202.43526 -3.556289
142.45461 -202.40967 -3.7744961
143.76416 -202.48474 -8.1957674
149.85167 -202.41397 -8.6860332
151.811 -202.56297 -8.7681475
140.48306 -202.59673 -9.4921589
154.22214 -202.50497 -9.4897537
142.24701 -202.44133 -10.070339
153.60652 -202.55891 -10.028694
155.69778 -202.54599 -12.079958
141.23306 -202.33521 -2.5557089
140.17139 -202.26901 -2.6438291
140.52341 -202.28238 -2.6908219
142.64069 -202.24904 -2.74124
144.1265 -202.21371 -2.7587121
151.81927 -202.24127 -2.689702
140.48141 -202.2812 -2.886348
142.70912 -202.36894 -2.8506789
144.4894 -202.29634 -2.800878
146.18909 -202.36693 -2.8111291
140.96252 -202.23706 -3.1075959
143.26938 -202.21443 -8.3231277
144.06299 -202.26529 -8.2958603
151.95148 -202.24178 -8.7119541
155.49403 -202.2623 -8.9800377
140.42784 -202.39806 -9.6391926
142.2998 -202.33781 -9.7953978
145.61057 -202.39714 -9.6820068
146.22542 -202.27864 -9.7204533
154.52629 -202.29422 -9.6723118
153.6824 -202.24603 -9.933815
140.60802 -202.2511 -10.157297
152.22903 -202.32133 -10.560779
144.05081 -202.27832 -11.308319
143.87357 -202.23906 -11.570008
141.0094 -202.15829 -2.568939
142.35605 -202.12315 -2.686331
142.65561 -202.07999 -2.7497301
143.40015 -202.11905 -2.7654691
143.6971 -202.11063 -2.7692511
155.84837 -202.1792 -2.6937399
156.98093 -202.05896 -2.666646
140.22968 -202.15607 -2.8410079
142.70731 -202.11104 -2.837894
142.97813 -202.19131 -2.822309
140.14268 -202.0733 -3.2408669
140.35455 -202.15514 -3.228266
141.89114 -202.09509 -3.5340879
142.17429 -202.09166 -3.739907
142.45868 -202.13425 -3.75546
144.15584 -202.17545 -8.5497704
144.64182 -202.11826 -8.5192537
144.98753 -202.11763 -8.4965935
145.46213 -202.13495 -9.3842001
140.49991 -202.136 -9.4485283
144.55214 -202.15375 -9.4637451
145.29236 -202.12181 -9.7868557
141.79752 -202.03177 -9.8831196
153.72314 -202.12671 -10.267504
141.92769 -201.86493 -2.4623079
143.98337 -201.8757 -2.5764191
142.49667 -201.95633 -2.7352109
148.17755 -201.81645 -2.6774271
152.15182 -201.83395 -2.7119169
154.43199 -201.83365 -2.677319
142.97597 -201.98039 -2.828377
143.92345 -201.9464 -2.807055
144.06216 -201.84099 -2.8304009
158.9285 -201.81796 -2.8995781
140.27951 -201.90967 -3.211535
141.43387 -201.88443 -3.4890981
141.79686 -201.80383 -3.668756
141.90839 -201.91354 -3.6715479
142.10626 -201.84467 -3.7312679
142.31583 -201.93492 -3.749377
142.48312 -201.89224 -3.72434
142.82648 -201.80089 -3.7658491
142.1378 -201.87653 -3.829293
144.17847 -201.88066 -8.3359118
145.21437 -201.89487 -8.5573521
158.84235 -201.88852 -8.5216284
151.59853 -201.97572 -8.9475527
152.85574 -201.90318 -9.1398869
144.47398 -201.9622 -11.16169
142.75711 -201.85765 -11.341746
143.86481 -201.88249 -11.365563
154.58972 -201.88892 -11.797079
141.88095 -201.78757 -2.3574259
140.93465 -201.73203 -2.7404571
142.5181 -201.68555 -2.6950531
143.55569 -201.61945 -2.792866
148.58658 -201.60728 -2.7028561
150.96643 -201.75221 -2.711611
151.36314 -201.76131 -2.6922641
158.32146 -201.69424 -2.685097
158.47964 -201.65228 -2.934453
141.89818 -201.77565 -3.1318099
142.92128 -201.74776 -3.1020491
142.19939 -201.77458 -3.4781761
141.95811 -201.69353 -3.6807611
155.68962 -201.6815 -8.383256
144.56973 -201.75948 -8.516367
144.98889 -201.7948 -8.5889196
147.23083 -201.63948 -8.4163628
155.55338 -201.61372 -8.4081812
143.84955 -201.7415 -8.8769264
144.62776 -201.7735 -8.8780298
145.02698 -201.68961 -8.9287701
147.63307 -201.74994 -8.9072609
147.33185 -201.69572 -9.3876438
151.71368 -201.75555 -10.620568
140.10738 -201.40173 -2.5211909
142.17253 -201.41217 -2.5836611
155.55144 -201.47859 -2.5948889
142.31029 -201.46564 -2.705642
144.37726 -201.46222 -2.7446301
149.12755 -201.4904 -2.6435821
157.54982 -201.48279 -2.62152
142.89256 -201.51268 -3.049777
158.58168 -201.42868 -3.0023839
142.25497 -201.49686 -3.3013539
142.24698 -201.50266 -3.68665
142.63116 -201.49609 -3.746927
151.30652 -201.52507 -8.9285669
144.66327 -201.55545 -9.0375385
144.24602 -201.40916 -9.4885807
153.91306 -201.49387 -9.5663671
151.37886 -201.44672 -10.687289
140.2989 -201.43108 -12.73435
140.1452 -201.32486 -2.6782639
142.52878 -201.3605 -2.741457
142.87619 -201.34622 -2.8470221
157.95564 -201.25214 -2.823529
158.18764 -201.34436 -2.924298
141.98373 -201.35667 -3.340307
142.65819 -201.24097 -3.266294
142.50078 -201.30673 -3.682359
159.36115 -201.23302 -5.3408608
144.91742 -201.37935 -8.0944967
144.01378 -201.38899 -8.3946552
155.62526 -201.25464 -8.310874
143.79355 -201.39375 -8.8667316
144.32539 -201.28864 -9.115963
140.22542 -201.37743 -9.4309044
140.46021 -201.30724 -9.6191111
153.72906 -201.32672 -9.6456594
143.97879 -201.36026 -10.197535
155.42014 -201.21857 -11.252936
143.75964 -201.27545 -11.446354
141.9335 -201.13336 -2.4297011
140.10147 -201.10898 -2.654608
140.34085 -201.1813 -2.6981449
140.53668 -201.10236 -2.709945
147.84247 -201.01689 -2.613874
156.13593 -201.02036 -2.6077421
142.08121 -201.01714 -3.083734
158.05711 -201.16673 -3.0074699
158.92128 -201.0419 -4.6823368
159.31354 -201.10486 -4.7620158
159.21541 -201.17679 -4.8820701
158.78787 -201.02472 -5.5591731
159.03609 -201.02222 -6.756959
158.9644 -201.12349 -7.8070688
144.87012 -201.17715 -8.0451107
142.94044 -201.08685 -8.3041344
141.91557 -201.07953 -8.7166281
142.46748 -201.09737 -8.6903477
150.22818 -201.01395 -8.6191978
144.15742 -201.13031 -9.3219805
153.77911 -201.1048 -9.3887157
140.40955 -201.08432 -9.403635
143.82016 -201.15692 -9.564867
144.88962 -201.0563 -9.6750183
143.88229 -201.1187 -9.8849506
143.43579 -201.05722 -10.348689
151.28108 -201.13374 -10.232438
143.04189 -201.10074 -10.553973
153.60362 -201.07761 -10.44186
151.03903 -201.0554 -10.650451
145.39136 -201.03104 -10.833391
147.36298 -201.17624 -12.487759
140.15482 -201.14233 -13.105126
159.89642 -201.02353 -15.386429
141.87196 -200.99664 -2.3782661
142.00215 -200.92799 -2.4904511
147.18092 -200.85324 -2.59144
151.77872 -200.83867 -2.5989311
152.56009 -200.94896 -2.5823431
157.39015 -200.84444 -2.527524
140.56551 -200.94855 -2.7594249
142.60345 -200.931 -2.6628079
145.95724 -200.88341 -2.6893899
147.06172 -200.85526 -2.6293521
148.32497 -200.80211 -2.669071
150.61113 -200.84612 -2.642375
151.02745 -200.84363 -2.656709
158.01846 -200.92296 -2.7040901
140.9247 -200.92072 -2.8361571
140.32378 -200.90736 -3.3459821
140.25214 -200.85779 -3.463675
158.73984 -200.90515 -3.881619
158.81174 -200.82375 -4.2352161
140.30261 -200.8602 -4.539362
158.81679 -200.90009 -4.5624499
158.96811 -200.99112 -4.9566598
158.81367 -200.86327 -5.250546
158.66031 -200.89685 -5.8632479
158.85435 -200.93651 -5.8924379
158.99654 -200.96568 -6.0964928
158.91634 -200.98087 -6.499805
140.99393 -200.82408 -7.0976868
159.00749 -200.94379 -7.3185081
158.79314 -200.85555 -7.587378
142.65295 -200.9155 -8.1235409
159.04265 -200.96887 -8.1055717
142.31033 -200.92111 -8.2691956
149.38651 -200.98607 -8.2162342
141.8833 -200.96744 -8.563139
142.23236 -200.9464 -8.4637928
142.60071 -200.93744 -8.4704208
144.46002 -200.88254 -8.5147133
150.65088 -200.89307 -8.6504993
158.9942 -200.8595 -8.638628
142.29941 -200.96075 -8.8283081
143.92838 -200.96033 -8.976615
152.30951 -200.99234 -8.8959007
141.75848 -200.87907 -9.3612728
142.11948 -200.89676 -9.4535122
144.79602 -200.8326 -9.7828083
145.30769 -200.8808 -9.691186
144.63538 -200.91486 -10.103523
144.85818 -200.911 -10.218803
145.25555 -200.93146 -10.447421
155.61067 -200.97282 -11.560926
142.14062 -200.651 -2.4982791
147.45734 -200.65735 -2.5717421
149.0815 -200.66313 -2.5873499
151.7547 -200.65973 -2.5899179
153.11891 -200.66687 -2.559159
149.97412 -200.6559 -2.6172049
140.8775 -200.62766 -2.8152909
140.18143 -200.68774 -3.0520461
158.89597 -200.61563 -3.5160899
140.32867 -200.6678 -3.7275269
158.78 -200.76456 -4.3371091
158.85046 -200.67474 -4.5252838
140.31067 -200.65164 -4.7240448
140.19614 -200.68042 -4.9777699
140.32239 -200.65332 -4.9312792
158.64783 -200.74072 -4.8656259
158.67427 -200.73109 -5.369329
140.27618 -200.63654 -5.6909428
140.44836 -200.69214 -5.8277869
158.70981 -200.76889 -5.918859
140.45819 -200.64166 -6.3212428
158.7962 -200.69804 -6.286891
158.60611 -200.61615 -6.5881958
140.64633 -200.63889 -6.6536622
141.15181 -200.64336 -6.935885
140.5421 -200.62775 -7.1009121
141.04794 -200.66 -7.0688229
141.25528 -200.68549 -7.0645609
158.87714 -200.69952 -7.0699372
159.01335 -200.66531 -7.3632889
141.28502 -200.64467 -7.4016819
158.89572 -200.70456 -7.5082889
140.31175 -200.60699 -7.755929
140.6709 -200.62427 -7.7335191
141.47829 -200.62775 -7.7785382
141.14413 -200.74622 -8.1925306
141.37537 -200.7012 -8.021246
141.04584 -200.6041 -8.3221989
142.11481 -200.79393 -8.3182468
141.44632 -200.66992 -8.4638386
142.25079 -200.74057 -8.5404186
147.95171 -200.70947 -8.4346228
152.95183 -200.63734 -8.4648857
158.97061 -200.6972 -8.4906292
141.31265 -200.76079 -8.7107048
159.05386 -200.68663 -8.6302195
158.96068 -200.70427 -9.0713902
141.05 -200.69028 -9.2451954
141.41965 -200.60733 -9.3977003
151.34116 -200.64302 -9.4526978
144.63536 -200.662 -9.6624031
144.90601 -200.61693 -9.6832266
151.33234 -200.6683 -9.9012604
143.95949 -200.58723 -2.6171479
144.6132 -200.59711 -2.6228039
157.90335 -200.53265 -2.9793839
140.16232 -200.48306 -3.0780871
140.22394 -200.53809 -3.319145
140.19322 -200.5499 -3.490422
140.14223 -200.57204 -4.5629492
140.3278 -200.55403 -4.7649498
140.26703 -200.56555 -5.4875202
140.46906 -200.53229 -5.4367309
140.51544 -200.56834 -5.6701279
140.16029 -200.50488 -6.2825532
141.06152 -200.49251 -6.3573489
159.02473 -200.48346 -6.3448272
140.23499 -200.52625 -6.5501838
141.04446 -200.51669 -6.6615968
140.3063 -200.52087 -6.943059
140.25299 -200.56 -7.0930252
140.19714 -200.4901 -7.3537712
140.24619 -200.46004 -7.3610201
140.41287 -200.56079 -7.3194199
140.64966 -200.48105 -7.3955388
140.27435 -200.48877 -7.521791
141.07832 -200.5296 -7.4941378
141.3454 -200.55801 -7.439734
159.05403 -200.52266 -7.4192419
140.40981 -200.46693 -7.8867402
159.15718 -200.47008 -7.9484401
140.56578 -200.48962 -8.1621704
141.31494 -200.58998 -8.3272762
144.33595 -200.52928 -8.3550835
140.55133 -200.45233 -8.4848099
140.64127 -200.4628 -8.4812946
141.04822 -200.54755 -8.6218853
143.76648 -200.59442 -8.9302349
141.42104 -200.58946 -9.1140718
151.25812 -200.52666 -9.1188374
159.27808 -200.5114 -9.7969685
144.63809 -200.46368 -10.560104
150.50763 -200.49854 -10.541759
140.38657 -200.57916 -12.342421
140.0537 -200.43568 -12.465107
141.30807 -200.33194 -2.500504
143.36345 -200.24274 -2.5591619
149.03592 -200.20386 -2.508147
151.33037 -200.21742 -2.5973361
153.07382 -200.21912 -2.414804
158.32202 -200.37714 -4.2766171
140.29854 -200.34464 -5.4528852
140.44374 -200.30948 -5.7428269
140.14622 -200.37233 -6.477037
141.10144 -200.3797 -6.4925189
140.24878 -200.28958 -7.0349202
140.16208 -200.34328 -7.3671689
140.25568 -200.36429 -7.79392
158.25371 -200.21613 -8.0744362
140.2411 -200.36252 -8.2106113
140.90324 -200.3902 -8.2726955
148.17545 -200.36172 -8.6323242
153.70209 -200.33035 -8.7564888
140.29961 -200.27789 -9.0637808
140.22263 -200.32288 -9.3374348
141.87013 -200.22559 -9.3262882
158.45833 -200.21048 -9.2965927
140.52135 -200.28418 -9.7769594
141.71599 -200.38055 -9.6104259
153.55316 -200.29353 -9.9228458
150.06528 -200.29001 -10.836374
144.73048 -200.21692 -11.093228
140.19891 -200.26819 -11.876085
147.13812 -200.23122 -11.956854
158.22919 -200.2265 -12.215425
144.07739 -200.13437 -2.562592
146.25085 -200.14841 -2.556623
147.87839 -200.14185 -2.5858431
148.56068 -200.14742 -2.5427711
154.28125 -200.17657 -2.53071
155.05417 -200.11963 -2.5973151
149.95058 -200.07523 -2.6675701
158.33653 -200.1465 -2.615607
159.0789 -200.0459 -2.640274
157.9059 -200.18805 -3.3544419
141.6748 -200.02818 -7.6139178
144.10811 -200.14404 -7.9117589
144.13805 -200.19157 -8.0803194
143.37601 -200.04764 -8.9293766
140.96201 -200.06715 -9.1032152
142.18156 -200.0827 -9.0219259
140.51968 -200.17148 -9.4378929
145.73679 -200.08061 -9.4826298
151.0864 -200.19492 -9.46772
144.67767 -200.01889 -9.8008652
153.7052 -200.12978 -9.8564253
150.37012 -200.09586 -10.137428
150.48216 -200.0961 -10.342503
149.81009 -200.04704 -10.651343
155.04591 -200.00269 -10.87359
144.65569 -200.198 -11.349321
140.05008 -200.04639 -11.570555
140.66216 -200.01526 -12.280119
146.64861 -200.04224 -12.460781
141.84717 -219.83809 -3.371346
142.96597 -219.80727 -3.4750929
143.32706 -219.84784 -3.5459981
147.49536 -219.86266 -3.5871501
143.80249 -219.88239 -3.6041169
144.67703 -219.82687 -3.6527719
145.14775 -219.80215 -3.612437
146.80212 -219.91602 -3.6630371
148.36775 -219.93994 -5.94521
148.06387 -219.82132 -6.15347
148.23013 -219.88239 -6.4721961
148.25917 -219.8828 -6.720089
148.61276 -219.81833 -7.9107442
159.38139 -219.84622 -7.873745
148.28688 -219.87213 -8.1014633
159.35608 -219.92509 -8.5994883
141.45706 -219.84332 -9.7298279
142.05814 -219.8172 -9.8067245
157.63901 -219.99806 -9.9582005
153.9644 -219.83835 -10.176798
157.79593 -219.95618 -10.138174
143.09814 -219.90764 -10.384918
143.83409 -219.88942 -10.352552
143.79338 -219.92395 -10.482102
143.52386 -219.92264 -10.715381
143.86925 -219.81287 -11.015863
143.9559 -219.8123 -11.333636
144.18689 -219.86745 -11.320498
154.56029 -219.96835 -11.28576
141.3237 -219.65256 -2.9106059
153.42314 -219.77814 -3.522563
145.00435 -219.79048 -3.622535
145.84726 -219.63284 -3.762799
142.81479 -219.68973 -4.3723521
142.97168 -219.63812 -4.5946341
142.4801 -219.68835 -4.6708851
142.22203 -219.73216 -5.0100622
143.26805 -219.67731 -5.0102892
148.12054 -219.70352 -6.1108122
148.28418 -219.72287 -6.1015902
148.56357 -219.79729 -7.083446
149.15808 -219.6411 -7.0419168
147.89267 -219.71198 -7.514719
148.23375 -219.79866 -7.4117088
148.31783 -219.73813 -7.7159591
159.11014 -219.6947 -7.899931
154.9881 -219.70543 -10.06533
155.60814 -219.65031 -10.714666
144.60028 -219.67964 -11.807862
154.46324 -219.77705 -12.976475
154.27756 -219.76755 -13.095778
140.13086 -219.42773 -3.1498799
141.16629 -219.58284 -3.034179
141.50946 -219.56128 -3.265193
141.901 -219.54886 -3.362622
142.89415 -219.5345 -3.5601039
148.0493 -219.52835 -3.5773079
150.56525 -219.40863 -3.53917
153.47801 -219.43466 -3.4850941
156.62827 -219.43892 -3.459919
157.23958 -219.45116 -3.471951
144.78302 -219.54652 -3.6269159
145.83719 -219.40714 -3.7258899
142.13835 -219.51364 -4.4514732
142.29556 -219.4865 -4.4964142
142.25861 -219.49249 -4.636878
142.87677 -219.59547 -5.1134958
142.90923 -219.49878 -5.2981672
147.98747 -219.59146 -7.1941409
148.54289 -219.46173 -7.9033928
159.05698 -219.56638 -7.9886189
154.29199 -219.56403 -8.6988831
159.1575 -219.40213 -8.740572
159.28418 -219.58154 -8.8637848
158.6312 -219.44841 -9.4040012
158.5713 -219.57669 -9.7566147
155.81096 -219.4371 -10.542803
143.77309 -219.57623 -11.470634
154.62956 -219.44708 -12.678908
154.84804 -219.54102 -12.640892
155.40405 -219.49113 -12.684637
155.34355 -219.46802 -12.856238
157.88098 -219.50098 -13.776644
141.05209 -219.39363 -3.012784
140.89601 -219.20221 -3.291981
143.2449 -219.24641 -3.5254509
145.41006 -219.3515 -3.5480809
148.18634 -219.31116 -3.5617239
149.78311 -219.35651 -3.533742
159.84189 -219.38072 -3.4619701
144.64371 -219.39923 -3.6866331
144.97989 -219.33237 -3.60151
145.79317 -219.26584 -3.670727
154.55348 -219.2578 -3.6062469
142.26248 -219.30453 -4.29422
142.27002 -219.26093 -4.4488602
141.98236 -219.35052 -5.0867839
142.05103 -219.23935 -5.1510539
142.30832 -219.35835 -5.1735358
142.64261 -219.30881 -5.0836749
142.69495 -219.31531 -5.3830719
142.39597 -219.25546 -5.403316
143.29535 -219.39029 -5.4452281
148.86758 -219.24867 -7.1313829
158.91634 -219.34534 -8.9521904
154.95529 -219.31438 -9.0008211
154.71713 -219.34991 -9.829752
153.52536 -219.26601 -10.184534
156.70679 -219.34766 -10.934263
144.02269 -219.23015 -11.003152
157.86172 -219.26105 -11.446719
143.72809 -219.29427 -11.833138
142.37155 -219.10883 -3.534251
142.85352 -219.10324 -3.477699
143.30167 -219.04353 -3.5468111
148.14717 -219.09082 -3.5364499
148.55043 -219.06241 -3.553524
149.88425 -219.07426 -3.514776
151.04222 -219.16753 -3.5135059
151.39871 -219.0437 -3.486475
153.13364 -219.11511 -3.4517181
153.84177 -219.13071 -3.4272411
154.42055 -219.13518 -3.5973599
145.03152 -219.02585 -3.6285861
145.79271 -219.08495 -3.670305
142.13669 -219.13448 -4.3394532
142.12036 -219.06937 -4.8685088
141.90634 -219.09479 -5.0277472
142.06987 -219.04024 -5.0821619
142.63972 -219.15782 -5.1980929
142.15857 -219.09564 -5.241035
147.59927 -219.13271 -6.806715
149.02908 -219.08783 -6.955657
154.89569 -219.03036 -7.4497828
154.86386 -219.06705 -8.1369076
154.74388 -219.10796 -9.0582762
154.63914 -219.08801 -9.4100838
153.3425 -219.01958 -9.675909
154.48225 -219.02237 -9.9384708
155.39078 -219.05579 -10.559099
143.2916 -219.07573 -11.083998
144.03049 -219.0545 -11.018109
159.32382 -219.13742 -14.038002
142.91264 -218.86938 -3.505569
150.57483 -218.91411 -3.569459
154.19107 -218.89871 -3.5233331
145.12955 -218.82059 -3.6070299
142.70972 -218.9241 -4.0932131
141.90594 -218.89076 -4.3770518
142.14154 -218.91151 -4.646234
142.13084 -218.97203 -5.0602102
142.3378 -218.8596 -5.4403501
142.47495 -218.85788 -5.465477
154.74759 -218.85559 -6.3190031
147.44983 -218.80542 -8.7021751
159.08444 -218.94919 -8.6339798
153.57848 -218.93576 -9.1770849
153.86378 -218.88649 -10.854311
143.56589 -218.99612 -11.976757
141.52185 -218.65849 -3.285888
142.83978 -218.67926 -3.481442
143.19994 -218.6499 -3.525471
143.29868 -218.66803 -3.5275431
148.07506 -218.62103 -3.5046561
149.36075 -218.67723 -3.540072
154.0878 -218.64725 -3.5136819
146.05533 -218.77811 -3.6464391
143.04416 -218.66824 -4.0082412
141.92664 -218.75476 -4.5586071
142.08347 -218.72693 -4.4741559
154.47577 -218.65208 -4.5173111
142.03998 -218.70718 -4.84724
154.62216 -218.68814 -4.9483528
142.2847 -218.70853 -5.295352
142.49025 -218.66159 -5.3624678
142.90437 -218.63515 -5.3981948
154.69846 -218.69284 -5.7834859
154.85576 -218.66647 -6.2716088
154.96439 -218.63531 -8.684844
147.32526 -218.62646 -8.9646587
154.96912 -218.63751 -9.041811
147.77678 -218.63896 -9.8294535
153.45042 -218.69884 -10.086537
147.78336 -218.6479 -10.259604
147.21088 -218.62125 -10.919995
147.04414 -218.60553 -11.131766
143.64542 -218.72141 -11.2283
157.37233 -218.63841 -14.054858
140.99425 -218.51804 -2.9798789
141.04169 -218.52386 -3.22472
144.87846 -218.4935 -3.5521331
145.06007 -218.57303 -3.5554099
145.35806 -218.52261 -3.5392921
145.765 -218.5468 -3.588393
147.21555 -218.43904 -3.513571
150.14949 -218.50032 -3.5522299
145.53633 -218.45346 -3.615983
142.36276 -218.52986 -4.1974988
142.05432 -218.5257 -4.75805
142.30109 -218.47633 -4.7198658
141.74045 -218.55322 -4.87114
141.87802 -218.54904 -4.9210129
143.04317 -218.44873 -4.996448
141.62564 -218.53369 -5.0138412
142.45126 -218.50755 -5.3012891
154.65962 -218.53287 -6.4720969
154.38943 -218.42944 -7.3086419
154.69809 -218.51083 -7.3308792
158.79134 -218.54987 -8.4163055
147.41713 -218.54871 -8.6387253
155.81155 -218.48907 -8.76161
148.18141 -218.52682 -9.1102352
147.10738 -218.491 -9.4439049
147.36169 -218.47554 -9.5000877
154.59901 -218.49997 -9.5216999
147.15465 -218.55038 -9.6036835
154.29289 -218.55005 -9.7443762
155.9312 -218.48273 -9.7682505
142.95544 -218.49738 -11.36418
147.36801 -218.49797 -11.456087
157.74976 -218.40277 -11.444901
154.95663 -218.58174 -11.635088
143.69984 -218.54877 -12.566176
145.64584 -218.4534 -12.474161
154.60883 -218.55217 -12.889965
143.492 -218.33655 -3.5118151
149.44891 -218.2265 -3.4828241
155.39726 -218.25443 -3.4368451
159.76392 -218.35173 -3.407763
146.04257 -218.24171 -3.6620519
142.47491 -218.27469 -4.370647
141.70367 -218.3479 -4.571681
142.32988 -218.33008 -4.4653921
142.25211 -218.24365 -4.6708632
141.70018 -218.35687 -4.8695178
141.8969 -218.30244 -4.9108748
142.75958 -218.25729 -4.9327579
142.11665 -218.30988 -5.1168771
142.28079 -218.32663 -5.155612
142.53076 -218.28404 -5.0456638
142.26111 -218.28589 -5.3150172
143.18491 -218.37056 -5.3172288
154.52823 -218.38638 -6.273849
154.58145 -218.35364 -6.5417652
154.55977 -218.35597 -6.9544768
154.59428 -218.29254 -7.0181322
154.51797 -218.32188 -7.4469819
154.81252 -218.22934 -7.8530121
147.33022 -218.30125 -8.5996246
147.36842 -218.23853 -8.9662552
147.24512 -218.27034 -9.5364456
153.89822 -218.24091 -9.6858311
154.44481 -218.35635 -9.7765694
148.6019 -218.31454 -10.387388
154.00328 -218.2168 -10.268465
148.4939 -218.27502 -10.587976
142.62994 -218.31564 -11.452274
147.07256 -218.26363 -11.475813
148.23315 -218.2038 -11.809857
144.98309 -218.25702 -12.177011
