# .PCD v0.7 - Point Cloud Data file format
VERSION 0.7
FIELDS x y z
SIZE 4 4 4
TYPE F F F
COUNT 1 1 1
WIDTH 1516
HEIGHT 1
VIEWPOINT 0 0 0 1 0 0 0
POINTS 1516
DATA ascii
140.66458 -226.10368 -7.4151478
144.27383 -226.11142 -7.522418
145.30077 -226.16574 -7.75453
145.40601 -226.0507 -8.6106777
145.54305 -226.12865 -9.1687851
142.54449 -226.09592 -9.6730404
144.26462 -226.15701 -9.7855053
143.10829 -226.07141 -9.9063311
146.03519 -226.19406 -9.9090538
148.18782 -226.11092 -9.8607483
145.80336 -226.15202 -10.119942
146.55716 -226.14595 -10.779696
146.32153 -226.17572 -10.970406
146.51884 -226.11908 -10.925214
143.44992 -226.13551 -11.494932
145.1571 -226.04265 -13.30221
142.69164 -226.00125 -18.433983
140.99779 -225.81946 -3.1722939
140.13565 -225.95169 -3.421792
141.86613 -225.88928 -3.7505419
142.5603 -225.91132 -3.8401949
145.42941 -225.88191 -4.0969939
145.79724 -225.93317 -4.0660672
142.43088 -225.98344 -4.5637431
141.1734 -225.87642 -5.0158658
142.44489 -225.98129 -5.075449
140.3252 -225.87198 -7.1583352
144.05205 -225.95995 -7.0653658
145.14084 -225.95493 -7.5501118
145.27396 -225.90593 -7.5096469
140.86784 -225.84595 -7.7276878
145.07243 -225.89447 -7.7806921
144.84795 -225.97345 -8.6112604
146.25034 -225.80061 -9.6839209
146.94833 -225.85294 -9.7085457
147.72504 -225.91809 -9.7583828
145.50681 -225.88785 -9.8016319
148.9039 -225.84012 -9.9251356
148.84662 -225.97208 -10.041647
144.52953 -225.96152 -10.526599
147.35541 -225.95894 -10.555794
151.32014 -225.81529 -11.156971
146.36307 -225.93709 -11.211246
142.87898 -225.95721 -11.518188
145.68581 -225.84738 -12.305216
145.05206 -225.98898 -13.498978
141.19392 -225.84933 -17.186302
142.8421 -225.88788 -18.027557
140.22324 -225.61478 -3.4055009
143.37982 -225.71008 -3.9283619
149.06906 -225.65387 -3.923327
151.68924 -225.64597 -3.900701
156.70612 -225.75082 -3.9157131
158.22562 -225.79797 -3.8773291
155.98239 -225.66841 -4.0559988
141.55423 -225.71448 -4.565834
141.82547 -225.72278 -4.7801881
142.28914 -225.64694 -4.9326062
145.37222 -225.63995 -7.1681099
145.26033 -225.74106 -7.5655308
140.68585 -225.78468 -7.8142681
143.56606 -225.63736 -8.0654345
143.63341 -225.70186 -8.1631346
144.09897 -225.71588 -8.3024368
146.24399 -225.74504 -9.2816353
145.67239 -225.77771 -9.4423504
143.59781 -225.70361 -10.103205
148.1015 -225.6559 -10.420103
144.87729 -225.78171 -10.666845
144.63593 -225.70747 -10.868792
145.41075 -225.63232 -11.057357
145.25647 -225.67581 -11.421777
152.25352 -225.69794 -11.604277
147.6321 -225.60796 -12.165356
146.25891 -225.65587 -12.570993
145.40184 -225.74432 -12.912081
140.22156 -225.73721 -14.930304
143.91904 -225.65009 -15.859858
143.8465 -225.75381 -16.29089
143.7095 -225.70663 -16.574116
143.70651 -225.66319 -19.990377
140.08615 -225.58331 -3.3919721
141.29448 -225.47285 -3.638402
151.11325 -225.4883 -3.914248
145.22829 -225.54355 -4.0581331
148.36758 -225.4021 -4.0219831
141.30237 -225.46866 -4.344183
141.73442 -225.55661 -4.7058678
141.74503 -225.55219 -4.811028
143.13759 -225.58109 -7.5320988
143.28181 -225.51712 -7.4395251
140.44844 -225.52771 -7.7270498
143.87312 -225.55115 -8.0046692
143.63486 -225.41086 -8.5724573
144.62265 -225.48035 -9.0871658
146.21808 -225.40768 -9.0096817
142.60489 -225.40424 -10.064587
147.7014 -225.42374 -10.076313
145.1393 -225.41394 -10.443565
146.24338 -225.43805 -10.538216
144.58617 -225.55693 -10.736545
146.97137 -225.4577 -11.291691
152.03499 -225.59433 -11.326955
145.32089 -225.50653 -11.496988
147.67404 -225.55276 -11.914206
147.51872 -225.52127 -12.123487
145.46463 -225.56856 -12.559477
140.6898 -225.47557 -16.471882
143.83844 -225.52475 -16.727907
141.24545 -225.47375 -19.473669
155.47876 -225.33163 -3.7790971
151.67453 -225.31683 -3.8815351
158.86612 -225.37245 -3.8640311
145.62192 -225.29132 -6.241549
145.47842 -225.32318 -6.612206
145.65166 -225.32907 -6.712028
143.13718 -225.20078 -6.896812
144.0856 -225.29941 -6.835618
146.08156 -225.3851 -8.1878872
141.48514 -225.34389 -8.3362808
145.31494 -225.31952 -8.5721741
140.21686 -225.25208 -8.8332195
145.01265 -225.35889 -9.7524414
141.37457 -225.3909 -9.8046989
145.07596 -225.30368 -10.23827
145.51035 -225.2709 -10.242981
144.11868 -225.31763 -10.661548
147.74205 -225.31528 -11.001213
146.06155 -225.3396 -11.261208
140.80305 -225.37286 -16.385305
141.73941 -225.33673 -16.372547
143.65578 -225.22697 -17.281685
143.56123 -225.28793 -17.408083
144.81169 -225.34866 -18.96666
140.78735 -225.12572 -3.3151529
141.41631 -225.03445 -3.538645
141.51819 -225.08684 -3.6365881
158.69469 -225.19206 -3.7736411
142.62659 -225.11232 -3.8695049
143.75482 -225.10518 -3.8716481
153.04486 -225.13252 -3.848563
142.58813 -225.15324 -4.0935411
145.40451 -225.04726 -5.5379028
145.31625 -225.076 -6.3196168
145.37827 -225.0663 -6.540102
144.22723 -225.0889 -6.8443599
144.56602 -225.07968 -6.8193521
143.03372 -225.11313 -7.3031001
144.60956 -225.13416 -7.6689219
142.18573 -225.04486 -8.42733
146.15433 -225.13116 -8.9275093
144.62674 -225.13387 -9.3591757
147.19733 -225.136 -9.511137
144.22754 -225.05164 -9.7560453
145.57719 -225.19185 -9.708066
146.68695 -225.15793 -9.8725624
142.99823 -225.02629 -10.739024
144.3096 -225.04976 -10.607675
146.98676 -225.13147 -10.783592
147.43539 -225.06 -11.486555
144.25214 -225.09674 -11.882507
147.86551 -225.05418 -12.096213
147.69681 -225.19588 -13.580585
144.24071 -225.14542 -13.909834
141.2338 -225.13188 -15.703169
144.85529 -225.08813 -17.059244
141.42377 -224.93513 -3.443634
142.62386 -224.90202 -3.720794
153.52248 -224.82005 -3.7830551
157.42001 -224.82159 -3.7244949
143.77069 -224.94196 -3.864881
148.16789 -224.98302 -3.945801
148.62178 -224.92039 -3.904036
145.47131 -224.92258 -4.6366258
145.32809 -224.8309 -5.1812382
145.3501 -224.94716 -6.4893961
145.16156 -224.82211 -6.7620029
145.36984 -224.96817 -7.4521928
145.61011 -224.80402 -7.5679498
145.66818 -224.87717 -7.9394689
144.30516 -224.86459 -8.0453863
144.56696 -224.84874 -8.2372761
145.62817 -224.88454 -8.2467709
144.2608 -224.81514 -8.6319237
145.52051 -224.97229 -8.7154207
143.6701 -224.87509 -9.1101151
144.15652 -224.86917 -9.1102381
145.59831 -224.92999 -9.1118565
141.90222 -224.92915 -9.3704338
142.99133 -224.96686 -9.5254145
144.47989 -224.96794 -9.481863
143.0237 -224.81178 -9.6045437
147.41725 -224.94388 -9.7142487
146.98441 -224.91782 -9.9114542
143.28461 -224.85443 -10.669399
145.21695 -224.9874 -11.110133
146.75983 -224.85431 -11.071885
147.27856 -224.96608 -11.015355
143.18607 -224.85617 -11.417362
143.81931 -224.83441 -11.479307
147.46637 -224.91884 -11.656899
146.52423 -224.89746 -13.05159
144.94119 -224.86458 -16.129896
144.90854 -224.88315 -16.44241
144.31712 -224.80354 -17.067427
143.43674 -224.8703 -17.761971
140.78842 -224.72026 -3.359683
141.07071 -224.73062 -3.3338771
142.71286 -224.61377 -3.737792
150.50722 -224.69482 -3.788799
153.29579 -224.65424 -3.7509689
159.10129 -224.76627 -3.752331
145.3259 -224.72827 -5.4603839
144.57767 -224.64557 -6.9124269
144.49612 -224.68311 -7.096107
144.54358 -224.71405 -7.432457
144.87158 -224.63861 -7.4513679
144.57851 -224.77167 -7.8093228
142.25357 -224.6716 -8.1320486
140.15669 -224.6644 -8.7131958
144.16936 -224.76636 -8.9518948
146.04681 -224.61237 -8.9196367
143.76758 -224.61357 -9.321619
146.26083 -224.72552 -9.4299088
143.7076 -224.66037 -10.166473
144.95424 -224.6257 -10.255848
146.33179 -224.6037 -10.49229
143.77917 -224.65285 -10.653032
144.19868 -224.64595 -10.687525
141.0087 -224.68974 -10.855838
142.11017 -224.67435 -11.351784
142.71498 -224.70264 -11.414124
147.29413 -224.68248 -11.695757
145.13766 -224.63501 -12.106102
145.03793 -224.63148 -12.600632
144.19917 -224.62582 -16.949236
144.31114 -224.62755 -17.638645
147.14528 -224.79294 -19.554569
141.64761 -224.47206 -3.563787
141.35606 -224.49542 -3.6055779
143.36507 -224.51926 -3.7161119
151.44794 -224.53761 -3.7612369
152.6553 -224.40849 -3.72155
144.92738 -224.59976 -4.1544309
145.1087 -224.43745 -4.7224312
142.4633 -224.56323 -4.8702879
144.98827 -224.49968 -5.3468871
144.96088 -224.48686 -5.4903712
145.04214 -224.509 -5.4465361
144.7576 -224.45807 -6.1007938
144.74869 -224.5018 -6.29212
144.8486 -224.55258 -6.2829709
146.16879 -224.44016 -6.3405142
144.68152 -224.51862 -6.505785
144.29053 -224.42833 -6.7670078
145.87146 -224.55197 -6.6489081
142.33368 -224.44699 -7.9108849
144.90945 -224.5256 -7.8061271
146.08832 -224.4931 -7.917819
142.27667 -224.4713 -8.103817
145.29945 -224.50879 -8.1027107
144.84808 -224.47122 -8.2247849
142.31674 -224.45183 -8.6634645
144.58841 -224.45413 -8.7473898
143.65747 -224.44933 -8.9493532
143.68085 -224.51802 -9.0694962
143.04071 -224.55713 -9.3971786
142.99524 -224.48016 -10.298826
143.39125 -224.59888 -10.240782
146.4805 -224.49881 -10.876754
145.05043 -224.47984 -11.051447
143.0596 -224.53143 -11.725805
145.85007 -224.44164 -12.298977
147.27898 -224.48358 -12.587149
143.65062 -224.42419 -13.931875
143.29007 -224.55965 -14.503958
143.18744 -224.54362 -14.697334
141.79295 -224.52121 -15.357654
141.02596 -224.46143 -15.717141
141.30473 -224.47156 -17.490244
143.42969 -224.51755 -17.995369
141.90694 -224.31749 -3.6933801
150.82538 -224.28586 -3.7899051
154.83247 -224.20691 -3.714885
156.54257 -224.34448 -3.789551
144.59706 -224.23425 -3.8404491
145.02426 -224.29999 -4.1122952
142.41214 -224.39926 -4.3459759
146.54526 -224.20425 -4.216423
142.09846 -224.31114 -4.4315281
142.54453 -224.29575 -4.4152312
141.91661 -224.32089 -4.7699089
142.03238 -224.23801 -4.692102
142.32483 -224.32166 -5.2022991
145.01404 -224.21642 -5.3472519
144.87918 -224.30939 -6.1596928
145.91559 -224.29446 -6.1179752
146.15155 -224.28259 -6.5541902
144.31738 -224.34601 -6.6768351
144.16328 -224.33882 -6.8503952
144.22469 -224.38869 -6.810607
144.66422 -224.30745 -6.9662461
144.16104 -224.33051 -7.0211382
146.17978 -224.21329 -7.042048
144.1772 -224.34038 -7.3442659
143.47105 -224.31665 -7.470881
143.77299 -224.34944 -7.4832568
142.49469 -224.36447 -7.788837
143.49423 -224.34306 -7.751575
146.453 -224.27747 -7.7194009
144.16647 -224.30873 -8.1332779
144.92453 -224.3623 -8.1195164
145.38103 -224.34747 -8.0811672
143.00943 -224.23547 -8.5412817
143.62741 -224.3262 -8.9180851
145.14655 -224.27551 -8.913064
146.49384 -224.20393 -9.0222406
144.55414 -224.25708 -9.836277
145.07455 -224.3226 -9.8120232
146.38596 -224.20531 -9.8015385
146.49023 -224.22226 -9.8656902
142.76941 -224.29146 -10.331169
142.86923 -224.35408 -10.351074
146.53847 -224.24643 -10.343724
143.71748 -224.20407 -10.518665
146.57448 -224.22942 -10.637784
146.60355 -224.29669 -10.914583
143.3186 -224.26793 -11.086558
144.99301 -224.37823 -11.258833
142.60756 -224.3757 -11.609909
143.6906 -224.32721 -13.950628
144.82825 -224.28886 -13.925068
141.83366 -224.24168 -16.315815
142.79478 -224.25803 -17.850973
143.34962 -224.21039 -18.113785
143.91908 -224.28853 -18.368416
140.11516 -224.09625 -3.358387
142.09282 -224.09439 -3.7237549
142.08612 -224.12872 -4.508966
141.90097 -224.06055 -4.8727598
142.48502 -224.01242 -5.4426432
144.57024 -224.1162 -6.0923829
145.36769 -224.04109 -6.40556
145.33051 -224.07953 -7.4907799
141.46976 -224.14401 -8.2354755
141.28021 -224.13617 -8.6337681
142.97481 -224.13284 -9.0803728
140.43832 -224.16521 -9.3632755
140.2851 -224.12814 -9.4122353
143.78748 -224.05862 -10.143284
146.20872 -224.19296 -10.276172
143.38058 -224.09604 -10.658039
142.76859 -224.19829 -10.944242
143.05981 -224.15273 -11.070525
143.11963 -224.06909 -11.34693
143.35464 -224.15634 -12.373577
146.7937 -224.14352 -12.493464
142.64279 -224.19217 -13.780371
143.35069 -224.01062 -14.62985
146.84277 -224.03204 -16.144478
142.67635 -224.16264 -16.722612
156.12331 -224.19904 -16.805519
144.45496 -224.16473 -17.324762
143.83328 -224.10127 -18.712196
142.89194 -223.87299 -3.7059159
143.47612 -223.8598 -3.7736681
154.52171 -223.93188 -3.694653
157.8185 -223.82544 -3.71508
145.12897 -223.9205 -4.0492878
145.2818 -223.8387 -4.1118851
145.53653 -223.92767 -4.6925879
141.71672 -223.8869 -4.8437581
142.5097 -223.92717 -5.3542738
145.56844 -223.88431 -5.3230309
145.457 -223.88629 -6.2896719
145.45377 -223.91646 -6.7580719
146.18231 -223.89551 -6.7234311
143.26498 -223.94327 -6.8309631
146.20314 -223.91583 -7.1651988
145.46175 -223.96399 -7.3527689
141.79808 -223.94362 -7.8156271
140.19354 -223.89206 -9.4495935
140.19531 -223.90585 -9.6393356
143.3084 -223.96091 -10.150046
143.69461 -223.93597 -10.228176
146.56715 -223.89774 -10.595221
143.60547 -223.96556 -10.814842
143.3428 -223.80121 -11.771891
140.51804 -223.91045 -12.322309
147.04387 -223.96626 -14.205379
143.15474 -223.8316 -14.771014
143.12019 -223.8777 -15.363582
146.804 -223.9771 -17.237995
148.37909 -223.81839 -17.808975
148.44153 -223.89645 -17.954405
143.09914 -223.93167 -18.527214
147.03705 -223.91618 -18.713673
141.20932 -223.69675 -3.173126
141.18295 -223.69696 -3.345294
141.33534 -223.79099 -3.434885
141.86612 -223.7287 -3.623143
142.69258 -223.67578 -3.7062781
153.7641 -223.65587 -3.6735311
155.05789 -223.61815 -3.684201
142.16486 -223.65976 -4.2283921
142.15073 -223.73779 -5.1205511
141.94398 -223.79254 -5.2090201
143.70854 -223.76732 -7.160305
145.95183 -223.75128 -7.4974942
141.1627 -223.65634 -7.6856999
142.21167 -223.79111 -8.6568689
143.09541 -223.67809 -9.0266924
144.54013 -223.78581 -10.558994
144.47574 -223.75784 -11.003284
142.52933 -223.72891 -11.668801
145.43359 -223.64754 -12.424926
144.59483 -223.64227 -15.489414
142.9816 -223.75392 -16.041872
143.61232 -223.68488 -17.720631
141.70325 -223.42735 -3.57639
143.51266 -223.57219 -3.7756841
145.47734 -223.59824 -3.9637949
146.0647 -223.47972 -3.9758511
142.24025 -223.43947 -4.3201318
142.45432 -223.54552 -4.3615489
142.52115 -223.43221 -4.9012461
141.91531 -223.55482 -5.156147
142.82317 -223.43108 -5.0089169
142.62314 -223.48172 -5.286747
142.82487 -223.5892 -6.6738429
140.59039 -223.49744 -8.5858393
146.42545 -223.46381 -8.8742704
141.71062 -223.56708 -9.2415514
142.53304 -223.47813 -9.4675379
146.20923 -223.49382 -9.9747286
142.09612 -223.49652 -10.832802
143.98209 -223.40236 -10.819853
144.26344 -223.45273 -12.528998
140.87187 -223.49582 -14.205471
142.14548 -223.30353 -3.6032
142.48972 -223.27716 -3.6342399
148.50131 -223.20421 -3.7808709
153.9214 -223.23897 -3.601711
145.08186 -223.31886 -3.915863
149.0766 -223.33025 -3.8072591
141.51579 -223.35468 -4.899323
141.95679 -223.39702 -4.9035258
142.03419 -223.29298 -4.8313131
142.57391 -223.27747 -4.9362822
142.72537 -223.35207 -4.9867158
143.0817 -223.29568 -7.487535
143.30798 -223.25293 -7.404563
142.24342 -223.28412 -7.650394
142.48453 -223.39761 -8.7951126
140.28716 -223.35989 -9.3140888
146.3392 -223.2973 -9.3677273
145.61423 -223.31131 -9.5958138
141.08707 -223.32562 -9.7164402
146.56778 -223.26649 -9.7767143
144.01303 -223.25949 -9.9883366
141.8499 -223.2757 -10.263547
145.79356 -223.34369 -10.234167
145.96275 -223.22784 -10.590696
142.11505 -223.30586 -10.702445
159.93034 -223.38232 -14.067197
141.40253 -223.36034 -16.877563
141.87012 -223.37904 -17.307076
140.09865 -223.08948 -3.288121
140.33078 -223.09665 -3.2860661
141.17773 -223.04236 -3.310498
141.88232 -223.00813 -3.527725
142.43002 -223.12323 -3.6528361
144.62561 -223.1221 -3.7447491
149.42236 -223.10046 -3.7919259
153.81834 -223.18636 -3.659694
154.80194 -223.08109 -3.683522
155.85257 -223.08014 -3.6895199
146.11295 -223.14847 -3.8676169
141.80142 -223.15657 -4.3286891
142.25766 -223.12006 -4.6685791
142.64029 -223.18185 -4.8596802
140.67572 -223.09917 -7.727561
143.30891 -223.11121 -7.7769489
141.82217 -223.13271 -7.8777561
143.0041 -223.14087 -9.116415
143.63319 -223.12657 -10.331898
146.02563 -223.11919 -11.085068
146.50529 -223.15837 -11.605268
141.4151 -223.0708 -13.707645
141.10884 -222.88443 -3.0698581
141.79314 -222.91718 -3.5188661
142.80797 -222.84225 -3.5957639
142.57695 -222.84375 -3.6072271
143.30115 -222.96869 -3.6921549
144.90286 -222.90669 -3.765285
150.11511 -222.80463 -3.7421451
155.13289 -222.93372 -3.7002881
141.29572 -222.9314 -8.4350767
141.77011 -222.8869 -9.4726429
144.84845 -222.99326 -9.4306116
140.55139 -222.99413 -9.6401424
141.80951 -222.87314 -9.620429
140.80504 -222.97946 -10.019381
148.08792 -222.90981 -10.713741
143.08757 -222.91512 -10.966646
145.48053 -222.89012 -11.051898
159.95343 -222.90799 -13.271675
140.53067 -222.98438 -14.354324
144.09169 -222.63432 -3.670156
151.69385 -222.65727 -3.662962
154.52032 -222.69797 -3.679229
146.04222 -222.74683 -3.8364551
140.85947 -222.67209 -8.2642841
143.71419 -222.77713 -8.7031136
142.53812 -222.63055 -9.1317539
140.57336 -222.69897 -10.290827
148.97125 -222.70477 -11.191827
145.23625 -222.75632 -11.685308
159.90405 -222.63409 -12.980797
140.35956 -222.74561 -13.297644
141.21024 -222.78946 -13.314051
159.21201 -222.79144 -13.331909
140.56216 -222.74414 -14.147436
143.41391 -222.68321 -18.226295
141.40179 -222.57509 -3.5171411
146.58856 -222.59616 -3.7689681
148.621 -222.5697 -3.7651179
149.77647 -222.52164 -3.7674489
153.42389 -222.52585 -3.636481
157.35512 -222.58995 -3.6710689
158.11243 -222.58403 -3.6440451
142.95686 -222.57632 -7.5236011
143.69337 -222.44632 -7.563942
142.74048 -222.44063 -8.1989632
142.54616 -222.58948 -9.2262411
146.97888 -222.57159 -10.537499
157.231 -222.50864 -12.956219
156.54414 -222.52112 -13.877824
142.59215 -222.5062 -15.089566
151.66106 -222.34607 -3.667062
153.69699 -222.3474 -3.756021
142.15367 -222.20081 -7.540823
140.18958 -222.24532 -9.3357744
142.41748 -222.23271 -9.2473898
144.60019 -222.23932 -9.3463697
145.72449 -222.22853 -9.3765049
144.5302 -222.21672 -10.11528
144.28333 -222.25156 -10.302708
141.18794 -222.22794 -10.750199
144.25403 -222.30099 -10.664215
145.01817 -222.29233 -12.201279
159.74075 -222.31302 -12.83121
154.37105 -222.27547 -13.452642
158.98779 -222.30449 -13.681186
141.7525 -222.18912 -3.426033
142.38889 -222.15524 -3.5188961
142.58923 -222.19366 -3.54427
155.07547 -222.1788 -3.577276
143.07867 -222.08438 -3.6271451
145.3493 -222.06534 -3.7734561
148.75983 -222.18581 -3.788408
149.07335 -222.00269 -3.7947209
142.61255 -222.10049 -4.8615422
141.76051 -222.0963 -7.668098
143.50851 -222.1498 -7.8932729
140.28571 -222.1322 -8.0596104
141.0878 -222.13181 -8.081398
141.16313 -222.10225 -8.7194405
142.00847 -222.06989 -9.1322947
143.68604 -222.14621 -9.143343
143.7182 -222.0901 -9.3174734
146.804 -222.09009 -9.4726429
150.40889 -222.06795 -10.890526
145.94131 -222.14922 -11.078833
159.28523 -222.03085 -12.524447
141.00354 -222.11078 -13.139421
145.76633 -222.11501 -15.068531
141.69318 -221.83388 -3.519057
152.49265 -221.80652 -3.564028
155.8681 -221.82254 -3.548234
151.68976 -221.83664 -3.662997
157.91772 -221.88675 -3.6117711
141.85861 -221.88824 -4.2760148
142.06874 -221.86665 -4.610208
142.49152 -221.95239 -4.966382
142.61185 -221.8934 -7.547379
141.46298 -221.89423 -7.841352
141.98097 -221.84375 -9.2066221
153.1351 -221.80258 -12.914335
141.00385 -221.80573 -14.10322
142.02821 -221.92261 -14.919627
140.4845 -221.74559 -3.1925371
141.36652 -221.71526 -3.316119
142.01608 -221.67215 -3.519711
154.06752 -221.75023 -3.55393
156.15576 -221.7039 -3.5849929
145.44678 -221.7547 -3.777034
145.97086 -221.63432 -3.778724
158.41339 -221.75841 -3.6261239
146.12283 -221.74942 -3.886097
143.0051 -221.63571 -4.3754721
141.89615 -221.70789 -4.7589269
142.11913 -221.75179 -4.872828
142.29015 -221.70847 -5.0736432
140.48276 -221.63419 -7.3213139
148.28026 -221.74521 -7.3326082
140.5594 -221.70761 -7.4126019
148.53952 -221.79405 -7.4861169
141.03299 -221.67232 -8.6480618
143.56126 -221.62933 -8.7062492
142.76633 -221.6051 -9.1898298
143.07999 -221.63188 -9.1573582
144.60657 -221.61926 -9.1508427
150.25757 -221.64922 -9.3133774
142.89304 -221.68088 -11.363077
150.41925 -221.73898 -11.749541
157.51227 -221.7946 -12.132981
140.48494 -221.61877 -13.349947
156.96085 -221.74313 -13.417409
156.71335 -221.74846 -13.601708
143.49347 -221.54643 -3.5913479
158.30977 -221.47635 -3.5857301
142.17422 -221.42186 -3.632544
142.32018 -221.52148 -3.656395
143.3544 -221.44489 -3.6460381
145.29153 -221.56592 -3.746701
148.13756 -221.43176 -3.644485
145.75067 -221.53926 -3.9221599
142.10983 -221.40858 -4.516304
141.6729 -221.46748 -4.8834019
141.8862 -221.45773 -4.969749
149.63535 -221.48534 -6.3892531
148.30107 -221.55287 -7.1866279
149.72023 -221.45502 -7.1484179
142.21355 -221.52495 -7.3666801
140.89883 -221.46332 -7.462533
148.32454 -221.59317 -7.4760962
150.04225 -221.56241 -7.451396
142.07452 -221.45996 -7.6768198
141.32259 -221.46925 -7.832819
140.99112 -221.52585 -8.6699038
144.53311 -221.40283 -9.0598097
147.18205 -221.56937 -9.53759
143.55217 -221.51485 -10.742279
150.47249 -221.59674 -10.677027
145.30685 -221.45773 -11.06004
142.88647 -221.57658 -11.376701
156.05811 -221.41718 -11.326138
158.10654 -221.47693 -11.751608
156.04817 -221.40506 -11.871752
159.58173 -221.59822 -11.829369
155.37978 -221.47055 -13.076309
140.36987 -221.38145 -3.1856749
141.31729 -221.22095 -3.531724
152.37677 -221.34677 -3.552372
156.09798 -221.33487 -3.569876
143.0197 -221.28131 -4.317493
141.54205 -221.39127 -4.6462469
141.77228 -221.24278 -4.9231129
149.54886 -221.30344 -6.5158501
151.02423 -221.39941 -7.0182281
141.85776 -221.30377 -7.782433
144.10257 -221.2345 -7.871737
148.68155 -221.3645 -8.0967712
149.90546 -221.37738 -8.6752892
149.97533 -221.38844 -8.9792271
142.64471 -221.28578 -9.2976589
143.37827 -221.39169 -9.9051638
143.12775 -221.26031 -10.187757
143.09213 -221.25467 -10.523851
159.09242 -221.34018 -10.644167
144.35291 -221.28833 -11.025837
159.47635 -221.25186 -11.259008
155.49738 -221.28766 -12.612616
157.84471 -221.34683 -12.643695
155.89594 -221.3625 -13.454124
159.75049 -221.27992 -13.700842
159.72876 -221.30118 -14.118685
144.89787 -221.39441 -14.573437
144.67816 -221.30667 -14.986914
144.26218 -221.10147 -3.5858879
154.94742 -221.00583 -3.5535851
155.37483 -221.00562 -3.589262
142.03821 -221.02701 -3.6020839
142.73044 -221.18198 -3.6652451
145.42683 -221.11035 -3.74737
148.21951 -221.03596 -3.6876161
141.36252 -221.16425 -4.2704992
141.87839 -221.05493 -4.2241702
141.56218 -221.16473 -4.7445431
141.66493 -221.08157 -5.0518489
142.07941 -221.14474 -5.067554
149.65048 -221.1808 -5.7402968
149.62766 -221.11533 -5.8007178
151.23152 -221.02785 -6.913713
149.52316 -221.05222 -7.4016271
148.62796 -221.11099 -7.7484789
144.33409 -221.05588 -7.8386159
141.05472 -221.0253 -8.0414429
142.41809 -221.06802 -9.082077
142.51239 -221.00107 -9.3808174
142.25659 -221.09889 -9.4562788
143.11525 -221.01953 -9.833786
158.33694 -221.03896 -11.44769
156.62093 -221.00198 -11.700174
153.97816 -221.13362 -11.984991
156.45139 -221.12396 -12.653725
152.71611 -221.15773 -12.911401
151.92096 -220.99883 -3.5409901
154.66676 -220.93681 -3.549948
158.98889 -220.91833 -3.5391591
142.54314 -220.8806 -3.637706
146.63765 -220.93925 -3.675642
149.13989 -220.9736 -3.803838
149.41498 -220.86792 -4.0113068
142.47972 -220.99326 -4.6052551
142.12074 -220.96614 -4.9767652
148.33917 -220.86354 -6.4045272
150.30382 -220.91408 -7.4059982
150.25168 -220.97275 -7.7277522
140.94965 -220.97539 -7.922586
148.66595 -220.81302 -7.9783111
143.87024 -220.98569 -8.0040274
148.3441 -220.87039 -8.1500301
141.44852 -220.8239 -10.067468
142.95889 -220.88554 -10.01819
159.4379 -220.84039 -10.932601
154.07584 -220.99648 -11.809193
154.47339 -220.80299 -12.96772
145.98581 -220.80714 -13.968428
143.08745 -220.79996 -3.6312859
143.70424 -220.61745 -3.6305611
149.32082 -220.72617 -3.836462
141.64082 -220.73094 -4.961565
150.67581 -220.66925 -7.1609478
149.57118 -220.68658 -7.54737
143.83429 -220.78865 -7.9537892
144.86334 -220.71692 -8.0593987
148.66222 -220.63136 -8.0442581
148.87186 -220.68636 -8.134388
159.05515 -220.65952 -9.9331303
159.31972 -220.74702 -10.154612
141.35657 -220.68997 -10.347214
152.91882 -220.68132 -10.428535
159.00537 -220.6636 -10.489774
158.53423 -220.63753 -11.372628
155.0696 -220.64812 -12.690367
156.32356 -220.73123 -12.680847
157.69598 -220.74643 -13.092081
141.41699 -220.54834 -3.37919
142.80673 -220.52554 -3.5575299
144.961 -220.52281 -3.5986731
148.28885 -220.54556 -3.625916
142.37265 -220.41492 -4.5935822
141.99521 -220.46954 -4.771307
142.56226 -220.54028 -4.6943598
141.4942 -220.49602 -5.2136579
148.21898 -220.40869 -7.027524
144.81174 -220.59547 -7.9566379
145.33911 -220.52966 -10.023187
155.15289 -220.43497 -12.338233
158.75714 -220.48346 -12.924184
158.16824 -220.51117 -13.760548
142.32474 -220.27222 -3.4737029
152.46861 -220.20688 -3.5380189
143.73114 -220.31679 -3.6120701
144.6386 -220.20837 -3.6189189
142.64148 -220.30716 -4.3174992
142.34821 -220.32411 -4.4321651
142.14786 -220.36832 -4.6667342
148.31555 -220.29323 -7.1123552
148.88019 -220.24391 -7.515213
150.14481 -220.341 -7.4313569
143.46893 -220.34964 -7.981698
145.37613 -220.25725 -9.5470514
159.45735 -220.32001 -9.4803352
152.83505 -220.29384 -10.366497
144.09569 -220.26445 -10.624124
159.83929 -220.29768 -10.645873
154.73883 -220.34079 -11.040068
157.87982 -220.34393 -11.811178
158.45744 -220.30258 -12.323866
155.12094 -220.21655 -13.163826
141.45969 -220.13556 -3.335423
142.05981 -220.13286 -3.432775
144.70334 -220.05659 -3.585711
154.02536 -220.06636 -3.4911349
155.07739 -220.16478 -3.5516729
154.80548 -220.03806 -3.6322839
148.16467 -220.03998 -7.3346472
147.98192 -220.04227 -7.4687262
148.62471 -220.1785 -7.885334
148.31088 -220.05222 -8.2568693
148.48807 -220.07529 -8.2611609
158.71672 -220.07047 -8.3237133
148.1682 -220.02393 -8.4379568
154.14046 -220.16414 -8.7420397
154.0161 -220.19443 -9.2321215
157.91736 -220.16454 -9.9234657
157.71207 -220.15613 -10.487615
154.74438 -220.19408 -10.64477
143.93161 -220.08749 -10.921883
144.07108 -220.10651 -11.019056
144.4444 -220.10745 -11.12087
142.92041 -220.03442 -11.427631
154.36259 -220.14592 -11.472036
159.31322 -220.13176 -11.796767
154.98192 -220.12012 -11.877752
157.66583 -220.15302 -12.259334
155.35129 -220.19258 -13.247473
150.86911 -220.03714 -19.241886
140.51134 -239.99815 -4.3703671
155.62531 -239.88768 -4.3636699
141.59238 -239.82271 -4.480669
141.64273 -239.85483 -4.45333
143.82741 -239.91138 -4.4219351
153.39984 -239.86057 -4.4293451
155.54538 -239.80331 -4.501245
156.87779 -239.99646 -4.5675912
158.42914 -239.83128 -11.662001
153.38034 -239.9353 -12.897137
151.8237 -239.83733 -13.379408
147.03745 -239.95496 -14.26738
158.5864 -239.81604 -14.569683
158.81335 -239.83116 -14.570976
150.32222 -239.98653 -15.965248
141.10062 -239.79681 -4.3582859
141.5184 -239.76308 -4.3642001
144.5376 -239.68517 -4.338521
145.82249 -239.67476 -4.3542309
146.18082 -239.69632 -4.3753662
146.54205 -239.69736 -4.3727689
149.14436 -239.76256 -4.381773
144.71359 -239.64404 -4.4181328
145.16699 -239.6317 -4.4716792
145.86682 -239.63747 -4.449821
146.30338 -239.65225 -4.4555669
146.54919 -239.63795 -4.4611592
146.89139 -239.66399 -4.4507418
147.77361 -239.79509 -4.4182229
148.7117 -239.68759 -4.463728
149.44922 -239.66931 -4.4656248
152.15367 -239.7408 -4.4225202
155.69383 -239.797 -4.4284658
158.41847 -239.70352 -8.8288612
158.31531 -239.65546 -11.802558
149.7825 -239.60997 -12.431532
152.29431 -239.63382 -13.129965
152.03432 -239.70607 -13.293222
155.09995 -239.63513 -13.277096
146.87715 -239.76491 -13.908278
158.427 -239.60594 -14.300034
158.36697 -239.64194 -14.701654
151.96616 -239.52022 -4.39079
143.52229 -239.4912 -4.426775
143.66327 -239.58231 -4.438066
147.08046 -239.45334 -4.5081582
147.9147 -239.4888 -4.4958649
148.87714 -239.47324 -4.4864101
149.81908 -239.5032 -4.5141411
153.34386 -239.44284 -4.559588
154.91345 -239.40356 -4.5365539
156.84451 -239.46013 -4.6425681
159.2179 -239.48154 -9.6999435
149.67587 -239.55093 -11.327667
150.15128 -239.4241 -12.235647
153.39352 -239.47635 -12.925851
147.8902 -239.50064 -13.313953
158.44382 -239.54889 -14.187853
140.70169 -239.34991 -4.3229151
141.069 -239.38519 -4.3524232
151.56149 -239.36247 -4.3882041
143.69357 -239.34068 -4.4167819
145.29597 -239.34171 -4.4460478
145.66275 -239.23982 -4.4284639
147.15877 -239.3244 -4.4313788
147.48297 -239.31535 -4.4582758
150.3349 -239.35616 -4.5212269
155.49991 -239.39279 -4.5123181
155.84258 -239.37296 -4.549016
142.13576 -239.27461 -5.35215
142.46683 -239.23679 -5.346838
155.97748 -239.20485 -6.2954459
155.99945 -239.2019 -7.194334
156.05368 -239.22812 -7.5802131
159.46008 -239.3266 -8.9510708
158.75607 -239.37332 -10.562622
152.81822 -239.39171 -12.802166
156.11337 -239.25121 -13.080683
157.10243 -239.32922 -13.303427
148.18318 -239.22295 -13.441921
142.19627 -239.09563 -4.3632321
151.39917 -239.00417 -4.3721852
152.50285 -239.06853 -4.3952022
144.94122 -239.07602 -4.4124041
145.66826 -239.15128 -4.4084458
146.69748 -239.0845 -4.4234571
148.88705 -239.02638 -4.4104209
142.22078 -239.00412 -5.1068668
141.71893 -239.05045 -5.495944
141.87175 -239.01913 -5.635169
155.81717 -239.07538 -6.6719031
155.78699 -239.15753 -6.8053169
155.70749 -239.18103 -7.3613749
155.93413 -239.05235 -7.3819342
155.93181 -239.09003 -7.4714098
158.88498 -239.09879 -9.2323942
149.11749 -239.13034 -11.066685
149.86345 -239.06812 -11.779232
150.30182 -239.12735 -12.284918
150.75749 -239.07996 -12.898927
157.98199 -239.13068 -12.892815
150.76418 -239.12132 -13.564873
154.30736 -239.04256 -13.610452
158.67288 -239.13245 -14.132819
153.56799 -239.15796 -14.222851
140.22119 -238.97133 -4.3099632
141.50362 -238.95691 -4.32165
141.6525 -238.90707 -4.3438678
143.35338 -238.99847 -4.3812861
143.51596 -238.88902 -4.3769212
145.03369 -238.86484 -4.372272
146.87851 -238.84982 -4.3815279
149.17732 -238.937 -4.3772459
149.79022 -238.83583 -4.3780351
155.01895 -238.91287 -4.342392
147.73669 -238.87251 -4.4222121
155.04886 -238.92386 -4.516747
153.81348 -238.95633 -4.6115541
154.08344 -238.98877 -4.6414471
141.72522 -238.94298 -5.2365499
156.17178 -238.832 -6.713624
155.83983 -238.98688 -6.9068131
156.23306 -238.89384 -8.9639549
156.31543 -238.92645 -9.0645523
156.40663 -238.94766 -9.1052933
158.43089 -238.83286 -9.8060265
158.25931 -238.85263 -10.912451
148.27577 -238.96484 -11.112781
148.68758 -238.98352 -11.364306
155.9939 -238.86301 -11.580645
155.72043 -238.85097 -11.794567
152.28603 -238.98236 -11.825423
155.33981 -238.86218 -12.141754
154.5899 -238.93073 -12.313711
157.09927 -238.82936 -12.763716
154.24184 -238.97339 -13.479587
143.73053 -238.67612 -4.3847752
145.58311 -238.63405 -4.3752518
146.06911 -238.79543 -4.3886452
147.00946 -238.61734 -4.3739352
150.54567 -238.64839 -4.3875599
141.70059 -238.68414 -4.5094042
145.74905 -238.78833 -4.4047198
146.72821 -238.78252 -4.4077859
153.06828 -238.72026 -4.434937
153.41882 -238.68716 -4.4616079
142.25043 -238.66824 -4.8472428
155.94072 -238.68359 -5.054523
142.48578 -238.63701 -5.6903558
156.06339 -238.70059 -5.8234739
156.23672 -238.65955 -7.4361639
155.99675 -238.77115 -8.1492748
156.19597 -238.7075 -8.3074989
156.1366 -238.74887 -8.4489145
156.50273 -238.68159 -8.4147196
157.72728 -238.77608 -11.823339
157.79541 -238.68919 -12.319872
154.74857 -238.70462 -12.674034
143.14346 -238.58757 -4.356215
143.5204 -238.55779 -4.3641882
144.00046 -238.59457 -4.3972759
145.78716 -238.59935 -4.3899999
146.34447 -238.56633 -4.3659329
146.45776 -238.55768 -4.364758
147.28488 -238.52307 -4.351604
147.97931 -238.51657 -4.3925381
153.86073 -238.47961 -4.470757
142.1861 -238.5556 -4.733408
154.97034 -238.50284 -4.824152
155.89973 -238.43947 -5.4946432
142.46609 -238.56725 -5.72335
156.34297 -238.51489 -7.0653882
157.77414 -238.42981 -10.729931
149.45087 -238.54834 -11.22182
157.83301 -238.56943 -12.586239
158.22665 -238.55972 -14.258865
154.31235 -238.59827 -14.579069
156.55827 -238.40634 -14.46751
158.3324 -238.59024 -14.840036
146.54074 -238.27567 -4.3442912
147.05623 -238.2939 -4.3560972
147.84027 -238.2074 -4.3676791
148.13985 -238.24054 -4.345613
148.24902 -238.32076 -4.3235259
153.39146 -238.3244 -4.5219421
153.69177 -238.27792 -4.486207
155.01462 -238.35019 -4.5457339
142.82471 -238.32564 -5.1364088
156.48714 -238.36154 -6.6855931
156.47842 -238.34583 -6.8683448
156.4514 -238.33643 -7.3828802
159.16585 -238.29123 -8.7761536
159.01706 -238.21756 -8.9861012
158.87842 -238.2775 -9.2718697
158.29123 -238.29181 -9.758646
156.7139 -238.38228 -10.130237
156.82224 -238.24426 -10.276969
158.08514 -238.25363 -10.33852
157.79553 -238.30133 -10.728738
147.93286 -238.29129 -10.818452
148.02484 -238.32527 -10.903728
157.44556 -238.28998 -12.463756
152.29794 -238.29472 -12.691729
146.80574 -238.0822 -4.3339362
149.93738 -238.0573 -4.3727579
150.29886 -238.19542 -4.3565578
151.71582 -238.15219 -4.3611059
152.73889 -238.12283 -4.3853812
153.065 -238.08456 -4.3979969
141.69888 -238.09415 -4.5002952
142.6902 -238.19199 -5.5858021
155.76457 -238.06865 -6.5004849
155.72978 -238.06415 -7.158318
155.53969 -238.02551 -7.9210858
159.73618 -238.14876 -8.6603136
156.91669 -238.10384 -11.726337
156.5798 -238.14609 -12.087463
152.81006 -238.13039 -14.033146
146.5271 -237.912 -4.2957821
150.26242 -237.81822 -4.3420911
151.29968 -237.84016 -4.3732252
151.85124 -237.98372 -4.378521
154.23238 -237.82861 -4.3693051
152.92834 -237.84157 -4.4185309
154.81477 -237.9547 -4.4029059
142.50299 -237.96867 -5.4709358
155.95224 -237.91559 -6.8419089
155.71777 -237.87924 -7.3147602
155.22118 -237.89246 -8.654562
159.63536 -237.92209 -8.77911
156.69543 -237.95322 -9.9226046
156.7869 -237.89108 -10.841877
151.92215 -237.99197 -12.864105
153.71356 -237.85846 -13.482947
154.19427 -237.91013 -13.769483
157.33005 -237.90984 -14.133465
142.82622 -237.78151 -4.1769462
145.53537 -237.75818 -4.2691908
147.0688 -237.7812 -4.304069
148.30145 -237.68146 -4.32581
151.80597 -237.66824 -4.380156
159.80728 -237.66452 -9.2384968
154.70915 -237.61322 -10.922924
154.73425 -237.66533 -11.047421
156.71129 -237.68237 -12.434533
154.42239 -237.75925 -12.659217
140.52246 -237.43234 -4.2938361
140.60751 -237.40332 -4.3025742
144.21199 -237.45541 -4.2302499
149.47787 -237.41833 -4.3135009
151.81062 -237.52792 -4.3832998
155.19016 -237.54263 -4.3782058
152.89536 -237.46481 -4.4163728
154.92967 -237.43095 -9.5249596
159.14328 -237.40619 -9.9018021
159.33838 -237.47638 -10.337858
148.38686 -237.45923 -10.968008
156.78503 -237.41269 -12.333479
142.25415 -237.23447 -4.1709709
142.5804 -237.23729 -4.1501641
141.09282 -237.32849 -4.2624898
144.95319 -237.36292 -4.2240772
146.64111 -237.23378 -4.2394552
159.27226 -237.24561 -9.4349003
159.21106 -237.31065 -9.6532192
156.23219 -237.39337 -11.302263
158.31009 -237.29187 -13.806099
140.13892 -237.05208 -4.08248
143.40399 -237.05533 -4.1585441
143.67796 -237.02191 -4.1354618
145.12239 -237.16319 -4.191391
149.76443 -237.06755 -4.3171391
150.93849 -237.05154 -4.374279
152.14247 -237.04839 -4.3653431
156.62343 -237.02422 -4.4386759
156.8461 -237.05263 -12.631796
146.29208 -236.90033 -4.1959882
146.371 -236.8075 -4.265945
148.48557 -236.90039 -4.3071389
149.33731 -236.88443 -4.3056402
150.27386 -236.93346 -4.3545852
150.49802 -236.98694 -4.3510909
158.00047 -236.93887 -4.3722739
158.46873 -236.82925 -4.36165
159.56552 -236.97394 -4.33881
155.44678 -236.86855 -4.4439168
158.6843 -236.94867 -4.4201608
158.90488 -236.88438 -4.4152088
154.7545 -236.81769 -10.201108
156.54958 -236.88016 -10.37536
157.12437 -236.93829 -10.70252
157.25429 -236.811 -11.746216
142.54207 -236.62762 -4.0976262
143.00522 -236.60321 -4.1374092
144.25684 -236.77208 -4.1935482
145.03354 -236.66132 -4.2166028
149.17278 -236.79321 -4.3602762
149.48413 -236.71255 -4.383287
149.91333 -236.68741 -4.381393
151.30859 -236.74548 -4.3982568
155.00923 -236.69382 -4.365346
155.88297 -236.76477 -4.350585
158.0751 -236.79333 -4.371356
152.15192 -236.75513 -4.453794
152.7083 -236.70187 -4.4397101
153.67383 -236.79991 -4.4407039
155.8024 -236.64217 -4.4345641
158.18716 -236.6881 -4.4263482
158.53491 -236.73642 -4.4197769
154.74078 -236.76462 -10.112539
156.44916 -236.7565 -10.373053
156.9957 -236.71301 -12.742683
141.77914 -236.56139 -4.1269541
143.43576 -236.51691 -4.1470938
152.13306 -236.55807 -4.4349828
152.58252 -236.48047 -4.451602
153.38377 -236.52461 -4.4405909
156.21414 -236.42043 -4.4631948
155.4245 -236.55798 -9.743207
157.5123 -236.49374 -11.491673
154.64285 -236.4384 -12.523828
144.52666 -236.26257 -4.192019
149.72952 -236.3168 -4.4043341
155.77112 -236.32208 -4.467783
156.42474 -236.30099 -4.4480739
157.89157 -236.3586 -4.4238429
158.91264 -236.34686 -4.4538031
148.07509 -236.29559 -9.9318686
148.54111 -236.32208 -10.858263
154.33676 -236.26523 -11.345053
141.38957 -236.1985 -4.101058
146.20815 -236.12534 -4.2710772
155.09351 -236.04456 -4.3965402
147.69073 -236.19241 -9.9507217
147.34879 -236.05309 -10.272752
147.43802 -236.19756 -10.233017
154.38583 -236.01225 -11.406433
154.56165 -236.13254 -11.443714
149.35698 -236.03539 -11.673426
156.80869 -236.18533 -13.07311
142.92775 -235.91586 -4.1159649
144.94449 -235.86661 -4.203301
148.2202 -235.86635 -4.3605318
149.82581 -235.83191 -4.382524
151.75311 -235.8306 -4.3889132
154.96927 -235.8548 -4.4436488
156.93892 -235.91412 -4.4409041
147.54796 -235.90608 -9.9795408
148.77493 -235.86473 -10.872887
157.71414 -235.93161 -11.553576
154.02348 -235.819 -12.69685
142.6196 -235.72342 -4.1011791
144.52318 -235.77321 -4.1731009
147.8562 -235.7699 -4.345119
149.40289 -235.72823 -4.388267
150.90163 -235.78406 -4.3854728
151.3723 -235.62199 -4.381114
150.7588 -235.6618 -4.4137602
155.17343 -235.79134 -4.438581
155.50027 -235.76527 -4.4180932
147.43715 -235.73726 -10.037662
148.07086 -235.79765 -10.507976
147.4837 -235.64832 -10.629622
154.33148 -235.74271 -11.325331
157.66972 -235.7252 -14.113564
141.29756 -235.48102 -4.0362391
150.5164 -235.58215 -4.3897738
155.33278 -235.55382 -4.422061
149.09622 -235.53952 -10.898052
154.23572 -235.54547 -11.497049
153.40353 -235.44389 -11.645383
149.92906 -235.55486 -12.392206
150.10638 -235.50687 -12.545017
153.76773 -235.58479 -12.525431
157.41473 -235.43835 -14.03931
140.14091 -235.3474 -4.0745182
141.11368 -235.32346 -4.060441
147.06152 -235.34877 -4.320436
149.41623 -235.39896 -4.3907542
149.84872 -235.33405 -4.3819098
151.88751 -235.31839 -4.4199948
153.80066 -235.36079 -4.439815
156.75684 -235.33064 -4.4548159
147.74454 -235.35997 -10.646895
148.13094 -235.28305 -10.768879
153.50754 -235.23459 -11.471777
148.7923 -235.29736 -11.741611
154.01419 -235.2794 -11.853733
142.6348 -235.0249 -4.0736222
143.3723 -235.09892 -4.10957
151.78699 -235.07288 -4.423296
152.05154 -235.03198 -4.4494548
148.33719 -235.08717 -10.99826
154.28705 -235.19533 -11.547276
141.2681 -234.99078 -4.0367508
142.23604 -234.9342 -4.0625439
142.96434 -234.9641 -4.1149688
152.66425 -234.89099 -4.3957529
156.20245 -234.97421 -4.4286728
149.82159 -234.629 -4.364892
152.19461 -234.64243 -4.377533
151.81602 -234.6438 -4.4212408
153.69742 -234.60431 -11.721165
153.33212 -234.61635 -12.276134
142.92355 -234.59943 -4.085145
154.14981 -234.4763 -4.38343
154.50684 -234.59 -4.419589
152.55466 -234.46655 -11.815258
145.78581 -234.2851 -4.1984229
149.84901 -234.22653 -4.249867
154.68353 -234.29509 -4.4044971
155.75027 -234.35101 -4.4077249
150.20753 -234.22795 -9.7233725
153.32767 -234.23184 -11.563596
153.81616 -234.2626 -11.733505
146.17368 -234.17131 -4.1965098
148.94443 -234.17361 -4.2891169
149.49118 -234.18912 -4.333652
150.55811 -234.14229 -4.3512769
152.58966 -234.10783 -4.3486509
153.9292 -234.16437 -4.3885741
157.22464 -234.11456 -4.3771801
158.13385 -234.07933 -4.3952332
153.72289 -234.1485 -4.4086418
153.1304 -234.18835 -11.477456
154.03621 -234.12395 -11.896667
153.05394 -234.1264 -12.317455
141.35254 -233.8824 -3.9843481
142.18701 -233.87836 -4.03966
143.77617 -233.88318 -4.1155128
148.11633 -233.86969 -4.2369838
153.94299 -233.8696 -4.3798709
154.20367 -233.80128 -4.3713698
154.94908 -233.83275 -4.3809829
143.29051 -233.78542 -4.0603251
146.57324 -233.78645 -4.1947489
148.56473 -233.7467 -4.2533369
150.42032 -233.76022 -4.3062429
150.91177 -233.62088 -4.2803988
159.325 -233.75153 -4.3555012
150.34872 -233.66415 -9.9638186
149.33838 -233.78278 -12.235083
153.19872 -233.75128 -12.675335
141.39746 -233.52631 -4.0177512
143.02917 -233.44788 -4.0271649
144.23944 -233.52277 -4.0757179
147.80809 -233.43756 -4.1694822
148.93082 -233.43341 -4.2316451
150.54971 -233.49731 -4.2885728
150.64627 -233.43817 -4.2986922
151.77551 -233.46637 -4.3037491
152.76453 -233.54684 -4.30478
152.83485 -233.45963 -4.2965651
152.18343 -233.41888 -11.411942
152.23334 -233.5085 -12.175264
140.59303 -233.38228 -3.9664929
141 -233.31386 -4.0103459
143.74973 -233.39281 -4.0596571
146.24991 -233.21712 -4.1310101
150.44589 -233.34827 -4.2538738
152.28149 -233.33475 -4.2605801
153.09813 -233.30917 -4.270647
154.15428 -233.38489 -11.915505
150.61497 -233.39929 -12.488379
140.63281 -233.03343 -3.960675
141.48367 -233.02232 -3.9741459
142.24956 -233.02371 -4.0106549
143.30325 -233.15619 -4.0083919
143.58472 -233.11862 -4.0460091
145.32712 -233.05005 -4.04388
147.04152 -233.01933 -4.1096411
148.83807 -233.18918 -4.185111
150.99335 -233.02283 -4.2303352
153.42599 -233.17004 -4.2818408
150.84683 -233.14586 -10.341217
153.991 -233.14024 -12.508043
140.85718 -232.96997 -3.528713
141.05264 -232.95248 -3.983758
142.85709 -232.8436 -3.9958639
144.1882 -232.87297 -3.992027
144.49945 -232.91679 -3.9867041
143.35611 -232.89383 -4.0269461
144.27539 -232.83095 -4.0042548
146.57959 -232.91425 -4.1110301
149.06577 -232.92577 -4.181406
150.58411 -232.89499 -4.250793
153.36505 -232.96893 -4.2664218
155.47572 -232.98323 -4.313931
155.76936 -232.97542 -4.3134708
156.05563 -232.87601 -4.3250632
141.98969 -232.81824 -5.3926249
142.09596 -232.8347 -5.4466748
158.12051 -232.81451 -8.3961926
150.65843 -232.87436 -11.050819
156.3175 -232.97675 -11.416875
153.47871 -232.98695 -12.257351
154.36191 -232.84683 -12.200756
154.37737 -232.892 -12.491377
140.86818 -232.63272 -3.5711031
140.88547 -232.63988 -4.0745301
141.46069 -232.73814 -4.052247
142.43698 -232.74051 -4.0281329
148.98305 -232.64117 -4.1735339
140.89099 -232.65935 -4.234045
141.11688 -232.64685 -4.2608399
141.61349 -232.60526 -4.3223619
154.97488 -232.69138 -4.2959352
158.04288 -232.653 -4.2833009
141.41898 -232.60036 -5.0779142
142.26805 -232.72092 -5.3681479
141.69972 -232.68056 -5.5176902
142.36346 -232.63847 -5.6054969
141.88705 -232.61011 -5.9190178
158.15034 -232.64703 -8.3730278
154.15085 -232.74911 -9.7567692
150.55899 -232.69019 -11.06095
156.21164 -232.62404 -11.473461
155.10222 -232.65854 -11.74995
154.851 -232.65378 -12.179111
153.56491 -232.67329 -12.378889
140.51437 -232.50162 -3.9725959
140.32437 -232.44218 -4.1304889
140.5246 -232.43988 -4.0991521
142.5015 -232.56419 -4.1103678
142.89577 -232.489 -4.0993581
145.46344 -232.56108 -4.0455108
140.57178 -232.54153 -4.274363
141.64154 -232.50342 -4.233398
142.24393 -232.44481 -4.2205811
150.25801 -232.49872 -4.2425699
153.09793 -232.49603 -4.242424
154.21378 -232.50143 -4.2928581
143.04709 -232.48926 -4.4172821
140.8838 -232.41263 -5.1490169
141.49345 -232.58995 -5.0911732
158.30135 -232.45198 -5.5670509
141.7417 -232.51971 -5.677494
142.51324 -232.49194 -5.7170091
158.25858 -232.40422 -5.6514959
141.90221 -232.56668 -5.9343338
142.50424 -232.44913 -5.847754
142.11624 -232.43648 -6.1104388
158.2879 -232.41281 -6.2443781
159.57112 -232.46411 -8.1087322
153.32248 -232.4059 -11.509528
153.64258 -232.5486 -12.523478
141.72049 -232.30617 -4.1188931
144.18459 -232.35756 -4.1006269
146.97028 -232.27859 -4.0838232
150.15256 -232.28836 -4.1595359
140.49097 -232.27548 -4.254189
141.09918 -232.35481 -4.2663822
153.17899 -232.36784 -4.2354751
153.42648 -232.23196 -4.2494898
141.22586 -232.22679 -5.0204978
142.10242 -232.20956 -5.4029508
141.46709 -232.29056 -5.8926659
142.14545 -232.28612 -6.1077299
159.4671 -232.26801 -7.9279232
154.2674 -232.25708 -9.9090214
151.90994 -232.20016 -11.686596
140.64662 -232.18185 -4.1425238
141.88113 -232.09595 -4.1015849
144.44897 -232.07114 -4.0414128
148.20897 -232.17432 -4.0812559
140.45572 -232.08006 -4.2363729
153.38277 -232.0482 -4.2415009
154.5773 -232.13208 -4.2965231
141.05656 -232.05882 -5.3611388
140.91507 -232.11505 -5.482656
141.41576 -232.10767 -5.9527841
153.16827 -232.16757 -11.279924
154.6895 -232.14716 -12.532414
140.85559 -231.9696 -3.680907
140.13498 -231.96503 -3.825628
143.73845 -231.96909 -4.1653032
154.90517 -231.90263 -4.323595
155.07715 -231.8606 -4.2968602
158.39046 -231.95007 -4.275104
141.23253 -231.93813 -5.7908292
141.93015 -231.89313 -6.1342058
142.04784 -231.93689 -6.2639818
159.97107 -231.91278 -9.3767176
153.06281 -231.96967 -9.4170418
153.60883 -231.84583 -9.5136576
140.96997 -231.7886 -3.9121411
141.43126 -231.71765 -3.991142
141.75 -231.70673 -4.120266
143.06908 -231.60117 -4.1654091
146.09131 -231.73254 -4.0728641
155.3584 -231.75638 -4.2703671
141.8746 -231.6163 -4.7640381
143.10876 -231.69484 -5.0946722
140.74538 -231.65907 -5.2579589
141.0351 -231.70923 -5.5095768
141.20715 -231.62778 -5.7609138
141.1626 -231.66597 -5.894485
142.1507 -231.72467 -6.2553649
142.56781 -231.76709 -6.2341051
154.08897 -231.78801 -9.7892122
159.92728 -231.7767 -9.7547188
140.8158 -231.42151 -3.4847829
142.22864 -231.51779 -4.0536351
142.73221 -231.44763 -4.0887122
151.78323 -231.56241 -4.1968098
152.92896 -231.45558 -4.209877
142.06474 -231.5753 -4.657516
142.44263 -231.50641 -4.6824951
141.03476 -231.47322 -5.472115
141.34003 -231.48318 -5.8824201
141.68642 -231.45172 -6.085063
159.95117 -231.40796 -8.0927525
140.07535 -231.33841 -3.703064
140.78986 -231.20592 -3.6702909
140.91684 -231.37802 -3.704766
141.32141 -231.31924 -3.9806311
146.72762 -231.37206 -3.9806859
141.49075 -231.32913 -4.017056
146.2383 -231.35797 -4.1019292
146.59991 -231.3022 -4.0862651
147.04584 -231.34886 -4.0870318
148.90456 -231.39948 -4.1568532
142.132 -231.30035 -4.2491751
151.76753 -231.37218 -4.2013798
152.13004 -231.20674 -4.2016978
142.29054 -231.27658 -4.6018848
140.95358 -231.30095 -5.4793978
141.11913 -231.30173 -5.7279372
141.84093 -231.25475 -6.1473532
142.5629 -231.27309 -6.2942901
154.24716 -231.37117 -9.8887682
154.11176 -231.36078 -12.101833
155.36423 -231.37578 -12.116854
143.08099 -231.05457 -4.1364708
147.69897 -231.02271 -4.1098151
149.02327 -231.13216 -4.1180582
151.03084 -231.08508 -4.1738119
151.5995 -231.01294 -4.1927161
152.97003 -231.09108 -4.1993098
158.54219 -231.11261 -4.277247
141.13425 -231.05406 -5.3623729
142.09326 -231.09717 -5.7872152
141.17213 -231.19609 -5.8585701
141.54123 -231.16757 -6.038146
142.7216 -231.10718 -6.2339439
159.87433 -231.11674 -7.8290009
152.91391 -231.04338 -9.3123398
154.26323 -231.02802 -9.8849754
142.77109 -231.04726 -11.785088
142.12723 -230.89917 -4.0497341
144.30115 -230.91583 -4.1684632
147.62698 -230.95113 -4.0790539
158.16162 -230.91507 -4.264616
141.39406 -230.93503 -5.2696929
141.85852 -230.88231 -5.8934112
142.0947 -230.91364 -6.1123228
154.25861 -230.94907 -10.072538
142.39803 -230.83395 -10.489635
156.67479 -230.97157 -10.583837
159.11179 -230.80937 -11.456181
159.39105 -230.89627 -11.78619
153.38605 -230.96048 -11.804171
159.45599 -230.93459 -14.394826
141.07076 -230.70699 -3.7194121
141.12881 -230.6575 -3.9193599
141.26706 -230.79846 -4.0050092
142.92667 -230.68365 -4.1172709
151.39333 -230.71719 -4.182023
154.29189 -230.71779 -4.1782961
156.74052 -230.68159 -4.1941509
156.96478 -230.65804 -4.2622581
141.40016 -230.73404 -5.4495201
141.71124 -230.67316 -5.7450891
141.86856 -230.6524 -5.755918
141.70065 -230.74091 -5.884738
142.83752 -230.76834 -6.079134
159.03734 -230.60034 -11.474688
141.0609 -230.53 -3.719825
143.12231 -230.50668 -4.1269188
146.69766 -230.49942 -4.098928
152.52361 -230.57721 -4.164299
154.23988 -230.51192 -4.1634321
142.12944 -230.57562 -5.3258228
142.53976 -230.47354 -5.7862568
156.37816 -230.45387 -10.449519
152.19023 -230.57143 -11.255468
155.2627 -230.53813 -11.636293
153.63341 -230.52979 -12.305532
155.26302 -230.47244 -12.306011
154.48749 -230.58524 -12.464668
159.41647 -230.40836 -14.401761
141.04091 -230.26186 -3.7595439
141.7121 -230.38864 -3.976172
146.20413 -230.29843 -4.072968
148.56 -230.21541 -4.1204162
151.02771 -230.25575 -4.196836
151.60007 -230.27528 -4.148037
154.16298 -230.22237 -4.1424732
155.82693 -230.32437 -4.22825
141.88503 -230.32251 -5.2882791
142.04245 -230.28918 -5.6322031
153.42168 -230.2641 -8.827343
154.68198 -230.25287 -9.8881149
140.89465 -230.2093 -10.120577
141.66098 -230.29065 -12.433064
