# .PCD v0.7 - Point Cloud Data file format
VERSION 0.7
FIELDS x y z
SIZE 4 4 4
TYPE F F F
COUNT 1 1 1
WIDTH 1554
HEIGHT 1
VIEWPOINT 0 0 0 1 0 0 0
POINTS 1554
DATA ascii
152.35927 -50.723129 -3.450104
142.30075 -50.696659 -3.6108119
142.64339 -50.644791 -3.7164199
152.218 -50.699997 -3.8267779
141.89194 -50.637291 -4.1087961
146.41544 -50.702927 -4.3201599
143.24434 -50.735863 -5.023592
150.57643 -50.524826 2.5479209
149.55733 -50.532665 2.205117
146.71402 -50.569569 2.0743849
146.92116 -50.581337 2.087991
147.36298 -50.472912 2.1090331
147.51874 -50.471443 2.0736489
147.92485 -50.519516 2.0859261
149.52101 -50.51099 2.1835899
143.43811 -50.523834 1.8673919
144.13934 -50.475323 1.905966
144.5209 -50.461514 1.9155999
151.4581 -50.534962 1.872723
151.87494 -50.555252 1.917743
152.81035 -50.435078 1.94695
156.10181 -50.523628 1.80023
158.17593 -50.556168 1.7565891
159.46588 -50.587173 1.753772
159.78641 -50.480602 1.754602
158.73807 -50.505447 -0.762941
158.89276 -50.493233 -0.68371898
158.59039 -50.549927 -0.84214598
158.84155 -50.500744 -0.81998301
158.3472 -50.449959 -1.183552
157.90979 -50.489967 -1.3025841
158.20822 -50.500923 -1.236986
159.45645 -50.563324 -1.379881
157.1488 -50.440208 -1.574206
157.09949 -50.572594 -1.649473
157.55148 -50.488415 -1.659379
157.7585 -50.562881 -1.691698
158.16223 -50.510677 -1.792649
156.46233 -50.439697 -2.167881
155.54178 -50.545631 -2.7706809
140.28487 -50.595131 -3.175437
152.46777 -50.55949 -3.2786491
141.17656 -50.452553 -3.539072
141.45235 -50.515694 -3.4442739
142.97343 -50.519138 -3.4780779
152.68422 -50.534908 -3.6476691
141.42532 -50.498184 -3.8065829
143.09784 -50.579903 -3.992157
146.27887 -50.562744 -3.8284271
141.1521 -50.443199 -4.0688591
147.7074 -50.539932 -4.3015661
142.99133 -50.485432 -4.4816279
143.56277 -50.511681 -5.3245292
144.15889 -50.471848 -6.0197439
149.69385 -50.245239 2.530591
150.50391 -50.344219 2.5175641
149.44135 -50.26086 2.3080821
146.60561 -50.251766 2.0725
146.99704 -50.234825 2.0926239
147.78705 -50.33551 2.1172719
147.97104 -50.245255 2.115581
148.03658 -50.367306 2.0775371
148.35368 -50.335056 2.1414919
148.54378 -50.298813 2.146069
149.0226 -50.367317 2.175133
140.25998 -50.264111 1.836501
140.62961 -50.218918 1.844653
141.04205 -50.243847 1.845667
141.43423 -50.252914 1.845839
141.85889 -50.291405 1.8482831
142.22644 -50.323959 1.8511699
142.63553 -50.37986 1.855473
143.79828 -50.241131 1.908017
144.20778 -50.340714 1.9201421
146.3428 -50.33112 1.904376
151.29639 -50.295601 1.897856
151.72511 -50.216019 1.931729
152.66165 -50.293125 1.9238009
152.98764 -50.317436 1.949815
154.95488 -50.245956 1.840852
157.0094 -50.395897 1.804515
156.19188 -50.290653 1.745497
157.33055 -50.273888 1.79445
157.72018 -50.25663 1.777151
158.11035 -50.251015 1.778599
158.44611 -50.267517 1.762504
158.78944 -50.305195 1.740642
159.82382 -50.342094 1.7355551
159.05446 -50.26215 -0.35908699
159.00287 -50.219067 -0.500319
159.78004 -50.304302 -0.91614997
157.46252 -50.327797 -1.174338
157.67569 -50.271652 -1.169899
158.5984 -50.330132 -1.19548
157.54514 -50.31702 -1.292001
157.743 -50.307007 -1.289664
158.3282 -50.326996 -1.3715971
158.53384 -50.303421 -1.256784
159.66864 -50.245579 -1.262362
159.0524 -50.387638 -1.508494
157.73114 -50.393448 -1.674637
156.7661 -50.25066 -2.257565
140.65941 -50.289776 -3.1235621
140.86771 -50.252991 -3.0762479
141.36511 -50.326607 -3.3965321
141.56445 -50.375404 -3.2924571
153.98926 -50.338455 -3.2147701
140.28329 -50.321159 -3.5078471
140.60104 -50.263836 -3.4492331
140.93582 -50.265118 -3.4392231
146.08748 -50.27573 -3.5271349
140.27094 -50.289158 -3.783736
142.5112 -50.264153 -4.1662731
142.20924 -50.389542 -4.206224
146.79059 -50.265469 -4.448494
150.34573 -50.133209 2.5151091
147.36667 -50.107044 2.0985811
147.43213 -50.137527 2.0973001
148.06628 -50.106781 2.1293099
143.36563 -50.106415 1.900772
150.9791 -50.155464 1.924325
151.01244 -50.171856 1.879015
151.84457 -50.140015 1.933392
158.06462 -50.191841 1.813149
156.46796 -50.149967 1.742093
158.94853 -50.158123 1.7751091
159.31932 -50.154236 1.783361
157.57657 -50.118279 -0.636738
157.70004 -50.099915 -0.69147903
159.47139 -50.129688 -1.325789
151.15588 -50.127949 -1.532353
151.21037 -50.103298 -1.524156
151.12599 -50.107014 -1.686836
151.39757 -50.015743 -1.753958
156.9648 -50.078621 -1.713418
158.14313 -50.134392 -1.7015001
158.47525 -50.148537 -1.7726409
156.70345 -50.124397 -1.963027
151.455 -50.058826 -2.1690941
157.46863 -50.144569 -2.1653869
151.04977 -50.114479 -2.3358221
151.69051 -50.047409 -2.309
156.23309 -50.084301 -2.31687
151.10211 -50.105701 -2.441864
151.431 -50.15937 -2.4613941
154.94754 -50.175728 -2.7002311
154.02191 -50.096485 -2.957334
153.30457 -50.00119 -3.048672
142.04433 -50.096107 -3.4407971
152.01129 -50.028526 -3.5188079
145.89876 -50.049225 -3.7511079
146.11481 -50.131241 -3.798264
146.54025 -50.191299 -3.818526
146.66937 -50.187977 -4.2192292
147.0463 -50.077286 -4.9214191
147.42206 -50.133869 -4.8836031
146.28444 -49.845154 2.0059471
146.73262 -49.950409 2.1155961
146.85353 -49.891312 2.116421
147.7267 -49.833939 2.093395
147.80627 -49.900166 2.1092639
148.28104 -49.866776 2.1291981
148.60513 -49.808475 2.1501031
148.98892 -49.842331 2.1726749
150.57054 -49.991543 2.060883
141.29898 -49.800331 1.851032
141.66577 -49.825939 1.860166
142.07935 -49.86248 1.8617491
142.49634 -49.877731 1.870326
142.89972 -49.877899 1.8770601
143.29251 -49.872875 1.890036
143.69736 -49.866539 1.9011281
144.09787 -49.860607 1.914345
144.52879 -49.83326 1.926999
146.26218 -49.82848 1.9822839
152.14027 -49.88311 1.931947
155.23799 -49.93338 1.85113
157.64954 -49.951694 1.831576
159.24611 -49.952164 1.772765
159.63145 -49.817566 -0.75945699
157.70943 -49.998367 -0.937837
159.56017 -49.87896 -0.84252
159.61057 -49.847298 -0.87437397
158.68295 -49.94709 -1.188397
158.61186 -49.893173 -1.225974
151.3313 -49.956902 -1.7536761
157.81982 -49.936302 -1.796355
159.11113 -49.840679 -1.779542
156.64572 -49.934448 -1.946736
159.27951 -49.803658 -1.831251
151.28201 -49.81237 -2.0017779
156.19452 -49.917061 -2.194221
157.70099 -49.80085 -2.1777689
151.74042 -49.903183 -2.3153019
151.13705 -49.979393 -2.5660779
154.54459 -49.834114 -2.5721741
155.45161 -49.883106 -2.585937
155.62579 -49.839657 -2.433989
154.90157 -49.970726 -2.6893439
153.45122 -49.882919 -3.082217
146.29065 -49.817852 -3.788444
146.46432 -49.842628 -4.1775651
146.62766 -49.902054 -4.1534781
147.61763 -49.880013 -4.7700858
142.23497 -49.800369 -5.233304
149.79124 -49.764221 2.5580859
150.05476 -49.664848 2.415791
146.29324 -49.78886 2.024214
146.56506 -49.714897 2.057081
146.65797 -49.774567 2.122658
147.21477 -49.68314 2.115459
148.2531 -49.73811 2.123174
148.60516 -49.709106 2.1495309
150.28046 -49.749001 2.174124
140.15428 -49.721333 1.849651
140.51828 -49.757671 1.850448
140.90205 -49.774017 1.849129
144.91025 -49.797195 1.938256
145.37769 -49.706425 1.954198
145.79552 -49.756813 1.95474
145.92381 -49.744621 1.9473799
146.14056 -49.796974 1.9807169
150.53419 -49.727242 1.893635
150.63596 -49.699913 1.89978
151.8692 -49.736443 1.899765
154.83803 -49.750462 1.8704391
157.3725 -49.633347 1.8239419
158.92441 -49.642937 1.813403
156.27951 -49.759453 1.7707371
156.67142 -49.744179 1.798382
157.00385 -49.727348 1.785104
159.68419 -49.759983 1.78108
159.91075 -49.731529 1.788998
159.56079 -49.658867 -0.74437398
159.5641 -49.77005 -1.346737
159.74518 -49.788696 -1.363272
157.05295 -49.741161 -1.617123
158.59985 -49.77832 -1.7424231
150.86398 -49.767609 -1.999041
151.05388 -49.72823 -1.930972
151.23132 -49.746082 -1.974721
151.04843 -49.696739 -2.049634
151.39954 -49.703072 -2.1728749
157.33112 -49.712635 -2.0856521
151.46957 -49.760284 -2.4193721
151.75812 -49.758675 -2.5082231
157.69589 -49.691807 -2.4807839
154.32179 -49.71418 -2.683748
152.72034 -49.762486 -2.9660251
153.96895 -49.777855 -2.857295
151.80383 -49.659996 -3.0985129
152.33372 -49.685799 -3.131182
155.55675 -49.647446 -3.084549
152.32773 -49.715225 -3.31476
142.1949 -49.623047 -3.584681
151.72359 -49.698654 -3.4583681
152.80693 -49.79467 -3.544899
152.69426 -49.762344 -3.743799
140.76683 -49.676849 -4.020649
142.24939 -49.738079 -4.183496
146.11697 -49.555717 2.0331891
146.31509 -49.539368 2.0418551
146.60295 -49.573715 2.113857
146.94519 -49.529797 2.117646
147.50287 -49.478966 2.1291921
147.61574 -49.463387 2.119314
148.64322 -49.412086 2.1350949
143.56955 -49.419205 1.9056129
143.90582 -49.407555 1.91958
144.3013 -49.429047 1.932753
144.68604 -49.416336 1.947206
145.91927 -49.485954 1.971511
146.0329 -49.475235 1.973899
151.05553 -49.528442 1.91985
151.3638 -49.462101 1.888858
154.74355 -49.492348 1.911761
155.48041 -49.425598 1.8759429
157.36209 -49.503971 1.805382
157.41415 -49.452408 1.813831
159.10217 -49.495209 1.817456
144.60538 -49.598358 1.3259341
159.47568 -49.541752 -0.79072899
159.51727 -49.502171 -0.89325303
159.92761 -49.529594 -0.81397498
159.69846 -49.593655 -1.340606
159.24582 -49.482086 -1.788926
151.4258 -49.577438 -1.996223
151.51407 -49.520718 -2.1333101
151.60811 -49.536255 -2.0166149
158.59229 -49.446548 -2.2976389
151.38678 -49.423813 -2.5823729
157.75764 -49.530674 -2.54427
151.72134 -49.550888 -3.0551331
151.8638 -49.548603 -3.355798
155.39555 -49.520603 -3.3380439
156.59834 -49.426682 -3.2241709
158.80621 -49.419144 -3.2984991
142.17188 -49.492554 -4.156343
148.1283 -49.431084 -4.262692
142.66449 -49.454231 -5.1068439
149.44044 -49.311893 2.5742209
149.6351 -49.26284 2.470643
149.86252 -49.342354 2.2410331
146.57649 -49.257687 2.111264
146.93561 -49.23455 2.0872381
147.23024 -49.265343 2.10727
147.76413 -49.368835 2.133064
148.15308 -49.312977 2.1586111
148.28383 -49.200314 2.1485081
140.3143 -49.287521 1.8666151
140.70847 -49.312431 1.865609
141.10959 -49.321648 1.8642991
141.52292 -49.341721 1.8670779
141.91722 -49.364048 1.872571
142.31241 -49.378643 1.879082
142.73309 -49.302166 1.882959
143.08904 -49.361301 1.893977
145.08028 -49.360462 1.9570251
145.51457 -49.342697 1.966946
145.92947 -49.296406 1.978848
150.18842 -49.349663 1.917282
150.23734 -49.342186 1.881084
150.59607 -49.378315 1.908162
154.86786 -49.224098 1.9361989
155.88983 -49.311779 1.886874
157.72818 -49.392952 1.820587
157.84039 -49.338322 1.819145
158.25154 -49.294224 1.828608
159.2952 -49.259872 1.818261
159.85498 -49.259521 -0.341692
159.81404 -49.335461 -0.46930599
159.45929 -49.383808 -0.78033298
159.371 -49.226158 -1.277176
158.52379 -49.291069 -1.711549
159.14322 -49.328335 -1.761593
158.87025 -49.396858 -2.260674
151.69351 -49.390533 -2.6778841
151.44839 -49.346035 -2.905576
155.58797 -49.282719 -2.8026619
148.09088 -49.3983 -4.4281082
149.68703 -49.185001 2.3059599
145.31647 -49.100109 2.014287
146.31549 -49.038883 2.106154
147.81247 -49.002617 2.13871
148.32547 -49.063519 2.1423299
149.8196 -49.133327 2.0417669
145.88506 -49.014977 1.99172
151.43567 -49.122765 1.915472
155.90657 -49.133858 1.863157
156.28973 -49.049141 1.879301
156.9745 -49.154255 1.8364969
157.68443 -49.131943 1.811035
159.05664 -49.081425 1.84009
159.53928 -49.097935 1.834205
159.86615 -49.124695 -0.50153399
159.81531 -49.081848 -0.90603298
159.12634 -49.096718 -1.321309
159.13098 -49.103394 -1.741798
152.28069 -49.054588 -1.946099
158.60452 -49.037132 -1.821589
151.27443 -49.035866 -2.2718461
158.48792 -49.139984 -2.233176
152.13336 -49.106552 -2.7238641
155.38124 -49.034061 -2.697849
156.24815 -49.074471 -3.1611359
154.02293 -49.138538 -3.348273
149.59181 -49.092773 -4.7204642
149.35663 -48.95763 2.5095899
149.51628 -48.899109 2.2372479
144.91458 -48.97583 2.0093329
146.5072 -48.966896 2.137265
146.96074 -48.892448 2.1317699
147.24022 -48.958305 2.167732
148.34833 -48.956989 2.1197629
140.1779 -48.953602 1.877872
140.49042 -48.85817 1.869815
140.89583 -48.891754 1.869837
141.28134 -48.899521 1.871609
141.68736 -48.92078 1.874563
142.08018 -48.932987 1.878855
142.47992 -48.919937 1.8843139
142.88135 -48.931965 1.893538
143.28082 -48.921532 1.905279
143.67839 -48.9002 1.917291
144.07004 -48.89502 1.931023
144.46576 -48.914864 1.946167
144.91304 -48.967705 1.958974
145.28772 -48.972473 1.969425
145.53253 -48.9879 1.9852279
145.89201 -48.907043 1.990459
149.75055 -48.945076 1.9265749
150.12289 -48.834057 1.897521
150.78575 -48.925858 1.879873
154.9827 -48.89806 1.9235409
156.64062 -48.91452 1.879457
157.27417 -48.805264 1.836165
158.11729 -48.984879 1.811968
159.79826 -48.887829 1.8334171
159.83563 -48.910484 1.8450741
150.23419 -48.843643 -0.35407099
150.34579 -48.845551 -0.42901301
159.26352 -48.993855 -1.197499
159.14435 -48.996567 -1.306219
159.29471 -48.903259 -1.281364
159.98279 -48.801804 -1.408823
159.64452 -48.939289 -1.766899
151.12563 -48.881866 -1.931229
158.34723 -48.994339 -2.323477
151.26007 -48.956703 -2.490911
155.80966 -48.909889 -2.6228509
152.17143 -48.977707 -3.080884
155.87671 -48.877869 -3.1523809
148.93423 -48.834927 -3.434057
149.07278 -48.81897 -3.6964381
155.29085 -48.944405 -4.4680271
149.24258 -48.692108 2.4540169
146.46445 -48.600742 2.159441
146.91617 -48.651031 2.1544499
147.22664 -48.610611 2.105948
149.36043 -48.606377 2.187782
140.08672 -48.732376 1.868835
141.05707 -48.613678 1.872287
142.66341 -48.630535 1.883606
143.04117 -48.706398 1.890828
143.22664 -48.77816 1.8972369
144.62939 -48.770699 1.946659
144.97864 -48.692001 1.96184
145.33456 -48.621201 1.971684
149.6743 -48.70929 1.877835
150.13257 -48.776058 1.892118
154.25299 -48.615345 1.907189
155.94534 -48.779171 1.849468
156.99368 -48.677849 1.873176
157.61115 -48.654461 1.88352
158.25119 -48.796806 1.826226
158.95056 -48.62883 1.811282
150.37111 -48.711304 -0.34541401
150.41156 -48.772278 -0.38834301
149.91762 -48.622719 -0.867733
159.37329 -48.674873 -1.269667
159.65897 -48.677868 -1.779736
150.95578 -48.627125 -1.836127
158.12466 -48.649002 -2.0574019
151.37216 -48.62928 -2.246774
156.07001 -48.674068 -2.2927361
155.96037 -48.697292 -2.613811
158.21904 -48.766083 -2.839803
148.91888 -48.789158 -3.4983449
148.9425 -48.765045 -3.62097
148.30698 -48.659733 -4.156579
149.79433 -48.602249 -4.6733351
157.1871 -48.639683 -5.5179539
149.01523 -48.4842 2.5603199
149.26651 -48.540752 2.2864029
147.25352 -48.511642 2.152127
147.83357 -48.49902 2.159476
148.24457 -48.595623 2.197125
140.66486 -48.560055 1.869709
141.47391 -48.49527 1.8715121
141.88068 -48.552868 1.87613
142.28937 -48.591545 1.879686
143.80814 -48.448189 1.927093
144.13739 -48.559155 1.930095
145.76898 -48.484272 1.987516
145.93184 -48.464607 1.993167
149.5363 -48.450504 1.916995
150.21129 -48.586155 1.882104
154.6658 -48.422531 1.927688
157.43979 -48.478481 1.857862
150.26285 -48.523426 -0.334277
159.76796 -48.435463 -0.301449
159.87737 -48.585289 -0.36231399
150.30037 -48.515377 -0.52856302
150.44531 -48.457031 -0.66299999
151.39436 -48.46159 -0.79165602
159.56 -48.442947 -0.78089303
159.63602 -48.54554 -0.74508399
149.94012 -48.512463 -0.89513099
159.55026 -48.464371 -0.833125
159.83957 -48.531307 -0.89218599
159.69647 -48.588303 -1.301759
150.03259 -48.473282 -1.423209
156.7619 -48.554283 -1.919903
156.76482 -48.470184 -2.055449
151.57649 -48.577171 -2.4095089
151.95061 -48.490753 -2.4749379
158.04468 -48.579208 -2.610714
151.97293 -48.516083 -3.5583179
148.6105 -48.447876 -3.8436821
148.82092 -48.460678 -4.2929039
146.56827 -48.361778 2.1476431
146.66495 -48.37191 2.167594
147.08069 -48.222008 2.172159
147.44174 -48.209106 2.1929431
147.78522 -48.278187 2.170274
149.29036 -48.347664 2.0784991
141.12686 -48.226501 1.893437
141.38409 -48.226639 1.895473
142.17389 -48.23999 1.906554
142.5708 -48.228088 1.910913
142.93361 -48.214844 1.915145
143.31119 -48.204018 1.924505
144.17314 -48.304817 1.981984
149.3273 -48.28838 1.9774899
149.66643 -48.300388 1.928125
155.27151 -48.284607 1.817813
156.47308 -48.310932 1.8616101
157.04799 -48.222649 1.846782
157.84079 -48.254173 1.855855
159.80493 -48.242809 1.825771
150.28986 -48.368923 -0.11191
159.48051 -48.278969 -0.38776001
159.84453 -48.313469 -0.30134401
150.40613 -48.334587 -0.582407
159.7338 -48.28035 -0.44588199
149.87122 -48.267742 -0.63661098
150.12695 -48.293003 -0.61100602
151.11734 -48.302956 -0.78104001
159.46999 -48.28968 -0.76791298
149.78542 -48.214577 -0.90163398
149.82082 -48.252586 -0.90596402
150.78146 -48.291885 -0.92694402
150.90977 -48.205391 -0.98305303
159.34659 -48.228622 -0.80566502
159.927 -48.370995 -0.85663301
151.24556 -48.347595 -1.058479
159.11368 -48.231522 -1.2964621
159.35022 -48.217197 -1.256831
159.8535 -48.259731 -1.316949
149.90637 -48.270287 -1.5411659
150.09601 -48.271225 -1.429245
150.81917 -48.293373 -1.418897
150.43164 -48.327553 -1.6259381
156.95038 -48.21217 -1.93225
151.80617 -48.24501 -2.33202
156.6378 -48.303631 -2.4170761
155.11803 -48.285477 -3.0505669
155.35141 -48.245083 -3.0276151
155.74026 -48.393768 -3.2310879
148.7244 -48.312016 -3.7689781
148.93344 -48.327255 -4.131259
149.452 -48.212875 -4.1358471
148.89362 -48.104759 2.526428
149.06723 -48.178936 2.29145
145.98573 -48.059124 2.010572
147.09334 -48.134384 2.1552401
140.18024 -48.130451 1.885298
140.64864 -48.150105 1.88948
141.73352 -48.177658 1.897362
141.90843 -48.10046 1.909954
143.76733 -48.162895 1.938114
144.14536 -48.124199 1.952252
144.66246 -48.160103 1.962447
144.83929 -48.025421 1.961537
145.11082 -48.093582 1.976456
145.59984 -48.072807 1.988644
145.91704 -48.026894 1.9891371
149.30774 -48.140137 1.929558
149.72577 -48.188911 1.904977
154.13269 -48.164116 1.873479
154.71567 -48.090248 1.852294
158.13512 -48.074928 1.857869
158.25648 -48.189274 1.8766479
149.74435 -48.000603 -0.818483
149.88631 -48.14072 -0.97171402
150.02843 -48.089531 -0.98120499
149.77438 -48.16608 -1.0983191
149.93759 -48.181305 -1.352306
159.30115 -48.112354 -1.271866
150.60002 -48.197083 -1.405885
158.11267 -48.036541 -1.5827709
150.05753 -48.164101 -1.6662149
158.17833 -48.024952 -1.60484
158.96696 -48.085655 -1.7091711
152.6264 -48.106575 -1.813524
157.50337 -48.09264 -1.953661
157.62373 -48.058582 -1.982874
151.44933 -48.156128 -2.1984129
152.35434 -48.035408 -2.165417
152.45311 -48.133682 -2.0638671
158.75974 -48.035088 -2.1061771
156.37581 -48.00769 -2.2445099
151.03378 -48.086052 -2.521574
149.59709 -48.042362 -3.92153
149.73682 -48.056145 -4.013617
144.79622 -48.012169 -4.53197
145.76274 -48.18486 -5.1135201
145.83249 -48.058449 -5.2635918
156.71629 -48.100327 -5.4191189
148.85602 -47.978138 2.4480219
145.94269 -47.823265 2.006038
146.58224 -47.890366 2.1726861
146.92331 -47.971386 2.168247
147.86266 -47.951607 2.1941309
140.16895 -47.828659 1.885655
140.54822 -47.898449 1.889317
140.91675 -47.886833 1.903715
141.26898 -47.916702 1.905732
141.68225 -47.875626 1.927726
142.12482 -47.882561 1.921381
142.48569 -47.857224 1.926029
142.79576 -47.86055 1.965942
142.94046 -47.857784 1.913733
143.31438 -47.868828 1.929263
143.79498 -47.810368 1.926182
144.57901 -47.838776 1.957096
144.87802 -47.916275 1.945264
145.75681 -47.885868 1.9813499
149.18048 -47.949215 1.968224
154.6347 -47.831635 1.8790751
154.92734 -47.840717 1.885756
155.64304 -47.829578 1.8058439
156.72005 -47.964527 1.858272
158.14571 -47.913467 1.85572
158.24904 -47.810905 1.868461
159.80629 -47.845421 1.8053091
149.84708 -47.803555 1.762615
150.22977 -47.963734 1.660063
149.83942 -47.93895 -0.62490398
150.46396 -47.803734 -0.71056002
159.27933 -47.889381 -0.75167203
149.82826 -47.964874 -0.83953702
150.06056 -47.879097 -0.88950002
150.4418 -47.848061 -0.88872701
150.8902 -47.860725 -0.99728101
159.53108 -47.80481 -0.88410997
149.80826 -47.837795 -1.079644
158.07381 -47.934479 -1.3689671
159.57286 -47.854961 -1.3052
152.99229 -47.805748 -1.4834321
157.85603 -47.83007 -1.587325
150.29988 -47.860401 -1.708356
150.47791 -47.824844 -1.660182
157.91388 -47.845428 -1.6529371
158.245 -47.992054 -1.602453
152.73582 -47.812424 -1.9080271
152.05237 -47.826 -2.0977831
152.60269 -47.900475 -2.1099889
158.91214 -47.829124 -2.587657
152.12323 -47.966682 -2.671138
158.3679 -47.924355 -3.075567
158.43559 -47.848881 -3.007643
154.07478 -47.897507 -3.382014
149.09721 -47.919098 -3.959141
149.65546 -47.815804 -3.8437841
149.51843 -47.908928 -4.1996989
143.9483 -47.89843 -5.5958509
147.2016 -47.605225 2.21015
148.9628 -47.793465 2.2047551
146.91174 -47.727478 2.1756179
147.01109 -47.617966 2.169059
147.27853 -47.716652 2.1843591
142.95938 -47.719563 1.92075
144.13937 -47.775337 1.939512
144.93698 -47.746189 1.96655
145.36545 -47.746082 1.979754
149.12231 -47.694473 1.936215
149.36932 -47.712563 1.922461
149.52687 -47.645569 1.848401
154.2003 -47.67115 1.853711
155.30167 -47.620319 1.800524
157.31131 -47.666409 1.829551
157.91258 -47.71904 1.90459
158.51402 -47.731667 1.86315
159.38458 -47.746227 1.857264
149.79285 -47.737659 1.753476
149.96198 -47.711388 1.643873
150.14804 -47.737869 1.490916
150.5527 -47.750217 1.353173
150.6918 -47.754051 1.36253
150.97701 -47.694023 1.362843
151.32956 -47.669426 1.33768
150.16655 -47.679092 -0.219309
159.71083 -47.786114 -0.33938101
159.87503 -47.731506 -0.52013803
150.2213 -47.730911 -0.65244102
158.98141 -47.681755 -0.74766099
158.83047 -47.657513 -0.83662498
159.66129 -47.765789 -0.83613998
149.85362 -47.768951 -1.046523
149.91261 -47.788685 -1.309323
150.23079 -47.736641 -1.3957731
150.90465 -47.600471 -1.336588
159.72406 -47.779617 -1.374429
152.98984 -47.750057 -1.7896
153.85422 -47.723793 -1.7541569
157.18204 -47.647278 -1.622256
151.76682 -47.690952 -2.1420591
155.69244 -47.754784 -2.0779641
156.49734 -47.781853 -2.0767641
158.93854 -47.633705 -2.1612999
157.29518 -47.606564 -2.3394561
152.6804 -47.605064 -2.5252531
151.34181 -47.739864 -2.643481
153.24899 -47.654198 -2.737227
156.26921 -47.707607 -2.6627829
156.41812 -47.729099 -2.6780889
156.6315 -47.794949 -2.9494309
151.83128 -47.692696 -3.142046
155.23715 -47.626534 -3.112787
149.51318 -47.704041 -3.4809711
149.7383 -47.656803 -3.4371541
155.19379 -47.653809 -3.7213919
149.37463 -47.783653 -3.805295
148.14781 -47.688709 -4.972744
148.59586 -47.751358 -5.0414858
145.32181 -47.540241 2.015435
145.7692 -47.499729 2.009429
145.9718 -47.475327 2.0150499
147.04883 -47.454651 2.1865211
147.82767 -47.449413 2.1896141
140.90961 -47.420444 1.8997639
141.30406 -47.418335 1.898332
141.72464 -47.463299 1.908028
142.12469 -47.475822 1.914032
142.53036 -47.463829 1.919523
142.7061 -47.561775 1.953621
142.91287 -47.436081 1.925488
143.33287 -47.447128 1.936241
145.41844 -47.486404 1.9650789
145.8148 -47.417267 1.990605
149.26848 -47.460968 1.921613
154.32001 -47.466076 1.8464741
159.72824 -47.474464 1.859978
149.58392 -47.421249 1.749697
149.7346 -47.448555 1.649977
149.93025 -47.4729 1.493287
150.13837 -47.457684 1.385991
151.37494 -47.475117 1.382866
159.69411 -47.456188 -0.48333299
150.34528 -47.407806 -0.613922
158.99484 -47.537788 -0.73345202
159.57857 -47.59272 -0.85201597
153.90573 -47.52227 -1.31537
157.16217 -47.401203 -1.5038069
157.27011 -47.432648 -1.501321
150.69093 -47.574547 -1.76247
157.73779 -47.543732 -1.67267
158.69139 -47.512199 -1.617936
150.32431 -47.459175 -1.861003
152.95691 -47.507759 -1.889479
153.78944 -47.409615 -1.855848
156.75044 -47.459526 -1.852545
151.51317 -47.531784 -2.116792
153.04099 -47.407112 -2.068464
156.68242 -47.46471 -2.0585439
156.95512 -47.402012 -2.084049
152.0677 -47.432495 -2.2002571
157.34576 -47.555752 -2.376045
151.51488 -47.572247 -2.6839809
152.44093 -47.430805 -2.625488
155.94803 -47.561966 -2.622786
152.15807 -47.521866 -2.8188889
152.47896 -47.575638 -2.898643
153.18591 -47.417068 -2.916213
155.8634 -47.45528 -2.9539299
149.9872 -47.498672 -3.1318481
149.91187 -47.556709 -3.2862351
151.9346 -47.439476 -3.526159
154.55229 -47.488205 -3.492291
150.11613 -47.404869 -3.7244639
154.51216 -47.5728 -3.654635
154.72873 -47.484276 -4.0481439
148.70305 -47.515007 -4.4350982
145.29919 -47.53273 -5.0132871
147.72504 -47.370262 2.2182209
148.7533 -47.392071 2.378052
146.64293 -47.238766 2.1840949
146.98793 -47.227646 2.084923
147.03351 -47.208069 2.0881269
147.40337 -47.290222 2.1398499
148.87692 -47.349346 2.1631
140.12311 -47.38549 1.8950109
140.51151 -47.352898 1.894299
143.72266 -47.376015 1.949212
144.0408 -47.369358 1.955557
144.44257 -47.290718 1.9658329
144.99158 -47.267719 1.975348
145.94952 -47.319153 1.9852591
147.07639 -47.258057 1.869218
149.07855 -47.340752 1.920045
149.30743 -47.258423 1.903971
153.96738 -47.359539 1.901615
154.65002 -47.234772 1.833806
155.02759 -47.358215 1.8560981
156.67873 -47.345222 1.821056
157.23129 -47.281155 1.855374
158.19112 -47.383251 1.8860101
158.53116 -47.339264 1.862666
147.14873 -47.229752 1.736071
149.53593 -47.319424 1.747231
155.41324 -47.294403 1.787531
155.78709 -47.383453 1.790433
147.134 -47.217613 1.53716
149.92552 -47.328743 1.438453
150.42163 -47.276108 1.36849
147.18332 -47.206715 1.034301
147.22673 -47.218285 1.0326051
147.18372 -47.213844 0.735291
149.3121 -47.25597 -0.219338
150.07742 -47.209553 -0.36087099
159.46835 -47.276436 -0.36372
159.71019 -47.372734 -0.35808599
149.88597 -47.329926 -0.57769603
149.52505 -47.283638 -1.086115
149.63307 -47.375359 -1.06013
150.16838 -47.206421 -1.0051171
150.88071 -47.262314 -1.156818
154.29387 -47.308228 -1.18162
149.48849 -47.322182 -1.2297421
149.69659 -47.261478 -1.3899291
150.8385 -47.294651 -1.213596
154.08119 -47.372646 -1.320246
156.18729 -47.296478 -1.513697
157.70174 -47.376514 -1.5530829
149.93881 -47.231178 -1.6469229
154.24301 -47.289703 -1.649235
157.32753 -47.337482 -1.6321011
146.67422 -47.345856 -1.878249
146.9574 -47.223198 -1.823513
153.43001 -47.327713 -1.936463
157.03506 -47.325089 -1.877314
151.84824 -47.258888 -2.165885
153.7403 -47.276215 -2.1743059
156.91051 -47.275513 -2.046519
154.23747 -47.263206 -2.2819271
150.13579 -47.277664 -2.504056
152.16933 -47.322998 -2.4551711
156.19762 -47.288918 -2.4813099
149.9444 -47.336761 -2.6918421
150.11363 -47.20385 -2.6943669
153.1221 -47.353329 -2.7342091
156.66153 -47.36956 -2.7178121
150.08368 -47.230751 -2.8938479
156.09378 -47.26778 -2.941525
150.06277 -47.29258 -3.0858409
150.10751 -47.316139 -3.278583
154.22818 -47.312904 -3.4415441
145.12889 -47.333698 -4.6615992
145.53873 -47.313919 -4.7922182
148.49109 -47.382771 -4.9793591
147.54359 -47.089748 2.2378199
147.76315 -47.189384 2.2203231
144.54961 -47.001091 2.010217
144.96046 -47.034454 2.016135
145.37074 -47.043816 2.020853
145.97133 -47.044701 2.0275569
146.35822 -47.112141 2.1379061
147.03453 -47.163879 2.070766
147.23697 -47.091125 2.0937309
140.22079 -47.030613 1.876501
140.94138 -47.036823 1.894665
141.3484 -47.085194 1.916159
141.8194 -47.116314 1.9185179
142.20953 -47.12751 1.926769
142.61235 -47.112976 1.934283
143.02722 -47.046818 1.94247
143.33943 -47.049049 1.943188
144.20058 -47.050793 1.953403
145.79639 -47.055763 1.987806
147.11151 -47.135056 1.892735
153.8208 -47.024254 1.917357
154.27444 -47.062378 1.8935519
155.11429 -47.021496 1.81284
157.48676 -47.067123 1.864591
158.56557 -47.175064 1.86989
158.65901 -47.103523 1.843727
147.19302 -47.166965 1.686363
147.24673 -47.151279 1.744936
156.65973 -47.127724 1.79607
147.15405 -47.180428 1.533991
147.23743 -47.093605 1.498578
149.56891 -47.055916 1.581208
149.66858 -47.029713 1.5372241
147.18295 -47.154678 1.348194
147.17706 -47.162666 1.04897
147.18646 -47.180763 0.66054201
147.18385 -47.146965 0.52898699
147.24274 -47.129704 0.59985101
147.17526 -47.149429 0.236533
147.22287 -47.129478 0.091325
149.25595 -47.047806 0.196348
147.2316 -47.138145 -0.152733
147.18674 -47.151699 -0.214834
147.21565 -47.110329 -0.371566
149.04343 -47.143761 -0.240995
149.44678 -47.054443 -0.207184
149.8544 -47.05101 -0.262362
150.18607 -47.134144 -0.30765
150.43317 -47.085564 -0.342466
147.18338 -47.15786 -0.59609503
147.22491 -47.107735 -0.53525698
150.18274 -47.122303 -0.57467502
150.40428 -47.144516 -0.55093497
159.50839 -47.163269 -0.43605
147.18625 -47.13171 -0.603064
147.24542 -47.104317 -0.76554197
149.78481 -47.031853 -0.62205201
147.19131 -47.13979 -0.96730101
147.21555 -47.120022 -0.91794097
147.19838 -47.128593 -1.141369
147.25131 -47.101589 -1.069006
154.55397 -47.061535 -1.1340801
147.24109 -47.107849 -1.315116
149.73161 -47.005096 -1.353889
147.1846 -47.100971 -1.429046
147.31958 -47.072319 -1.47033
157.45686 -47.069122 -1.507622
147.23418 -47.12442 -1.654708
149.71286 -47.00798 -1.715273
150.16257 -47.001247 -1.752323
153.04382 -47.034462 -1.672732
158.89827 -47.156834 -1.7303081
159.25235 -47.161388 -1.768719
149.99153 -47.063511 -1.916921
157.06207 -47.10743 -1.8815531
150.26501 -47.01601 -2.2091241
152.89828 -47.046082 -2.2358739
153.80125 -47.011799 -2.271889
156.27405 -47.054886 -2.398638
157.00987 -47.060001 -2.2412169
150.11969 -47.189102 -2.5770309
150.25957 -47.0522 -2.516289
156.49442 -47.028015 -2.5854089
151.94917 -47.107681 -2.6452861
150.21814 -47.105724 -2.955477
153.06573 -47.061951 -2.8322871
153.2578 -47.070709 -2.8778119
154.25764 -47.051804 -2.965528
150.16527 -47.144539 -3.1179631
156.17888 -47.000031 -3.016835
150.27921 -47.087006 -3.335073
150.45467 -47.028454 -3.3812339
150.29449 -47.081841 -3.444026
150.48776 -47.003601 -3.7499759
145.40265 -47.160923 -4.621634
147.43102 -46.978203 2.2222509
147.73318 -46.901947 2.2442889
145.71648 -46.996666 2.0215161
146.57718 -46.963398 2.1871059
146.9753 -46.979481 2.146107
147.13402 -46.880772 2.1838479
147.22188 -46.878555 2.189389
148.84991 -46.935036 2.157305
140.61516 -46.945599 1.8889689
143.73727 -46.93819 1.955752
144.00609 -46.852673 1.996083
144.62134 -46.968643 1.9675601
144.91109 -46.981339 1.978233
145.35378 -46.945732 1.990026
149.04575 -46.919746 1.936074
154.54486 -46.906414 1.8133039
154.67741 -46.906139 1.8231651
157.17847 -46.825752 1.9247921
157.7261 -46.999317 1.8635941
158.20726 -46.93277 1.87128
159.44943 -46.951637 1.811341
149.33327 -46.900398 1.791292
155.48849 -46.864471 1.766459
155.63184 -46.937431 1.7917759
159.35269 -46.847515 1.772103
149.58119 -46.986992 1.540853
151.77907 -46.853233 1.400948
150.24591 -46.991333 1.39133
150.53531 -46.804245 1.3943
150.61819 -46.987289 1.389243
150.66489 -46.832474 0.45082799
149.1132 -46.839279 0.068434
149.06721 -46.977036 -0.26639599
149.04752 -46.941734 -0.50593603
149.14473 -46.848213 -0.721834
149.28952 -46.842831 -0.71874899
149.55707 -46.901894 -0.63448799
158.21786 -46.819069 -0.63411802
149.15787 -46.843193 -0.84023702
149.35504 -46.936745 -0.95822102
149.46574 -46.918877 -0.86864299
150.20117 -46.855202 -0.97350103
158.80632 -46.938461 -0.86417401
149.7841 -46.913555 -1.109013
150.64626 -46.988689 -1.099403
157.73512 -46.865448 -1.113191
157.83777 -46.961006 -1.129194
158.23416 -46.849579 -1.121139
149.1902 -46.806049 -1.317845
149.31914 -46.804375 -1.301657
158.27197 -46.825607 -1.2411979
149.39949 -46.935478 -1.4375679
150.28749 -46.909523 -1.568189
150.44066 -46.863647 -1.572474
154.32697 -46.933189 -1.411788
157.73262 -46.925415 -1.44397
149.47644 -46.954819 -1.696808
150.45715 -46.896553 -1.672075
151.40041 -46.809566 -1.689255
157.69293 -46.967468 -1.679036
150.1552 -46.87252 -1.973134
150.34543 -46.913837 -1.941547
150.82854 -46.845207 -1.967875
151.86914 -46.83511 -1.855364
152.12875 -46.816216 -1.885196
157.01529 -46.929409 -1.909252
157.35222 -46.880898 -1.885577
150.09061 -46.868752 -2.024648
150.25568 -46.918396 -2.079154
150.51126 -46.870052 -2.130888
150.84 -46.86182 -2.03808
151.9249 -46.872482 -2.143394
152.53928 -46.862694 -2.1922281
152.26309 -46.837029 -2.2737839
153.43143 -46.920704 -2.3132379
150.47702 -46.968834 -2.5421009
152.94275 -46.922592 -2.4454651
153.41881 -46.880341 -2.448782
156.14415 -46.86198 -2.589776
152.32835 -46.855225 -2.714077
155.07689 -46.831619 -2.7213669
155.17688 -46.835499 -2.8686781
150.55057 -46.981522 -3.030643
155.8804 -46.968956 -3.446542
150.29288 -46.958359 -3.658325
154.14412 -46.854763 -3.8689411
156.06752 -46.938248 -4.6962948
146.80713 -46.667118 2.2199271
147.07227 -46.659943 2.2291529
147.3681 -46.620449 2.251792
146.11397 -46.713287 2.0428059
140.08287 -46.641418 1.900245
142.63863 -46.601276 1.924991
143.88586 -46.617767 1.953735
144.23445 -46.663868 1.962521
144.58276 -46.653488 1.976125
144.95126 -46.601433 1.9858299
145.41635 -46.68869 1.987142
145.65607 -46.67598 1.991207
149.08575 -46.759781 1.922323
154.13541 -46.614388 1.904435
157.46988 -46.785683 1.931976
157.78053 -46.732483 1.90528
158.57922 -46.702206 1.9005949
159.35165 -46.663261 1.7199
159.48892 -46.746136 1.7172379
150.21274 -46.640869 1.395901
150.58118 -46.687202 1.2412241
150.60608 -46.777752 1.291584
150.5742 -46.756954 1.023439
150.61111 -46.756783 1.1239001
150.56403 -46.637413 0.91077501
150.61203 -46.762245 0.87679398
148.72993 -46.70491 0.43445301
148.8804 -46.747425 0.42688701
148.9227 -46.647209 0.26177999
149.32564 -46.740246 0.22093999
148.94655 -46.654945 0.19780999
150.5298 -46.627579 0.170679
148.72815 -46.692791 -0.192055
148.8595 -46.679108 -0.230389
150.46307 -46.628658 -0.58653802
149.75443 -46.71973 -0.65936798
158.19643 -46.653107 -0.74443197
149.14703 -46.687202 -0.93634701
149.36333 -46.669868 -0.94924301
149.45543 -46.621113 -0.99782598
150.51112 -46.652687 -0.88503897
158.22289 -46.636444 -0.93887699
149.30797 -46.759079 -1.02904
149.90105 -46.633141 -1.00235
157.74074 -46.743843 -1.104214
149.3914 -46.741196 -1.222469
154.23328 -46.784454 -1.225118
158.07587 -46.64418 -1.394096
149.37759 -46.697178 -1.415159
150.5553 -46.661297 -1.52827
151.05963 -46.693581 -1.402653
151.44125 -46.750122 -1.467663
149.342 -46.609619 -1.607602
150.6442 -46.658501 -1.67334
154.48273 -46.701904 -1.7956491
157.87943 -46.657806 -1.77834
149.93642 -46.745659 -1.8711571
150.10078 -46.696453 -1.939765
151.94885 -46.773838 -1.823761
152.05057 -46.770996 -1.891216
157.40366 -46.702595 -1.928359
149.90787 -46.650105 -2.032342
150.14671 -46.647724 -2.1259789
150.26488 -46.600124 -2.1542871
150.66196 -46.626198 -2.118382
151.81438 -46.782566 -2.17314
152.31923 -46.771481 -2.215986
156.63718 -46.71096 -2.3019941
155.09216 -46.678795 -2.581533
152.35455 -46.729355 -2.6165891
152.57205 -46.69902 -2.6134019
155.82028 -46.624062 -2.783437
156.96774 -46.617569 -2.643127
150.51439 -46.766777 -2.890588
152.2693 -46.786308 -3.0455239
149.93188 -46.616108 -4.2867999
146.67468 -46.560822 2.2071309
147.51891 -46.479698 2.2331281
147.63184 -46.446384 2.2445891
145.93414 -46.558685 2.0113051
146.05612 -46.524376 2.0292399
148.93323 -46.596329 2.0553479
140.56857 -46.535446 1.897225
140.92773 -46.505417 1.895709
141.36414 -46.544167 1.910943
141.73346 -46.583313 1.917186
142.19753 -46.585819 1.925611
142.94373 -46.51442 1.991684
143.00514 -46.512497 1.941017
143.37761 -46.4893 1.949607
149.31439 -46.551056 1.8190171
154.45692 -46.499809 1.863314
154.92654 -46.529556 1.8209831
155.68777 -46.577263 1.777413
158.97675 -46.512604 1.795078
159.01758 -46.458378 1.757901
149.58139 -46.554993 1.562371
149.7267 -46.519745 1.475173
150.56734 -46.590538 1.330005
151.98454 -46.464062 1.357578
150.52881 -46.499725 1.041358
150.46147 -46.427433 0.85522503
150.45277 -46.467052 0.62707001
148.79771 -46.585716 0.430031
150.37958 -46.432304 0.46921599
150.44835 -46.486237 0.57353598
150.41376 -46.456039 0.2881
148.51289 -46.44315 0.098760001
148.65265 -46.484169 0.13434599
148.87074 -46.488422 0.030461
150.39389 -46.486507 0.13529
148.65315 -46.513794 -0.069045
149.39609 -46.584877 -0.12976401
150.36842 -46.484596 -0.119893
150.42142 -46.500259 -0.139927
148.81198 -46.558014 -0.239365
150.39514 -46.474049 -0.29255101
148.90604 -46.510353 -0.47732601
149.02502 -46.524498 -0.528063
149.44998 -46.466827 -0.710352
150.28299 -46.594276 -0.66955501
159.3941 -46.499893 -0.71752298
149.37433 -46.495838 -0.81759298
149.51143 -46.470226 -0.95127898
150.1378 -46.575089 -0.90555
158.61064 -46.570282 -0.94520903
149.19757 -46.426838 -1.251086
149.48349 -46.457512 -1.282643
150.1387 -46.521759 -1.273388
149.32123 -46.550591 -1.4188859
149.72792 -46.482124 -1.442649
154.30568 -46.418961 -1.588621
155.35408 -46.517567 -1.410714
157.92001 -46.506027 -1.5334181
158.01691 -46.4077 -1.536442
151.01057 -46.474628 -1.659554
155.16016 -46.423908 -1.672603
155.28 -46.46703 -1.65554
149.80148 -46.597786 -1.983914
152.72089 -46.43428 -1.9304661
152.87442 -46.497112 -1.900727
154.16965 -46.54002 -1.876344
152.92455 -46.506111 -2.05072
153.76295 -46.480873 -2.1140971
157.06314 -46.512024 -2.2858701
157.3989 -46.434761 -2.256644
150.66461 -46.505478 -2.5883341
150.88998 -46.460682 -2.519285
153.07803 -46.543243 -2.4881649
154.71849 -46.595226 -2.877213
156.26961 -46.494953 -2.9305611
156.17072 -46.547844 -4.9388609
146.58121 -46.232136 2.205142
147.48584 -46.311184 2.2221401
147.61253 -46.266014 2.2099581
146.07179 -46.287483 2.009613
140.15448 -46.288986 1.8868279
140.58882 -46.230324 1.900012
142.50122 -46.233177 1.936607
144.15184 -46.287064 1.961807
158.30392 -46.397934 1.885058
155.50925 -46.347363 1.737402
159.10405 -46.302502 1.784089
149.69398 -46.285088 1.450119
159.46455 -46.312656 1.532418
150.38905 -46.239014 1.334458
150.58966 -46.294701 1.2605669
151.80031 -46.212315 1.389639
150.51813 -46.361427 1.136248
150.63675 -46.24905 1.016526
150.49284 -46.346203 0.888825
150.65376 -46.217731 0.98443598
150.49762 -46.302441 0.67118901
150.69705 -46.208435 0.68406898
150.51981 -46.292542 0.50435102
148.71837 -46.377785 0.204697
150.48956 -46.298615 0.288151
151.02936 -46.244728 0.341849
148.3867 -46.293949 0.057342
148.53363 -46.254883 0.101196
148.65308 -46.29377 0.094021
148.8483 -46.291344 0.086436003
148.53745 -46.306675 -0.029857
148.64624 -46.253777 -0.116742
148.64471 -46.290398 -0.209204
148.94354 -46.206303 -0.22977699
149.33038 -46.296967 -0.31876299
150.44847 -46.343475 -0.30977899
148.93761 -46.325546 -0.56966102
149.11371 -46.247475 -0.47098699
149.50232 -46.263519 -0.50316697
159.35555 -46.339508 -0.40373299
159.43478 -46.264122 -0.47623801
149.14124 -46.320114 -0.69546402
150.30725 -46.332222 -0.70917898
150.17755 -46.313271 -0.98613399
150.27873 -46.33506 -0.81791198
150.52045 -46.244083 -0.89038301
158.83646 -46.259544 -0.89341402
149.14703 -46.298576 -1.1274019
149.28932 -46.263058 -1.132731
149.89935 -46.275551 -1.040357
150.07013 -46.355965 -1.023474
150.31207 -46.241631 -1.056177
158.1373 -46.257236 -1.16098
149.11111 -46.230198 -1.320444
149.28606 -46.262054 -1.316914
158.12459 -46.233509 -1.39178
149.23476 -46.37677 -1.4104199
151.38913 -46.307083 -1.4393179
154.31831 -46.325359 -1.554496
155.44089 -46.361305 -1.405671
150.48189 -46.221176 -1.759141
151.05255 -46.368599 -1.678846
152.5679 -46.359085 -1.9227231
152.88144 -46.283501 -1.940781
157.46249 -46.366257 -1.911624
157.70013 -46.29874 -1.9108599
150.60605 -46.289879 -2.1853549
154.17191 -46.225933 -2.1719749
158.30746 -46.207016 -2.017159
153.83488 -46.307182 -2.2459209
157.12999 -46.372803 -2.3326311
157.39624 -46.293598 -2.3091569
150.81203 -46.316254 -2.480783
156.98952 -46.254124 -2.6414499
150.58078 -46.305374 -2.864212
156.22623 -46.289436 -2.8897581
156.14812 -46.293003 -4.9645362
156.53349 -46.210625 -5.5026588
146.54295 -46.188812 2.2090459
146.70435 -46.155426 2.232866
146.96561 -46.0467 2.220264
147.03052 -46.03392 2.2293479
147.67061 -46.160423 2.2154551
144.62808 -46.086357 2.0111599
145.1452 -46.096809 2.006515
145.36795 -46.195206 2.0068929
145.65532 -46.029064 2.0168369
146.53166 -46.140015 2.1978121
147.01288 -46.156006 2.1786289
140.98462 -46.074314 1.903646
141.34624 -46.198982 1.908054
141.72849 -46.166924 1.9210221
141.85191 -46.182686 1.959554
142.1248 -46.18029 1.930187
142.97401 -46.137703 1.94586
143.43134 -46.155853 1.958429
143.90317 -46.157864 1.96532
144.55313 -46.139145 1.9817899
145.04694 -46.194656 1.992087
145.47612 -46.154144 1.985381
145.89427 -46.197411 1.99709
154.16533 -46.17931 1.895089
154.58105 -46.104767 1.8463891
155.38913 -46.087456 1.81427
156.73291 -46.105671 1.870728
157.4715 -46.115425 1.856328
158.67058 -46.110657 1.9226871
159.18237 -46.00391 1.826064
149.43504 -46.166138 1.738517
155.79073 -46.146435 1.772575
159.29129 -46.108192 1.702062
159.71191 -46.027199 1.6896369
149.57991 -46.134956 1.576681
159.3261 -46.131027 1.563697
150.31523 -46.163071 1.35895
150.57536 -46.132217 1.3171279
150.71698 -46.116447 1.3188961
150.96198 -46.096458 1.338197
151.09297 -46.107044 1.247339
151.29396 -46.12249 1.37442
150.74606 -46.130432 1.12613
151.08514 -46.145233 1.082863
150.7104 -46.158752 0.92319399
150.89885 -46.139854 0.863168
151.06902 -46.161125 0.95969898
150.59132 -46.169426 0.507568
150.63898 -46.157665 0.57635897
150.91061 -46.173592 0.52969998
150.57632 -46.167076 0.25048599
150.71783 -46.167221 0.35833499
150.8559 -46.162453 0.26870501
148.87337 -46.030865 0.046163
150.58371 -46.130371 0.128564
150.647 -46.150116 0.12794399
150.85394 -46.135735 0.105527
148.70096 -46.117477 -0.18786301
148.86859 -46.10453 -0.132056
150.56531 -46.10894 -0.051782999
150.63074 -46.095299 -0.141756
150.85637 -46.094261 -0.137477
159.42831 -46.196266 -0.18387
148.70058 -46.119297 -0.203393
148.86914 -46.125526 -0.23052301
149.62646 -46.147987 -0.348061
150.5394 -46.099533 -0.27755001
150.65451 -46.028763 -0.27778101
152.11676 -46.029984 -0.34057099
159.61116 -46.021492 -0.34773099
149.59763 -46.169243 -0.493673
149.76067 -46.139397 -0.51611
150.49313 -46.195999 -0.61693799
151.55765 -46.154121 -0.63874298
152.26355 -46.061562 -0.67395103
159.10194 -46.111328 -0.71321702
159.31604 -46.155163 -0.89736199
149.21405 -46.17984 -1.140458
151.6537 -46.021492 -1.069959
157.96771 -46.028 -1.12808
158.66592 -46.07991 -1.006156
149.05104 -46.196564 -1.341611
149.84576 -46.12664 -1.361549
150.12956 -46.158993 -1.317173
151.77151 -46.163979 -1.35189
152.14223 -46.098457 -1.541212
154.44989 -46.133568 -1.532094
157.8674 -46.115532 -1.539394
149.9223 -46.146305 -1.648555
150.00262 -46.192226 -1.615978
150.28642 -46.168144 -1.669037
151.86768 -46.165092 -1.657396
153.54684 -46.129398 -1.727331
153.71802 -46.117081 -1.695653
154.22031 -46.080208 -1.770656
157.76019 -46.084984 -1.930526
158.22031 -46.147797 -1.968617
151.84769 -46.018013 -2.1654279
153.80603 -46.183777 -2.101294
154.08459 -46.138496 -2.181545
150.87892 -46.168083 -2.3040781
157.67632 -46.186874 -2.350117
150.73508 -46.126339 -2.4740901
155.77376 -46.118973 -2.572403
156.58659 -46.187531 -2.8750679
150.73984 -46.096191 -3.5878911
155.51256 -46.088791 -4.7071729
145.91566 -45.819996 2.032999
146.0228 -45.907009 2.032691
146.63528 -45.924721 2.193902
140.13788 -45.854248 1.890789
140.49387 -45.927013 1.89606
140.98346 -45.9021 1.910444
141.32169 -45.842331 1.916237
141.74847 -45.81546 1.926914
142.14227 -45.826599 1.9361809
142.53592 -45.853767 1.942753
142.92017 -45.879219 1.950325
143.45026 -45.898956 1.9588031
143.74345 -45.890102 1.961309
144.12875 -45.893234 1.971247
156.12753 -45.806244 1.821857
157.81589 -45.803867 1.892056
158.5585 -45.848736 1.943433
159.18878 -45.971573 1.82363
159.23714 -45.971207 1.832527
159.45627 -45.865585 1.876117
149.57678 -45.96133 1.65211
159.36002 -45.951309 1.758474
159.75034 -45.917885 1.74953
149.86833 -45.820248 1.4250751
152.11145 -45.833168 1.414631
150.24524 -45.959843 1.3901531
151.09334 -45.907684 1.36288
151.34277 -45.833843 1.3766201
148.69414 -45.912399 0.023523999
148.83926 -45.882195 0.043821
159.56604 -45.961868 -0.16554999
149.58002 -45.81385 -0.330208
149.68513 -45.845673 -0.363644
150.73029 -45.961449 -0.33609399
152.27324 -45.829887 -0.35614401
159.37222 -45.986313 -0.26894
159.44836 -45.894135 -0.29598299
159.65387 -45.892166 -0.26641399
149.44894 -45.865154 -0.48033801
149.69199 -45.8559 -0.47812101
150.85805 -45.90274 -0.52645802
159.34618 -45.884048 -0.45825699
150.67102 -45.857552 -0.62823802
150.85776 -45.823124 -0.64060903
151.58273 -45.952789 -0.68769801
151.72287 -45.80687 -0.64323097
152.20013 -45.873188 -0.60045099
158.70993 -45.853546 -0.756778
159.03073 -45.867783 -0.60386503
150.28691 -45.828239 -0.94001198
150.69855 -45.826359 -0.94569302
158.58186 -45.809277 -0.96912003
149.56348 -45.908176 -1.14878
149.64856 -45.936897 -1.163638
150.42178 -45.820614 -1.040432
150.61699 -45.813965 -1.062513
149.54355 -45.915562 -1.251811
149.72626 -45.918976 -1.348273
150.82327 -45.869804 -1.331079
152.08199 -45.827515 -1.245536
157.93352 -45.986004 -1.206485
150.77887 -45.821022 -1.504632
150.8152 -45.848476 -1.425334
154.73264 -45.963646 -1.566301
158.27504 -45.886547 -1.497607
149.69818 -45.916805 -1.650426
153.49191 -45.85704 -1.618376
153.74677 -45.980385 -1.652792
153.85791 -45.927586 -1.746793
158.13936 -45.803463 -1.7842129
151.5412 -45.837341 -1.822114
154.28371 -45.832367 -1.809623
154.1189 -45.836937 -2.090174
157.99971 -45.898159 -2.017818
157.3037 -45.800709 -2.300328
150.8537 -45.935677 -2.569124
155.58292 -45.88295 -2.49895
155.68687 -45.880142 -2.5520799
156.47522 -45.882298 -2.5325799
157.26924 -45.906719 -2.574523
157.06152 -45.93325 -2.691514
156.77423 -45.925205 -2.975421
150.72261 -45.819641 -3.329113
150.94617 -45.853706 -3.3892529
147.04164 -45.764324 2.21982
144.56761 -45.618908 2.027792
144.98238 -45.796436 2.0118301
145.38933 -45.759743 2.014329
146.04889 -45.711037 2.04217
144.65829 -45.77058 1.987137
153.50383 -45.755028 1.919992
154.09857 -45.74765 1.899382
157.00783 -45.7047 1.902144
157.44313 -45.732498 1.90297
158.09216 -45.779579 1.893245
158.94437 -45.741756 1.922233
159.80846 -45.666145 1.960986
149.65097 -45.780113 1.653993
155.18216 -45.666817 1.795018
155.25388 -45.789139 1.79292
155.84311 -45.730659 1.74189
149.85263 -45.740593 1.466076
151.83299 -45.717899 1.404654
150.54637 -45.793427 1.399763
151.0757 -45.794647 1.389046
149.68663 -45.765823 -0.457266
150.2702 -45.607967 -0.66261703
150.28737 -45.73674 -0.91152298
151.37006 -45.733467 -0.98968202
158.15689 -45.681656 -0.97157502
150.39563 -45.634857 -1.007955
150.56995 -45.679585 -1.122072
150.67682 -45.746422 -1.065964
150.98618 -45.63348 -1.005399
151.70367 -45.722786 -1.089848
150.77243 -45.640594 -1.3211499
150.80807 -45.721157 -1.326835
151.54411 -45.666553 -1.29575
151.68411 -45.609756 -1.3906519
151.80869 -45.706741 -1.257442
152.14706 -45.74794 -1.340786
150.76157 -45.719677 -1.481671
153.54846 -45.698097 -1.564178
150.73253 -45.66243 -1.678674
154.44217 -45.752792 -1.87606
157.0191 -45.731552 -1.929306
157.88281 -45.756569 -1.931743
150.35593 -45.717815 -2.078964
150.47318 -45.673546 -2.194906
151.44699 -45.675491 -2.192935
157.0464 -45.771069 -2.217653
151.45403 -45.739147 -2.48665
151.64003 -45.682899 -2.5432179
153.01988 -45.716602 -2.4896591
150.24785 -45.635658 -2.9369769
150.44324 -45.659431 -2.865051
150.8735 -45.725765 -3.7031879
146.54077 -45.557159 2.248009
144.16437 -45.437157 2.0140409
144.69205 -45.437603 2.0061851
145.02304 -45.448059 2.0095849
145.46619 -45.404621 2.0214829
145.72098 -45.427849 2.0170629
146.06433 -45.52776 2.0395739
147.12509 -45.543808 2.198561
140.55762 -45.466942 1.907864
141.00465 -45.466782 1.916386
141.4537 -45.454857 1.931164
141.80167 -45.482346 1.945819
142.17838 -45.487457 1.953142
142.55283 -45.42746 1.956368
142.97678 -45.412834 1.96324
143.35522 -45.490959 1.965643
143.73776 -45.424538 1.969695
144.12555 -45.420326 1.978141
144.52322 -45.471909 1.987668
155.40802 -45.430431 1.801114
157.75345 -45.470024 1.9346941
158.33566 -45.507111 1.914364
152.35596 -45.492699 1.655298
149.91238 -45.484653 1.526185
150.10104 -45.472969 1.501351
150.71643 -45.510719 1.413429
151.89429 -45.500328 1.427222
159.97191 -45.453712 1.457757
150.67661 -45.543648 1.390457
152.17542 -45.477196 -0.36673599
150.25412 -45.474689 -0.52602297
151.86789 -45.429626 -0.59822899
152.05939 -45.505188 -0.452048
150.21486 -45.440403 -0.72879398
150.11832 -45.500862 -0.87052703
150.30411 -45.490788 -0.94650197
150.53864 -45.585609 -0.91845202
151.97891 -45.513367 -0.96782899
150.96771 -45.546162 -1.119859
151.06886 -45.555134 -1.103675
157.90207 -45.421387 -1.112716
158.08099 -45.424095 -1.019122
158.45337 -45.451233 -1.169944
150.89951 -45.485153 -1.276917
151.10751 -45.467396 -1.345926
151.28015 -45.490578 -1.324967
157.97433 -45.407558 -1.348441
158.59456 -45.442616 -1.262938
150.74158 -45.563225 -1.486621
150.92949 -45.528313 -1.5097229
151.02396 -45.501842 -1.504598
151.65373 -45.555313 -1.4563431
158.27826 -45.47995 -1.57174
150.90964 -45.533791 -1.6848789
151.34235 -45.415718 -1.667109
158.35718 -45.599403 -1.652047
150.54022 -45.531437 -1.895142
