# .PCD v0.7 - Point Cloud Data file format
VERSION 0.7
FIELDS x y z
SIZE 4 4 4
TYPE F F F
COUNT 1 1 1
WIDTH 1555
HEIGHT 1
VIEWPOINT 0 0 0 1 0 0 0
POINTS 1555
DATA ascii
146.94991 -68.037537 1.0079139
149.88828 -68.071754 1.103423
140.84151 -68.084824 0.89499599
141.25267 -68.176483 0.898992
143.08003 -68.089172 0.987216
143.45676 -68.093552 0.98940402
144.8161 -68.115173 0.99746698
145.05984 -68.142365 0.99941301
148.173 -68.197945 0.98624098
148.97139 -68.196884 0.95723999
153.07837 -67.837593 1.347775
153.27881 -67.876717 1.334957
147.54712 -67.840958 1.007177
148.6391 -67.866905 1.094543
149.4191 -67.913582 1.098349
150.65105 -67.999428 1.1046081
150.96486 -67.907043 1.103753
152.49634 -67.839943 1.1077861
140.30565 -67.845695 0.92703301
141.45302 -67.87014 0.97360599
141.84666 -67.861084 0.97557801
142.22453 -67.832779 0.977063
142.65952 -67.950912 0.98196399
143.91577 -67.88987 0.98765999
144.26276 -67.900253 0.98982
144.58272 -67.994659 0.99360901
147.03542 -67.815155 0.97249401
147.71588 -67.882523 0.97699898
152.99817 -67.640976 1.3648241
153.02789 -67.623917 1.264755
148.61885 -67.747368 1.091911
148.95709 -67.780228 1.093832
149.19998 -67.788506 1.094882
152.9381 -67.632233 1.173185
140.56366 -67.757172 0.926521
140.67204 -67.604149 0.963714
140.93221 -67.745926 0.96812999
145.6705 -67.690552 0.933613
146.08725 -67.679428 0.93480599
146.51978 -67.719948 0.93728697
147.36362 -67.776871 0.97304201
147.82822 -67.765625 0.94295001
157.73416 -67.453453 1.555405
158.03212 -67.510628 1.562062
158.60266 -67.489647 1.5695831
158.91965 -67.464142 1.573278
159.24162 -67.43441 1.576943
145.34959 -67.435379 1.000106
145.60475 -67.461334 1.07489
146.31099 -67.43428 1.0768729
146.74037 -67.409241 1.0778919
147.94221 -67.430443 1.082687
148.28891 -67.420372 1.08372
152.58113 -67.451141 1.170202
144.9129 -67.458817 0.92543
156.60973 -67.205399 1.529308
156.97566 -67.320679 1.539168
159.68085 -67.33239 1.579542
152.67865 -67.303268 1.353658
144.05823 -67.219193 1.06408
145.84186 -67.399078 1.0744179
147.09494 -67.342857 1.0777529
147.32051 -67.291229 1.077463
147.55846 -67.371017 1.08003
143.34904 -67.200714 0.91378999
143.71371 -67.302773 0.91750401
144.11328 -67.354996 0.920151
144.48448 -67.33638 0.92100698
155.63377 -67.047569 1.509528
155.81337 -67.030075 1.511188
156.11983 -67.128998 1.519438
156.42671 -67.138741 1.524024
152.37173 -67.063683 1.318211
152.54057 -67.039368 1.3145421
143.53889 -67.075989 1.059121
143.87398 -67.168594 1.062325
144.33531 -67.090195 1.062331
144.73322 -67.063538 1.06321
145.07031 -67.113052 1.065496
151.99171 -67.040558 1.163595
152.21439 -67.191803 1.166034
143.01852 -67.019447 0.908306
154.87273 -66.847916 1.491232
155.33083 -66.98027 1.502721
152.30063 -66.819504 1.3437231
142.54114 -66.976677 1.053344
151.07417 -66.917137 1.161051
140.19496 -66.991417 0.946814
140.6319 -66.995247 0.94848901
140.98343 -66.934647 0.97297102
141.38284 -66.898544 0.97362697
141.7641 -66.863541 0.90018499
142.16905 -66.961578 0.95324099
142.64494 -66.970932 0.97983301
143.02037 -66.976357 0.95664799
153.3152 -66.603348 1.461659
153.67955 -66.609779 1.4662991
153.91156 -66.631393 1.4700381
154.13284 -66.697166 1.475549
154.52441 -66.791618 1.484428
152.15009 -66.614899 1.2878619
141.74495 -66.753525 1.0456491
150.43614 -66.654877 1.156623
151.58755 -66.617035 1.156929
151.72528 -66.714005 1.158489
152.47211 -66.59848 1.4489239
152.84631 -66.541237 1.453535
151.97369 -66.529678 1.323774
152.00725 -66.427605 1.232114
150.16216 -66.448921 1.153317
151.7822 -66.208061 1.3848571
150.0016 -66.21553 1.1496871
151.27867 -66.280045 1.151634
151.40446 -66.337341 1.152589
152.06738 -66.197029 1.564514
148.94989 -66.050873 1.146386
149.47316 -66.006424 1.1461329
149.73483 -66.051025 1.147009
148.72079 -65.883484 1.143689
149.15161 -65.954849 1.145105
151.23914 -65.713089 1.427346
151.32504 -65.764763 1.325665
159.73788 -65.669014 1.338354
148.29855 -65.693848 1.140502
152.05766 -65.554367 1.4403729
159.78693 -65.561462 1.230319
147.89583 -65.560875 1.138178
148.0697 -65.525574 1.13779
151.39487 -65.308777 1.4358341
150.73032 -65.254242 1.39667
150.88899 -65.340889 1.263943
147.13808 -65.260536 1.133045
147.47687 -65.357765 1.1347851
150.94249 -65.055817 1.429955
151.16174 -65.126717 1.431125
150.5502 -65.068306 1.3306071
146.57234 -65.048157 1.129383
155.98657 -64.814255 1.574162
156.44722 -64.83255 1.582621
156.88879 -64.897141 1.5927759
157.22081 -64.850769 1.596597
150.23157 -64.86058 1.358896
159.10651 -64.986938 1.256127
146.27904 -64.843842 1.1260689
159.52919 -64.766754 1.634715
150.04848 -64.653259 1.421488
153.46997 -64.607674 1.525764
154.42381 -64.683975 1.543565
155.68785 -64.619041 1.552881
157.42374 -64.688461 1.584259
157.61661 -64.601402 1.574541
150.12384 -64.719269 1.355063
150.12628 -64.723969 1.18471
151.80637 -64.472343 1.4960589
152.46436 -64.554398 1.508783
152.96791 -64.550323 1.515903
155.28433 -64.591568 1.545369
156.09186 -64.470779 1.544721
156.92264 -64.599945 1.563346
149.81606 -64.545158 1.3384939
145.88545 -64.589249 1.121913
155.75627 -64.226608 1.6023591
156.61685 -64.205025 1.617823
150.04887 -64.267212 1.464112
150.60953 -64.324799 1.473735
153.76178 -64.209366 1.532335
154.10892 -64.277832 1.523852
154.5399 -64.257828 1.5469151
154.94978 -64.260773 1.569865
149.40689 -64.203423 1.355917
145.12943 -64.298447 1.116895
145.34357 -64.216797 1.115857
145.53903 -64.338837 1.117857
149.63795 -64.379547 1.1749001
156.08536 -64.197235 1.6073821
151.02283 -64.197617 1.497028
151.33073 -64.039078 1.518631
151.73271 -64.062363 1.495602
152.11435 -64.084732 1.502092
152.57932 -64.104317 1.509745
152.70325 -64.161789 1.482331
152.93396 -64.137512 1.516471
153.30966 -64.136551 1.53861
155.31735 -64.197205 1.593058
155.73715 -64.175468 1.599978
149.12773 -64.063148 1.396686
158.64485 -64.081123 1.35745
141.47806 -64.00621 1.109171
141.88753 -64.008286 1.109591
142.29845 -64.003563 1.109908
144.66621 -64.144806 1.1141829
149.26672 -64.160103 1.168523
148.96481 -63.992702 1.439142
149.34387 -63.813828 1.451942
149.7182 -63.819309 1.4576989
150.13522 -63.882984 1.465884
151.34848 -63.994293 1.4574569
158.4294 -63.817516 1.466224
148.95261 -63.880344 1.363216
141.10747 -63.883228 1.106971
142.60728 -63.825645 1.107529
144.29095 -63.950489 1.110935
159.33783 -63.662048 1.651436
153.60242 -63.658409 1.558439
159.69345 -63.664864 1.593926
148.3634 -63.653358 1.367371
148.57489 -63.74881 1.325076
140.67416 -63.624184 1.102666
143.05023 -63.746181 1.106747
143.51341 -63.762287 1.107412
148.39908 -63.460625 1.4884239
148.55814 -63.558521 1.440114
149.01811 -63.594337 1.494375
155.05405 -63.416389 1.570119
158.82643 -63.566639 1.550326
148.15092 -63.51683 1.337716
140.24428 -63.51981 1.10068
140.42307 -63.46587 1.1000479
146.52805 -63.48777 1.14569
146.85519 -63.489883 1.146412
149.39493 -63.216316 1.496677
149.74239 -63.267921 1.499509
147.54816 -63.234325 1.371307
147.79001 -63.317543 1.341691
146.1644 -63.331261 1.1409971
154.56798 -63.127563 1.609475
155.00441 -63.117599 1.616315
155.38216 -63.11948 1.622779
155.76328 -63.12421 1.629514
156.04895 -63.114273 1.634064
148.70728 -63.067879 1.489753
149.77435 -63.036404 1.513135
146.98743 -63.019028 1.249772
147.02722 -63.023773 1.309226
147.38913 -63.16431 1.31451
141.62721 -63.131691 1.127694
141.8121 -63.058067 1.126134
144.45486 -63.083313 1.1314141
144.86826 -63.152222 1.133936
145.24844 -63.111107 1.133623
145.62341 -63.156113 1.135491
145.82198 -63.167114 1.13616
148.1642 -62.840397 1.481154
148.57281 -62.874687 1.498125
148.95596 -62.935768 1.503021
149.35962 -62.867687 1.522504
150.2063 -62.898521 1.534735
150.62634 -62.934738 1.541921
151.39824 -62.953018 1.5534101
151.80765 -62.981121 1.560483
157.79318 -62.996033 1.40768
158.28702 -62.981491 1.5160691
146.54895 -62.855911 1.296185
140.80455 -62.89497 1.1203901
141.31882 -62.966824 1.123023
142.1433 -62.893803 1.122524
142.45967 -62.804459 1.120796
142.83507 -62.806133 1.121482
143.31381 -62.835396 1.123062
143.67647 -62.885277 1.124972
144.09558 -62.899765 1.126101
145.07021 -62.965622 1.129596
146.55161 -62.67865 1.4080189
146.95203 -62.625694 1.474134
147.33087 -62.686893 1.482837
147.70941 -62.719749 1.486551
148.18587 -62.756287 1.5035551
152.52148 -62.654594 1.544565
145.76166 -62.648228 1.284657
146.1329 -62.734501 1.292989
146.4008 -62.79586 1.391222
140.52002 -62.612583 1.1128041
140.9939 -62.627316 1.171382
143.52823 -62.765923 1.121683
146.24573 -62.441811 1.462339
149.5155 -62.443813 1.5153379
150.19199 -62.591042 1.520723
151.72415 -62.440331 1.537401
152.12234 -62.561081 1.5414619
144.14998 -62.426151 1.200614
144.57225 -62.510754 1.21234
145.0383 -62.534599 1.24463
145.38249 -62.57262 1.263943
157.05957 -62.465569 1.342414
140.11336 -62.556793 1.127189
140.47446 -62.580254 1.1391211
152.64841 -62.231247 1.635031
153.04843 -62.231426 1.640125
153.38287 -62.253891 1.645418
153.79016 -62.29892 1.652721
154.27591 -62.361324 1.661918
154.65189 -62.373703 1.667614
154.87532 -62.361641 1.670218
158.2168 -62.2794 1.639641
158.48999 -62.378525 1.648868
145.26266 -62.310978 1.410045
145.60101 -62.252914 1.4544719
146.02229 -62.342667 1.458652
149.21805 -62.288383 1.510002
150.90143 -62.231934 1.530445
151.24991 -62.376907 1.535385
144.25261 -62.237976 1.3165081
144.63356 -62.304657 1.331043
144.95944 -62.358425 1.3477139
140.28975 -62.388496 1.160581
142.95393 -62.226986 1.189191
143.43082 -62.269867 1.190596
143.80969 -62.359333 1.196123
151.46957 -62.184692 1.618692
151.87389 -62.192829 1.6238509
148.48129 -62.099922 1.503209
148.83052 -62.191254 1.506495
149.84579 -62.044125 1.594487
150.08911 -62.058582 1.561223
150.58287 -62.157982 1.527986
157.08768 -62.129204 1.48587
140.23244 -62.161816 1.298093
140.5564 -62.110493 1.3141659
140.93542 -62.062424 1.270438
141.31955 -62.050137 1.301137
141.72998 -62.028275 1.301784
142.11652 -62.025726 1.306721
142.57483 -62.042225 1.30214
143.0146 -62.072479 1.312286
143.40012 -62.111732 1.313779
143.82431 -62.167519 1.318909
140.23289 -62.174255 1.182935
140.5137 -62.128113 1.177814
141.03273 -62.077946 1.176018
141.42641 -62.052132 1.175406
141.84309 -62.140274 1.179039
142.16101 -62.166065 1.181759
142.5607 -62.182037 1.186159
157.90134 -61.894749 1.696203
143.69266 -61.850864 1.460466
144.15358 -61.857544 1.487608
147.44249 -61.819427 1.561555
147.74007 -61.827183 1.5296611
148.14789 -61.917431 1.5347919
148.66441 -61.927429 1.577466
148.9924 -61.823433 1.547351
149.37936 -61.895939 1.551989
149.70772 -61.947941 1.520981
156.88187 -61.891617 1.540488
141.07355 -61.856834 1.374127
140.27805 -61.714298 1.51758
140.7285 -61.667755 1.468462
141.39438 -61.774036 1.427577
141.77847 -61.762985 1.431172
142.19539 -61.788399 1.416869
142.43289 -61.71331 1.4269969
142.60562 -61.771713 1.437642
143.00955 -61.793457 1.442723
143.33951 -61.770561 1.481102
144.64983 -61.719315 1.536348
145.10863 -61.72065 1.539355
145.46176 -61.70668 1.541128
145.86919 -61.695908 1.54355
146.2077 -61.730457 1.5476021
146.63217 -61.760223 1.552218
147.02844 -61.749481 1.523167
147.6257 -61.795883 1.492528
156.69223 -61.759609 1.472051
156.2852 -61.795742 1.367435
156.98782 -61.571938 1.761837
140.01434 -61.429085 1.40986
140.44913 -61.504997 1.413631
146.18321 -61.496517 1.481474
146.54182 -61.5798 1.484514
148.05568 -61.405975 1.502617
148.46465 -61.5462 1.5073791
156.27835 -61.422321 1.428638
156.46988 -61.502964 1.498685
157.36658 -61.380615 1.6665421
144.81248 -61.252792 1.472279
145.42175 -61.356411 1.476215
147.11133 -61.228252 1.496738
147.29735 -61.253143 1.497542
147.70432 -61.315536 1.499578
149.76591 -61.034851 1.683038
143.6107 -61.017029 1.46348
144.00952 -61.090141 1.466234
144.43242 -61.18483 1.469714
146.30659 -61.058144 1.49106
146.64676 -61.086727 1.491941
146.97684 -61.164471 1.494549
156.22058 -60.875389 1.733318
158.54672 -60.963001 1.66863
142.31464 -60.817238 1.45575
143.01004 -60.9482 1.460676
144.84644 -60.830265 1.483566
145.3334 -60.923264 1.486666
145.71176 -60.923523 1.486546
146.08304 -60.969055 1.488014
155.48976 -60.835922 1.4316061
158.55981 -60.829502 1.460103
159.80692 -60.854679 1.487433
155.79311 -60.898804 1.39762
158.66943 -60.848064 0.90184301
158.67004 -60.833992 0.438115
158.67957 -60.82061 0.232401
158.69156 -60.831844 -0.32735699
158.70087 -60.841438 -0.44116101
159.84082 -60.633949 1.801801
155.84047 -60.687706 1.669482
156.12425 -60.789062 1.622716
158.53 -60.732174 1.740123
140.99487 -60.652004 1.449109
141.78488 -60.607201 1.462314
143.29353 -60.614105 1.4764709
143.69623 -60.622459 1.478476
144.09021 -60.709805 1.479584
144.47366 -60.7729 1.481675
155.67154 -60.700157 1.468619
158.87253 -60.663769 1.4449151
158.68158 -60.68898 1.381503
158.74965 -60.738632 0.86755103
158.72275 -60.761307 0.577676
158.72112 -60.747517 0.23298401
158.82471 -60.714081 0.152031
158.76149 -60.747623 -0.28057
158.71793 -60.775204 -0.45469901
158.71796 -60.735825 -0.87340599
158.92361 -60.678844 -0.933878
158.90291 -60.686626 -1.397498
158.91367 -60.616707 -1.738698
158.72115 -60.796356 -2.1189189
158.80124 -60.68306 -2.1144969
159.433 -60.413071 1.908543
148.2168 -60.484612 1.656868
150.22183 -60.453735 1.659012
150.62369 -60.486 1.6697201
151.05196 -60.516983 1.681214
151.48019 -60.548111 1.693015
151.83665 -60.533737 1.700551
152.25676 -60.506157 1.709052
152.62317 -60.469257 1.715922
153.02621 -60.458755 1.725614
153.38281 -60.445717 1.734176
157.29675 -60.445648 1.66187
158.95346 -60.567467 1.797141
140.07437 -60.510353 1.443604
140.42883 -60.576744 1.446111
142.09309 -60.446362 1.4709359
142.46078 -60.501457 1.472764
142.87718 -60.553112 1.474456
155.44302 -60.580582 1.410378
154.8573 -60.428337 1.3749959
147.43806 -60.362953 1.649039
147.82321 -60.249863 1.600511
148.24681 -60.272308 1.609158
148.59479 -60.297012 1.616928
148.9579 -60.341324 1.626523
149.45334 -60.393131 1.639408
140.08688 -60.228962 1.463834
140.44698 -60.22377 1.463563
140.86281 -60.284767 1.465597
141.50172 -60.37233 1.4685
147.44141 -60.240059 1.593731
154.97058 -60.26535 1.374069
158.55934 -60.077263 1.869087
159.01291 -60.189213 1.890619
159.89944 -60.144638 1.918565
155.14169 -60.04557 1.75937
144.27313 -60.012829 1.5401241
144.63614 -60.043537 1.545415
145.0591 -60.048069 1.549866
145.45395 -60.045677 1.5539629
145.83421 -60.074783 1.560361
146.25104 -60.128708 1.569219
146.65382 -60.152321 1.5762351
147.02234 -60.197205 1.5845129
154.61462 -60.019707 1.414889
148.01555 -79.884537 0.72766101
149.58957 -79.901382 0.70887101
149.7872 -79.813171 0.73462403
150.10222 -79.891861 0.72194302
150.45686 -79.964661 0.76547199
150.86441 -79.994843 0.76489598
151.63297 -79.930656 0.71087199
145.46909 -79.685654 0.65067297
146.98648 -79.720573 0.71796
147.75737 -79.678116 0.72604799
148.58064 -79.641693 0.69972801
149.12085 -79.789291 0.70489699
149.24911 -79.735764 0.70210302
149.42941 -79.62648 0.75807899
151.25461 -79.738213 0.71251798
153.23813 -79.691528 0.78195602
144.96684 -79.518692 0.64977503
146.38426 -79.422829 0.71224999
147.45477 -79.422081 0.70884401
148.15999 -79.496384 0.69443798
149.31047 -79.566681 0.75651598
150.61996 -79.497864 0.71702403
150.81577 -79.571182 0.71563703
151.76999 -79.52729 0.69931
154.0253 -79.540237 0.768462
144.69896 -79.284683 0.642856
146.89899 -79.297157 0.69074398
147.0563 -79.269249 0.71916801
150.37465 -79.222382 0.71453202
140.89569 -79.310631 0.59072298
146.70399 -79.029739 0.70580298
146.84001 -79.040642 0.72820598
140.12332 -79.162216 0.58498901
145.6658 -78.955841 0.70151597
146.17194 -78.972527 0.688416
146.24409 -78.84272 0.67275798
152.07487 -78.909882 0.77833802
152.48488 -78.865631 0.76802999
140.65228 -78.919983 0.58430701
145.771 -78.645805 0.66624898
146.33429 -78.62114 0.72525799
146.56418 -78.713326 0.72267902
149.78085 -78.717682 0.71210802
152.55989 -78.792694 0.76512498
140.31351 -78.687416 0.57951403
141.9292 -78.705009 0.58462399
141.11642 -78.557755 0.60169297
145.17393 -78.401855 0.68510902
145.43001 -78.566299 0.67661899
146.694 -78.42588 0.732113
149.41518 -78.562019 0.71406603
141.42438 -78.584671 0.58810002
145.27435 -78.256912 0.67478299
146.30869 -78.274277 0.729743
148.89151 -78.334694 0.71665001
140.74254 -78.303299 0.58892697
140.88708 -78.332413 0.57896799
159.40681 -78.17643 1.1552581
159.99924 -78.115295 1.169795
154.35506 -78.098267 0.892389
154.56432 -78.192947 0.896438
154.93063 -78.079193 0.89367902
144.91394 -78.134171 0.65768999
145.97218 -78.165237 0.72378403
148.68835 -78.083969 0.713934
140.22894 -78.150673 0.58737701
153.23639 -77.911285 0.88280201
153.84486 -77.859726 0.88233602
154.05368 -77.956108 0.88639098
144.09091 -77.895981 0.67828202
145.71964 -77.925011 0.71316898
148.45155 -77.918213 0.71360397
149.36624 -77.817413 0.73691899
150.00005 -77.925652 0.77145499
145.26288 -77.478783 0.71170199
147.86673 -77.447739 0.71129298
150.28877 -77.482864 0.79058099
141.13074 -77.239464 0.60666102
144.9971 -77.252022 0.70794398
147.5083 -77.322632 0.71344602
148.86414 -77.325752 0.76832598
153.58121 -77.162086 0.89432102
154.21368 -77.131531 0.890885
140.58363 -77.105423 0.61104399
140.75597 -77.175827 0.61093402
147.24406 -77.125496 0.71263498
150.57164 -76.906151 0.84360498
151.39201 -76.895546 0.843054
140.3774 -76.910843 0.60602498
144.87819 -76.944328 0.70626003
148.11456 -76.854652 0.76418102
148.46788 -76.961685 0.76295203
154.36652 -76.623978 0.89049
144.48718 -76.706512 0.69746798
144.76372 -76.691467 0.70750701
159.207 -76.436264 1.199659
148.90385 -76.483139 0.81981701
149.04993 -76.537987 0.83196998
149.42601 -76.556175 0.831792
149.89247 -76.550423 0.83074099
152.87201 -76.426064 0.89780903
140.19586 -76.579185 0.60787398
140.62624 -76.416824 0.60731697
146.84084 -76.587585 0.70602602
147.81502 -76.590836 0.760436
141.07257 -76.463242 0.543975
141.50404 -76.484985 0.17504799
148.70735 -76.355782 0.825827
149.45984 -76.36908 0.81558901
149.70834 -76.284721 0.81641197
149.9037 -76.31852 0.82241398
150.12985 -76.347702 0.82888502
150.59605 -76.381363 0.84104699
150.92694 -76.335297 0.84624398
151.33145 -76.336464 0.85575098
151.74121 -76.211868 0.85936397
153.89061 -76.344742 0.92026699
140.05371 -76.278664 0.608702
144.02345 -76.251129 0.696747
144.22475 -76.286598 0.70904201
147.42226 -76.304276 0.76602203
148.07037 -76.287453 0.783301
140.98927 -76.32518 0.56635201
141.67133 -76.336372 0.069929004
154.7886 -76.17791 0.95801002
145.89478 -76.166382 0.73905897
140.96292 -76.018417 0.50234699
140.90649 -76.016037 0.34340701
141.57556 -76.185211 0.15699799
142.73273 -76.083557 0.089730002
142.90805 -76.026962 0.16184799
142.75717 -76.100601 -0.022177
142.92337 -76.113579 -0.023083
147.92926 -75.886978 0.81010199
152.98244 -75.861443 0.87518799
154.32034 -75.999359 0.94924098
144.48482 -75.8881 0.70283502
145.77168 -75.93457 0.70530999
146.8475 -75.889275 0.75250697
141.03949 -75.827736 0.47807601
140.8974 -75.98201 0.26679999
141.5726 -75.863464 0.152758
141.64981 -75.803772 0.053647
152.61644 -75.632484 0.87657303
152.96715 -75.64817 0.86769497
153.52817 -75.667717 0.93356401
140.72537 -75.742561 0.64314801
147.3448 -75.691559 0.77242702
147.82491 -75.764969 0.77335399
141.02808 -75.78405 0.27497599
141.2001 -75.665451 0.325692
142.68039 -75.71228 0.218816
141.49466 -75.736847 -0.25496301
141.39903 -75.63089 -0.52532297
141.42603 -75.655441 -0.400893
141.40956 -75.789093 -0.61759102
141.34969 -75.6828 -0.902852
141.43732 -75.660538 -1.242341
141.69556 -75.651138 -1.370279
141.65756 -75.654633 -1.803936
142.44757 -75.613754 -1.8253731
141.87582 -75.700745 -2.276582
152.24805 -75.508102 0.86918902
153.34268 -75.529755 0.91737503
143.34473 -75.49968 0.68256199
146.69199 -75.568268 0.74547899
146.85541 -75.471619 0.79856998
140.97069 -75.495766 0.55555803
141.07375 -75.513855 0.43770099
141.73273 -75.406174 0.160438
141.5341 -75.464691 -0.18475699
141.45197 -75.494995 -0.29938301
141.41946 -75.456726 -0.57055902
141.35779 -75.440216 -0.62702
141.36989 -75.487366 -0.93962997
141.49997 -75.487854 -1.227536
141.73143 -75.407341 -1.31223
141.84984 -75.415474 -1.392495
141.72757 -75.51162 -1.5313359
141.81702 -75.405098 -1.418574
141.68753 -75.446884 -1.732741
141.8511 -75.496361 -2.271282
141.95059 -75.461792 -2.630944
142.13374 -75.439301 -2.6812451
152.52011 -75.308273 0.91301101
152.91124 -75.354111 0.90656602
140.21432 -75.330673 0.63526398
140.49892 -75.316933 0.63495499
141.03497 -75.353043 0.639135
141.317 -75.239914 0.63305598
146.16742 -75.289337 0.76937699
146.52789 -75.350395 0.77566499
141.04802 -75.336601 0.58395302
141.20642 -75.371674 0.44999099
141.14124 -75.301758 0.27687201
141.31413 -75.337082 0.24093699
142.64163 -75.315811 0.28784701
141.03146 -75.224884 0.101909
142.12045 -75.251221 0.081579998
142.85706 -75.21891 0.157682
141.1454 -75.236496 -0.069668002
141.64217 -75.333298 -0.095995001
142.26849 -75.239502 -0.131611
141.51529 -75.309433 -0.372998
142.48404 -75.281876 -0.329631
141.49182 -75.293777 -0.53453499
141.62444 -75.232506 -0.43496901
141.40448 -75.331284 -0.95485401
142.57364 -75.237244 -0.91331798
141.45265 -75.223473 -1.166718
141.5775 -75.2444 -1.2332391
141.91888 -75.319809 -1.387107
142.10587 -75.293716 -1.333377
141.87129 -75.314316 -1.4111069
142.09816 -75.243553 -1.510594
142.21988 -75.376572 -1.403639
141.75948 -75.297607 -1.765124
141.9075 -75.259132 -1.709148
142.08824 -75.228691 -1.701925
141.77505 -75.285522 -1.8559099
141.89639 -75.226761 -1.815726
142.16731 -75.24968 -1.8312761
142.25479 -75.249573 -1.8343771
141.88805 -75.31144 -2.130712
142.43378 -75.355713 -2.0150959
141.90544 -75.332092 -2.2305479
142.10468 -75.346405 -2.258709
147.70786 -75.194969 0.804986
148.18729 -75.113625 0.81085598
148.82704 -75.040344 0.82130498
149.20924 -75.15345 0.83609599
150.14972 -75.112633 0.856803
150.65408 -75.174194 0.87262499
151.55284 -75.069977 0.85997498
151.91275 -75.185555 0.86071199
152.18982 -75.077667 0.90057802
152.54576 -75.139328 0.89607
140.11423 -75.156013 0.61715901
141.44214 -75.01738 0.62960899
146.33693 -75.013954 0.76792097
146.70001 -75.101486 0.77967101
147.18068 -75.140205 0.791219
147.38071 -75.119537 0.79410201
141.14688 -75.118584 0.52700698
141.72958 -75.173759 0.224608
142.72803 -75.058281 0.30307499
142.8212 -75.127045 0.35814899
143.04938 -75.187134 0.30649301
141.08948 -75.124069 0.101076
141.3046 -75.053497 0.075990997
141.70667 -75.157806 0.106349
142.26099 -75.161102 0.148151
142.85599 -75.104553 0.188804
141.13551 -75.118355 -0.080046996
141.89793 -75.14267 -0.111403
142.08258 -75.13414 -0.15016
141.67368 -75.077965 -0.35583699
141.8262 -75.089981 -0.26729599
142.1008 -75.039574 -0.28503799
141.56424 -75.162354 -0.52370697
141.73547 -75.073715 -0.49499801
141.88123 -75.031929 -0.484559
142.13531 -75.048187 -0.48753101
142.40491 -75.141205 -0.46335301
141.55568 -75.057724 -0.759022
141.62401 -75.040871 -0.787709
142.44562 -75.088974 -0.62615299
141.51514 -75.134064 -0.889759
141.73401 -75.023376 -0.89783299
142.33847 -75.025261 -0.86153799
141.70947 -75.057541 -1.118963
142.34087 -75.05191 -1.124143
141.9543 -75.110001 -1.251317
142.14215 -75.067139 -1.247277
141.86145 -75.166512 -1.8598191
142.10028 -75.164513 -1.911505
158.19603 -74.947067 1.228672
150.98715 -74.942062 0.88428402
151.46629 -74.954216 0.88699001
151.78279 -74.929626 0.88714302
152.57521 -74.901001 0.91139799
152.98529 -74.876648 0.92202699
153.37404 -74.817146 0.93063098
154.3779 -74.90937 0.95474797
141.85098 -74.871002 0.60785103
142.97701 -74.947571 0.68352997
148.30759 -74.901566 0.78359699
141.16318 -74.942932 0.41938201
141.29665 -74.902191 0.51915002
141.52768 -74.919891 0.46441501
141.83194 -74.848457 0.54847801
142.28851 -74.848946 0.48665199
142.91798 -74.858612 0.56756902
141.52818 -74.924355 0.29440299
142.2749 -74.865143 0.328556
142.46066 -74.831703 0.31540999
142.82498 -74.892258 0.33915001
141.76547 -74.876839 0.18297701
142.23422 -74.963593 -0.263987
141.89868 -74.973473 -0.44819301
142.14406 -74.970444 -0.52933699
141.89044 -74.956146 -0.656712
142.14029 -74.991104 -0.60579598
141.71988 -74.986374 -0.97441602
141.8876 -74.94516 -0.93365502
142.15944 -74.931839 -0.91738802
142.22325 -74.952225 -0.91571897
142.13129 -74.956612 -1.145479
142.21686 -74.968887 -1.013432
153.74051 -74.661873 0.93917501
154.10915 -74.739456 0.95130903
154.47508 -74.772125 0.973553
154.63245 -74.730087 0.95891601
154.98431 -74.674309 0.97261101
141.05571 -74.671387 0.66716599
141.37376 -74.624207 0.68077898
141.41479 -74.619774 0.61361301
141.73355 -74.698112 0.66658401
141.83887 -74.638985 0.68492502
142.31245 -74.628693 0.62842101
142.6619 -74.703506 0.63685101
142.89996 -74.71508 0.67535198
143.54887 -74.664993 0.70385599
143.99713 -74.717598 0.712897
141.16432 -74.738571 0.59354103
141.21872 -74.761047 0.50214601
141.56897 -74.686066 0.54082
141.7193 -74.649246 0.55094302
142.1059 -74.662003 0.501472
142.25735 -74.725899 0.51023197
142.67801 -74.697891 0.483311
141.51935 -74.61972 0.32336101
141.64017 -74.637695 0.243369
142.53296 -74.669495 0.291563
142.29863 -74.664017 0.078758001
142.49005 -74.657829 0.057549
142.35263 -74.655167 -0.15921
142.47346 -74.615097 -0.186524
149.27058 -74.449402 0.88158101
149.7209 -74.425232 0.87967998
150.11754 -74.517189 0.88304198
151.63522 -74.46225 0.91235399
152.02432 -74.412956 0.91567498
152.5668 -74.469154 0.92680401
153.08315 -74.51107 0.93717599
153.34161 -74.440971 0.93826902
140.15004 -74.544205 0.66869003
140.6153 -74.583488 0.66940397
141.97675 -74.524406 0.67071998
142.04709 -74.501907 0.66717798
141.56274 -74.559479 0.29039401
141.70847 -74.513733 0.31245899
142.21643 -74.587807 0.25430799
142.36967 -74.536758 -0.108997
149.80649 -74.212898 0.866512
150.19066 -74.20945 0.87274402
150.28619 -74.239609 0.842489
150.62561 -74.236572 0.88088602
152.14581 -74.385254 0.916192
153.24753 -74.293777 0.93565702
141.37881 -74.206284 0.69352102
141.71609 -74.243561 0.69988102
142.06435 -74.395218 0.708386
144.63647 -74.294823 0.75606197
148.9463 -74.145187 0.86288297
149.33519 -74.124977 0.86500001
152.76711 -74.006424 0.93058503
154.62543 -74.153496 0.992863
154.95572 -74.117424 0.99780601
143.74828 -74.189117 0.69061202
143.82622 -74.083824 0.72583699
144.2917 -74.158142 0.74553001
144.58818 -74.172859 0.73184502
159.31451 -73.852264 1.238755
147.56203 -73.838287 0.81631398
147.83424 -73.82077 0.82991099
148.24608 -73.815994 0.83816099
148.6132 -73.803207 0.84143102
148.91705 -73.968277 0.85503203
149.52496 -73.95446 0.86140501
150.14305 -73.841988 0.879188
150.58969 -73.833313 0.89183998
150.78946 -73.829453 0.88282901
150.98582 -73.845085 0.89621699
151.7314 -73.859604 0.92726499
152.33595 -73.939087 0.92979199
152.54228 -73.878273 0.93580502
152.88304 -73.97477 0.92803502
153.00285 -73.824333 0.94029403
153.92752 -73.860718 0.96449602
155.09204 -73.862144 0.98821801
140.92868 -73.857628 0.70875102
141.36604 -73.884094 0.71212798
143.37897 -73.842262 0.735093
143.96286 -73.864487 0.73073101
147.18259 -73.730164 0.80330497
147.42108 -73.676971 0.83743203
148.52957 -73.737679 0.83350497
149.43205 -73.672577 0.88064802
149.80013 -73.799332 0.87560701
151.38466 -73.738602 0.92462099
153.43111 -73.788422 0.95127898
153.82298 -73.740517 0.95590699
154.2431 -73.75071 0.961914
140.17068 -73.695496 0.70807499
140.5657 -73.727753 0.71472198
143.08731 -73.710541 0.68717498
145.80298 -73.718422 0.77063102
146.37619 -73.654861 0.78547502
158.45474 -73.52108 1.268145
147.03177 -73.470367 0.82079601
147.83647 -73.451126 0.845855
148.1871 -73.479553 0.84683299
148.37872 -73.46981 0.83519602
148.55566 -73.476181 0.85884899
148.98787 -73.583069 0.87002999
150.08394 -73.583183 0.872913
151.86705 -73.426926 0.95409697
153.49352 -73.517975 0.959445
154.98415 -73.42292 0.98751402
140.25818 -73.434639 0.730627
142.81561 -73.50238 0.68541098
143.46558 -73.495895 0.72643602
144.54483 -73.476875 0.749152
145.39966 -73.53022 0.76079899
154.79822 -73.292847 1.015341
146.32333 -73.36438 0.80256999
147.37996 -73.237747 0.83278298
147.67575 -73.350327 0.84014302
151.03665 -73.2659 0.92333502
140.68393 -73.261414 0.71909499
141.08676 -73.276833 0.72221899
141.28784 -73.328812 0.73061103
142.11902 -73.263931 0.71920699
142.66721 -73.330276 0.71763998
143.01776 -73.361267 0.72528702
143.6109 -73.284492 0.72689801
144.06584 -73.398193 0.738801
157.21208 -73.165779 1.249631
154.54341 -73.021591 1.014274
146.23004 -73.072678 0.83485597
146.90796 -73.081909 0.82497102
148.6131 -73.151718 0.873209
150.78906 -73.028008 0.91736901
153.73672 -73.10762 0.93044198
153.82208 -73.036987 0.92155898
140.22331 -73.083191 0.71867001
140.47636 -73.066772 0.69705099
141.49588 -73.133743 0.71991402
142.14497 -73.028152 0.71649301
142.51833 -73.13472 0.71599501
156.45918 -72.91394 1.236956
154.9292 -72.909325 1.018862
150.31532 -72.825165 0.91538501
150.53883 -72.834839 0.91310698
153.50989 -72.869774 0.91859603
141.02882 -72.934593 0.73974901
144.47629 -72.812134 0.76661301
146.07675 -72.607735 0.81987399
148.61928 -72.614288 0.866826
149.01228 -72.615456 0.87099302
149.84854 -72.609665 0.900832
150.23679 -72.66301 0.90305799
151.53357 -72.624023 0.95645797
151.98509 -72.64772 0.990722
152.10596 -72.629059 0.95659399
140.12404 -72.667526 0.743047
140.46692 -72.677689 0.73928499
143.03958 -72.741653 0.76512402
144.2189 -72.636063 0.760571
144.4507 -72.762764 0.76371199
144.64503 -72.637878 0.76174402
145.70523 -72.749451 0.78781903
153.75966 -72.51194 1.00697
154.24307 -72.498657 1.00246
154.66205 -72.499619 1.010108
154.90799 -72.451958 1.041713
145.04277 -72.401825 0.81381398
145.32547 -72.52179 0.81685501
146.0262 -72.54612 0.818313
147.40724 -72.598824 0.84388202
149.495 -72.502441 0.88669401
150.18527 -72.497444 0.93421602
150.59833 -72.460098 0.92431301
150.74786 -72.460999 0.90347302
150.90376 -72.498886 0.93227398
151.11977 -72.578156 0.93548697
151.73254 -72.594482 0.95608997
152.51904 -72.54174 0.97314399
152.68112 -72.434814 0.93289101
152.80341 -72.50264 0.93630302
153.424 -72.58638 0.98971897
140.46014 -72.592125 0.73700303
140.9118 -72.591599 0.74888498
141.36317 -72.494949 0.75412297
142.10576 -72.531372 0.75770003
142.57234 -72.531303 0.75255603
142.92184 -72.482651 0.751867
143.34167 -72.560425 0.75938201
143.7865 -72.554993 0.76389498
143.98323 -72.550568 0.77161002
145.36893 -72.576111 0.782399
154.79019 -72.340904 1.001702
144.5885 -72.218536 0.80962503
145.77133 -72.271324 0.80585402
149.40167 -72.233719 0.92918199
149.86314 -72.346603 0.94595402
150.14349 -72.350586 0.94517899
150.67384 -72.313347 0.94356799
150.95853 -72.333328 0.95722598
152.67114 -72.340004 0.98580199
152.89581 -72.209625 0.959975
153.88644 -72.204483 0.96611798
154.20781 -72.227905 0.96080798
140.14452 -72.231186 0.74724603
140.60925 -72.225967 0.76461399
140.97252 -72.232132 0.76664698
142.50687 -72.249077 0.76283401
142.78516 -72.31311 0.75650501
142.85915 -72.201714 0.76493597
143.01805 -72.255989 0.76953
143.34198 -72.234848 0.770284
143.78685 -72.234245 0.77375698
145.28818 -72.32563 0.795546
154.46045 -72.017677 1.07965
143.35043 -72.036812 0.81465101
143.72025 -72.11087 0.81373399
144.56729 -72.14743 0.80656898
145.02293 -72.172974 0.80690002
145.34985 -72.173027 0.81496799
145.41208 -72.051392 0.82031202
148.17445 -72.106201 0.88425499
149.05051 -72.174774 0.91137701
151.43234 -72.17128 0.95115501
151.8029 -72.122757 0.98246598
152.13792 -72.021645 0.97154301
152.26794 -72.131721 0.98042101
152.97131 -72.10183 0.924505
141.38609 -72.176872 0.77026099
144.26732 -72.165276 0.77366698
153.84763 -71.921692 1.007815
154.87511 -71.809914 1.044291
142.98219 -71.909378 0.81116498
144.95734 -71.81765 0.80983001
147.47363 -71.962967 0.89116901
149.20692 -71.971588 0.91753697
151.9657 -71.822647 0.96982801
153.06842 -71.835358 0.98455602
140.55833 -71.877731 0.78734601
140.93314 -71.829559 0.787323
141.80228 -71.838112 0.76983899
142.95541 -71.964409 0.79623801
143.35086 -71.930229 0.79657698
143.71133 -71.921021 0.79738897
151.7509 -71.652664 1.006169
152.14197 -71.740425 1.0010771
152.65501 -71.699577 1.0259711
152.83165 -71.760292 1.03247
153.34962 -71.628365 1.03703
153.67133 -71.782501 1.051216
154.28331 -71.636681 1.053142
142.25211 -71.626678 0.81019801
143.25594 -71.771698 0.808864
143.49603 -71.63237 0.80692399
143.60918 -71.64814 0.81204897
145.24039 -71.616486 0.85603797
145.4173 -71.625931 0.85736001
145.93277 -71.637878 0.860762
150.31891 -71.663628 0.978953
150.62082 -71.731567 0.92169899
151.12759 -71.7258 0.95872003
151.40094 -71.768845 0.98640501
153.35841 -71.716156 0.99436599
153.51125 -71.70269 0.946679
140.17249 -71.716942 0.78252399
141.37762 -71.741821 0.76053703
142.22121 -71.782104 0.78655303
144.08893 -71.771332 0.79501098
144.21237 -71.735413 0.78970999
157.51472 -71.585785 1.325734
158.57303 -71.548096 1.3546489
153.40527 -71.46196 1.043205
154.088 -71.48423 1.03845
140.58257 -71.490822 0.81854701
140.69904 -71.539734 0.82216299
140.97688 -71.427185 0.82777202
141.38094 -71.408508 0.81494403
144.1629 -71.419449 0.82313699
144.68106 -71.435806 0.83123702
145.06427 -71.463715 0.85217798
150.02914 -71.559326 0.96541798
150.67644 -71.499908 0.964338
150.90469 -71.440613 0.96803498
140.07806 -71.50856 0.796579
154.64479 -71.392563 1.029054
140.21533 -71.373291 0.81421697
141.83466 -71.278183 0.82961202
143.52542 -71.309196 0.82714701
143.88986 -71.339447 0.82570601
144.3011 -71.261902 0.81940103
145.31326 -71.367043 0.85735399
145.74106 -71.28653 0.86975902
149.73949 -71.33033 0.94816798
150.72696 -71.340469 0.96113199
152.07385 -71.256195 0.93488902
152.47433 -71.381996 0.93821299
140.76003 -71.247757 0.79762799
141.64288 -71.280304 0.79412401
141.80893 -71.261978 0.79318303
142.64885 -71.20768 0.78849399
158.68762 -71.165268 1.34992
159.01765 -71.17662 1.354363
153.27737 -71.182755 1.022948
140.55998 -71.032974 0.83638197
140.95461 -71.141563 0.83895802
141.42316 -71.065125 0.84190798
141.96701 -71.009048 0.83041501
142.31741 -71.035095 0.836321
142.57977 -71.104202 0.826792
142.90274 -71.05764 0.83387399
143.38211 -71.028305 0.827712
143.82622 -71.045746 0.87500799
145.99602 -71.090805 0.86801201
146.125 -71.041161 0.86758202
148.25058 -71.146851 0.94651097
149.32852 -71.105675 0.93358499
140.21857 -70.922707 0.845604
143.46236 -70.859505 0.83863097
143.90428 -70.927399 0.86329103
144.93002 -70.934418 0.86802697
145.2614 -70.85553 0.88638401
145.75674 -70.861343 0.87396699
146.67328 -70.904205 0.88599598
148.45448 -70.813499 0.936212
151.28917 -70.800606 0.92267901
151.70049 -70.972305 0.974998
159.6452 -70.614594 1.415532
156.30907 -70.679611 1.300012
151.47156 -70.652802 1.013202
152.09891 -70.637482 1.011474
153.93646 -70.639725 1.004571
140.80052 -70.642258 0.84218597
142.58557 -70.731934 0.87068498
142.74332 -70.782486 0.87125999
143.50337 -70.666611 0.874286
143.75041 -70.604637 0.86767501
144.33589 -70.739525 0.86244798
144.98012 -70.653732 0.88295901
145.33727 -70.697449 0.88678598
146.20265 -70.721642 0.889422
146.6373 -70.678062 0.89853197
147.02208 -70.707329 0.96103799
148.13275 -70.719917 0.93641597
149.07379 -70.604279 0.98257703
158.49368 -70.440376 1.402573
159.30391 -70.569893 1.412026
154.1553 -70.555573 1.009985
140.28116 -70.458878 0.83328402
140.58075 -70.46463 0.84107298
141.1927 -70.490959 0.851439
141.31021 -70.430763 0.84866798
143.08716 -70.524101 0.86194998
143.36255 -70.557007 0.86605197
145.77797 -70.544281 0.90557897
147.49954 -70.418442 0.959306
148.17693 -70.598747 0.94089103
149.39722 -70.488991 0.99250102
150.52649 -70.450867 0.91334599
150.92287 -70.57988 0.91676003
151.10991 -70.556877 0.91608602
157.68314 -70.222893 1.405656
155.58072 -70.242897 1.319492
151.27713 -70.352127 1.005973
154.27576 -70.271667 1.073682
140.02165 -70.352226 0.84611201
141.87891 -70.222595 0.85869199
142.28497 -70.246582 0.85977399
142.55415 -70.235283 0.86108601
143.03583 -70.231041 0.86762297
143.42256 -70.329727 0.853154
144.11565 -70.297638 0.85277402
144.6261 -70.248375 0.90089703
146.16443 -70.280899 0.91825801
146.30161 -70.308525 0.91657299
146.59299 -70.243492 0.92983198
146.98915 -70.205536 0.93495899
147.35489 -70.271194 0.92597902
149.30481 -70.335632 0.93097103
150.11198 -70.293526 0.95329702
152.74339 -70.225616 0.99303299
159.63281 -70.095375 1.429893
157.04234 -70.118355 1.366968
153.65047 -70.139465 1.0929511
153.86356 -70.069305 1.049474
140.62296 -70.039459 0.85452598
141.0547 -70.093216 0.85297197
141.43265 -70.172943 0.85424101
143.44724 -70.147598 0.86832201
143.82071 -70.109673 0.86955702
144.23473 -70.162796 0.87247598
144.94608 -70.194992 0.95450801
145.82147 -70.11145 0.92461699
147.45882 -70.166 0.92804003
156.49847 -69.873795 1.4035389
151.1125 -69.819069 1.02548
153.0752 -69.838806 1.070336
140.31192 -69.891815 0.86290801
141.59439 -69.832382 0.94774801
144.23207 -69.890831 0.909141
144.81635 -69.84874 0.92636698
145.03291 -69.829926 0.91948199
145.33125 -69.846649 0.92339802
147.44075 -69.901184 0.94011801
152.29642 -69.989746 0.98653197
151.308 -69.745667 1.054989
151.51627 -69.760475 1.0230581
151.89072 -69.725494 1.031389
152.67657 -69.632935 1.052054
140.66949 -69.721878 0.84835202
141.45686 -69.789062 0.88898098
141.71896 -69.70723 0.89439201
142.25801 -69.765732 0.95331198
142.59427 -69.770874 0.88694102
143.10959 -69.692307 0.91685599
143.87531 -69.779716 0.91553801
144.63283 -69.772263 0.90767401
145.73688 -69.775902 0.93243098
146.10626 -69.753365 0.93321502
147.02179 -69.666855 0.91223902
147.5701 -69.739441 0.93063098
147.8187 -69.782974 0.93811899
149.62645 -69.79969 0.97531199
158.11804 -69.516006 1.4701951
158.43401 -69.464355 1.473189
153.94733 -69.437805 1.340281
152.15877 -69.505775 1.080505
152.35162 -69.422958 1.0891629
152.44981 -69.476311 1.082378
153.48189 -69.410538 1.116213
140.59113 -69.412849 0.88976002
140.93222 -69.405914 0.91657799
141.45712 -69.445663 0.89681
141.86343 -69.528336 0.90967
142.1911 -69.448639 0.91346997
142.26176 -69.594391 0.88986999
144.11183 -69.53653 0.91681701
146.27875 -69.423035 0.92616302
146.52699 -69.46418 0.94127101
146.60782 -69.469772 0.92895901
147.5741 -69.418495 0.95692903
148.90417 -69.442535 0.99726999
150.47504 -69.461609 0.97168398
156.63196 -69.229897 1.418099
149.74397 -69.297531 1.013244
150.97354 -69.307953 1.047489
151.44937 -69.324265 1.059292
151.83475 -69.392197 1.067863
152.97665 -69.28875 1.107222
140.23892 -69.337067 0.89210898
140.50764 -69.27597 0.901802
142.59198 -69.274338 0.92078501
143.30823 -69.281281 0.92965299
143.64684 -69.241478 0.90796202
143.82054 -69.283699 0.91689497
144.30211 -69.35434 0.93281901
144.56131 -69.333168 0.93837702
144.76759 -69.228477 0.967035
144.83267 -69.350433 0.94826698
145.03706 -69.317848 0.945162
145.336 -69.333038 0.94461697
145.69846 -69.267494 0.92412603
146.06894 -69.226837 0.88108402
146.95631 -69.271088 0.93658298
147.37669 -69.322182 0.964059
147.70309 -69.3423 0.98277402
148.06183 -69.323685 0.97922802
148.60129 -69.285034 0.98289597
157.01357 -69.102577 1.443504
158.34547 -69.077164 1.46518
159.49142 -69.064171 1.500078
148.74876 -69.046722 1.014124
150.99731 -69.047646 1.044064
151.34572 -69.105804 1.017113
140.54419 -69.035721 0.89854503
140.89459 -69.002426 0.89962101
142.53644 -69.121643 0.93089497
142.64526 -69.058365 0.95598501
142.90924 -69.116974 0.92115402
143.02884 -69.008041 0.93664199
143.69821 -69.110703 0.91992402
144.21246 -69.096939 0.924954
144.56923 -69.075531 0.93173403
144.73065 -69.02005 0.93757099
144.9234 -69.10791 0.93279999
145.11909 -69.056076 0.95345598
145.69632 -69.127808 0.95163703
145.80701 -69.169235 0.92624903
146.1588 -69.049942 0.95616502
146.68755 -69.040268 0.94671202
147.44984 -69.032166 0.99444199
148.18013 -69.022873 0.99403399
159.82248 -68.937729 1.508795
154.56403 -68.866333 1.358266
147.98056 -68.821899 1.003746
148.48886 -68.944641 1.002395
150.63545 -68.894005 1.053346
151.06709 -68.92292 1.026564
152.64926 -68.895447 1.130957
153.44046 -68.937881 1.136408
140.13258 -68.986008 0.89538199
140.95496 -68.979912 0.90501201
141.39735 -68.928345 0.92748201
141.57185 -68.93541 0.93050402
141.7605 -68.855415 0.92830902
142.16763 -68.917496 0.92391402
142.30005 -68.862137 0.944879
143.383 -68.930885 0.93943602
144.1407 -68.989578 0.87504297
145.13164 -68.880363 0.933303
145.70212 -68.996468 0.95492601
146.57153 -68.957916 0.963781
146.6212 -68.930031 0.96179402
147.00861 -68.958466 0.97547901
147.95222 -68.890701 0.993312
158.25302 -68.645721 1.5016201
154.6133 -68.684349 1.373484
147.50076 -68.625145 1.0041291
149.06842 -68.674591 1.030501
149.22673 -68.733742 1.0187449
149.47736 -68.706146 1.035365
149.80371 -68.627106 1.0473109
140.57715 -68.604996 0.94249898
140.90918 -68.69632 0.91465998
141.89232 -68.614105 0.92067099
142.17206 -68.605103 0.91087198
142.3559 -68.641518 0.94558603
143.02353 -68.738571 0.86844301
143.71255 -68.728333 0.92580998
145.04587 -68.619675 0.93118399
145.94312 -68.767731 0.94805598
146.22427 -68.660446 0.95906198
147.12964 -68.653412 0.94866902
147.55449 -68.445007 1.0045429
147.80249 -68.559906 1.008589
148.26651 -68.534103 1.015238
148.61792 -68.522415 1.0165451
149.07478 -68.562843 1.007735
151.40459 -68.584373 1.1023149
151.77502 -68.47937 1.1240439
152.22684 -68.591797 1.123837
140.09454 -68.522682 0.92689598
141.03217 -68.422028 0.86021698
141.43732 -68.465012 0.883892
142.57697 -68.55439 0.93773103
143.30786 -68.563797 0.89071101
145.88992 -68.448593 0.94265097
146.69958 -68.498901 0.979608
147.32858 -68.421127 0.99390602
147.7868 -68.258636 1.002265
147.80708 -68.239655 1.009524
148.8651 -68.248634 1.010751
149.31482 -68.309586 1.0272681
152.6517 -68.261414 1.153089
140.08026 -68.315155 0.90364599
140.39771 -68.331795 0.92323399
140.48557 -68.30275 0.91347402
143.79662 -68.223465 0.912763
144.34271 -68.235672 0.95583498
144.40907 -68.271385 0.96146202
146.25099 -68.21666 0.99667698
156.97162 -68.172203 1.4782521
153.37125 -68.003685 1.275166
153.43649 -68.179474 1.342567
148.10509 -68.150314 1.007926
148.53955 -68.115036 1.026714
151.22124 -68.087738 1.108542
151.82889 -68.116951 1.117901
152.12759 -68.161469 1.128029
152.4422 -68.017509 1.124759
152.62628 -68.126938 1.140555
153.13187 -68.030884 1.1629879
140.97913 -68.124176 0.93076199
141.46997 -68.088165 0.94660503
142.10864 -68.159927 0.93703401
142.50745 -68.112961 0.94599003
142.69548 -68.093521 0.977983
143.04436 -68.198074 0.96641397
143.22302 -68.136002 0.98900002
143.412 -68.132973 0.97150099
143.68741 -68.140518 0.94774503
144.90472 -68.153397 0.992383
145.47035 -68.13768 0.98440802
147.06703 -68.157669 0.99212199
157.39946 -67.892853 1.50491
153.25037 -67.88607 1.320641
145.32814 -67.925781 1.004758
146.16588 -67.835762 1.01466
147.54074 -67.852158 1.0053591
147.78055 -67.865677 1.008952
148.16556 -67.887932 1.022251
148.65015 -67.85939 1.081813
148.93106 -67.951965 1.034942
149.06473 -67.883743 1.0528049
149.47014 -67.95047 1.0664411
149.86555 -67.866638 1.074772
150.26425 -67.850105 1.08157
150.55161 -67.970261 1.0905679
150.9727 -67.879578 1.093129
151.1673 -67.888756 1.104085
152.38126 -67.987617 1.143253
152.5719 -67.817245 1.133793
140.22577 -67.906662 0.94337702
140.54167 -67.837769 0.91603601
141.45206 -67.923904 0.95249897
142.28122 -67.87735 0.95798099
142.60623 -67.859749 0.968593
143.87566 -67.89093 0.98038501
144.58711 -67.943855 0.99707597
145.46715 -67.765511 1.008895
146.99591 -67.69677 1.0249161
147.41231 -67.77227 1.001886
147.91644 -67.789383 1.024742
152.14589 -67.785149 1.1130559
152.30234 -67.765945 1.122095
152.52908 -67.75209 1.12238
152.88248 -67.720078 1.146101
140.36682 -67.75975 0.94634002
140.62817 -67.726273 0.94055301
140.98534 -67.60183 0.95593202
142.85725 -67.654953 0.97157699
143.33942 -67.737259 0.99420398
144.20312 -67.760658 0.98548597
147.13216 -67.601273 0.93659401
158.63428 -67.479294 1.526318
146.1758 -67.463203 1.039538
146.21204 -67.461494 1.0365191
147.13417 -67.591591 1.035544
147.42113 -67.501221 1.040476
147.78711 -67.506012 1.04802
148.18553 -67.488998 1.0713789
148.52437 -67.542679 1.079084
148.79176 -67.573349 1.09074
149.03351 -67.47522 1.0935481
149.44923 -67.430809 1.106591
152.39432 -67.40451 1.169363
152.54999 -67.522842 1.137864
141.15118 -67.40567 0.96490002
143.02681 -67.559364 0.98101401
143.24416 -67.458832 0.97496599
144.59746 -67.442474 0.979496
144.20416 -67.209602 1.0093811
145.61491 -67.215057 1.04329
145.80069 -67.31736 1.036473
149.79788 -67.390427 1.098948
140.19846 -67.334251 0.96408403
140.55466 -67.263916 0.96292198
141.44144 -67.314522 0.97448498
142.16891 -67.323769 0.97153401
143.48129 -67.329269 0.965882
143.79854 -67.291626 0.97446102
144.15948 -67.379791 0.959665
152.5545 -67.086555 1.277797
143.43103 -67.129059 1.011749
143.79126 -67.156357 1.0323581
144.25623 -67.102097 1.008323
145.31635 -67.170937 1.0234931
145.44525 -67.133743 1.0172631
145.68271 -67.106422 1.0458339
145.81084 -67.048347 1.046739
146.68546 -67.081673 1.060845
147.73157 -67.010437 1.069284
149.40262 -67.177612 1.066402
151.84337 -67.066719 1.176905
152.18187 -67.094482 1.1612411
140.32458 -67.053864 0.93588197
140.51079 -67.035713 0.975169
141.86517 -67.043076 0.97413999
142.13217 -67.019379 0.98867202
143.01428 -67.03141 0.945301
143.20979 -67.114998 0.99374402
159.46988 -66.918419 1.623268
159.64668 -66.851761 1.630233
144.67766 -66.947968 1.017309
148.22964 -66.96772 1.075631
148.53085 -66.833511 1.0736181
148.604 -66.889771 1.077486
148.98824 -66.885567 1.096705
149.32793 -66.826797 1.130856
140.99199 -66.983238 0.978136
141.39252 -66.882202 0.98087102
142.60577 -66.898254 0.98941302
154.282 -66.630981 1.448156
154.41014 -66.625443 1.424598
154.60175 -66.747375 1.4578561
157.93852 -66.602226 1.543959
159.44835 -66.647919 1.545265
142.60846 -66.691261 1.008504
143.76219 -66.632179 1.020941
145.37602 -66.773003 1.0493031
145.92934 -66.659836 1.038448
146.70877 -66.607124 1.064823
147.04373 -66.78923 1.042814
149.49698 -66.785263 1.134652
149.77974 -66.755386 1.143744
149.8468 -66.71492 1.143841
150.17102 -66.61026 1.154678
150.57692 -66.7015 1.1709321
140.24728 -66.619339 0.99342799
141.04767 -66.73484 0.99421602
141.4131 -66.757164 0.98693502
141.93648 -66.638733 0.98521
159.48502 -66.420097 1.603356
152.24014 -66.506973 1.4404449
152.64021 -66.564934 1.4251651
157.60229 -66.55571 1.534199
159.86594 -66.557175 1.460045
142.99913 -66.548004 1.015884
143.94681 -66.548615 1.034169
144.18036 -66.515968 1.030417
144.78072 -66.457001 1.051549
144.81999 -66.477112 1.0551161
145.10434 -66.415543 1.028109
145.50668 -66.55172 1.040235
145.86444 -66.532455 1.050212
146.57294 -66.533646 1.077544
146.92882 -66.425636 1.098896
150.30461 -66.593857 1.155605
150.45532 -66.513359 1.1533591
152.02216 -66.50779 1.178071
140.68346 -66.573219 0.997379
152.27386 -66.245895 1.433393
155.25714 -66.383049 1.47822
159.68591 -66.320595 1.441321
159.60811 -66.227524 1.266189
140.18503 -66.351997 1.004089
142.55591 -66.28614 1.005192
144.07977 -66.362038 1.023924
144.21634 -66.290184 1.024217
144.62988 -66.293091 1.0442899
144.96098 -66.214737 1.056245
145.36885 -66.241158 1.068311
148.79047 -66.327065 1.120416
149.17963 -66.27578 1.121074
149.40707 -66.20771 1.132508
149.77632 -66.238358 1.132488
150.16971 -66.288376 1.1516449
150.40274 -66.386879 1.164363
151.3654 -66.332352 1.171433
141.05835 -66.229294 0.99792302
141.91505 -66.32193 0.99311501
142.23856 -66.301926 0.99979401
151.5562 -66.007706 1.433959
154.65131 -66.099594 1.493951
154.98421 -66.184006 1.490678
158.16006 -66.169327 1.567286
159.52402 -66.110275 1.492111
151.83594 -66.141075 1.391322
140.59117 -66.094795 1.000631
141.40485 -66.151894 1.0016659
142.59662 -66.151443 1.033219
143.41133 -66.150871 1.0301729
143.90639 -66.120018 1.019206
144.05904 -66.052765 1.013805
145.80022 -66.159203 1.082189
147.06998 -66.077957 1.092907
148.59586 -66.155807 1.142565
148.67387 -66.094307 1.156708
149.77954 -66.09877 1.13902
154.55452 -65.859871 1.488693
154.65767 -65.853371 1.489983
155.00458 -65.925995 1.499716
155.46429 -65.957932 1.520013
159.35086 -65.888054 1.243688
159.4024 -65.937248 1.275755
140.67993 -65.808029 1.0219769
141.79933 -65.91835 1.014143
141.81586 -65.812004 1.033286
142.69312 -65.803436 1.040603
143.33923 -65.805092 1.039011
145.48135 -65.905289 1.069963
146.17033 -65.919807 1.0854549
147.31454 -65.805595 1.1194201
