# .PCD v0.7 - Point Cloud Data file format
VERSION 0.7
FIELDS x y z
SIZE 4 4 4
TYPE F F F
COUNT 1 1 1
WIDTH 1527
HEIGHT 1
VIEWPOINT 0 0 0 1 0 0 0
POINTS 1527
DATA ascii
141.53995 -161.84866 -8.8822536
154.54875 -161.95413 -9.1739874
154.14044 -161.91479 -9.7755175
140.94427 -161.83446 -12.929965
141.33345 -161.8154 -12.920364
146.95901 -161.74896 -1.308566
147.67899 -161.66035 -1.316911
149.86497 -161.75064 -1.355047
142.64423 -161.75935 -1.430075
153.75117 -161.76056 -1.641089
142.70087 -161.7242 -1.974107
143.27698 -161.68158 -2.054708
142.89771 -161.68088 -2.3044169
153.56067 -161.78949 -2.2528541
143.4646 -161.737 -2.4899991
143.17833 -161.66534 -2.851624
143.24612 -161.66409 -2.8303721
154.25639 -161.69646 -4.6927242
151.16016 -161.71022 -5.1904058
152.14731 -161.62448 -5.5548682
154.97301 -161.72008 -5.5520649
150.68985 -161.70509 -5.7204461
150.88745 -161.68875 -6.0089312
150.67183 -161.65695 -7.0704598
150.87921 -161.63354 -7.9176431
153.70224 -161.69333 -7.9094958
150.75275 -161.69002 -8.1545906
150.95274 -161.65421 -8.1346607
141.35332 -161.73914 -8.2763186
154.17491 -161.7285 -8.9188833
155.49747 -161.77995 -8.918108
153.9709 -161.69057 -9.1216555
153.86325 -161.72281 -9.7318335
152.31219 -161.75409 -9.8071432
141.15205 -161.73642 -12.614842
150.98596 -161.44301 -1.337656
142.54745 -161.46262 -1.848321
143.23956 -161.5376 -2.0739739
142.97833 -161.47736 -2.330245
143.55539 -161.54401 -2.302696
154.27649 -161.56256 -4.7494731
150.49509 -161.42249 -5.1914792
140.12746 -161.56459 -5.3797989
154.66885 -161.46796 -5.485456
157.15659 -161.41833 -5.4881139
150.69539 -161.54568 -5.679491
152.21201 -161.54362 -5.9031038
150.98552 -161.53357 -6.0656219
152.22827 -161.5683 -6.1094208
155.45522 -161.41718 -6.622088
150.64091 -161.54083 -6.9765158
151.12375 -161.43971 -6.941865
151.25902 -161.48154 -7.298502
150.46443 -161.47729 -7.4560642
152.33025 -161.50565 -7.4082732
150.57928 -161.45889 -7.9057841
144.44336 -161.28548 -0.95784098
148.28418 -161.38657 -1.316058
150.44418 -161.30159 -1.34112
141.88141 -161.34787 -1.4332
142.70926 -161.27121 -1.4279979
142.88721 -161.30099 -1.975967
142.927 -161.27834 -2.9376881
151.14638 -161.22098 -5.2807579
154.70587 -161.38187 -5.7166848
140.16104 -161.3611 -5.9255919
154.1049 -161.30017 -5.9580522
151.31424 -161.38579 -6.0732851
155.10788 -161.3401 -6.6984658
158.02968 -161.20766 -7.412425
151.67487 -161.21143 -7.8794641
150.68576 -161.32178 -8.1341181
152.1808 -161.34105 -8.1563511
154.11679 -161.39395 -8.6618214
152.37686 -161.39015 -9.7337608
154.18015 -161.18982 -1.382571
154.58089 -161.00934 -1.351361
142.63771 -161.0674 -1.757044
142.88788 -161.02177 -1.752836
142.84863 -161.13135 -2.1041081
143.08142 -161.11502 -2.8584869
142.97441 -161.0882 -3.130388
143.66307 -161.10468 -3.2138889
157.87225 -161.05217 -3.8700759
150.72585 -161.08722 -5.0961461
153.4603 -161.02263 -5.0423651
153.71878 -161.05565 -5.254909
154.14523 -161.11136 -5.4953451
157.14542 -161.08511 -5.4167361
157.27951 -161.06618 -5.6638732
154.64246 -161.04338 -6.090601
151.36798 -161.1019 -6.2877202
154.28348 -161.10202 -6.8207259
158.32404 -161.04404 -6.8870788
151.52112 -161.03833 -7.9316602
152.59656 -161.14484 -8.1823578
145.24661 -160.93327 -1.289147
153.09103 -160.93262 -1.326777
142.08192 -160.91096 -1.428508
143.1942 -160.96518 -1.696865
143.29849 -160.89096 -1.674701
143.69547 -160.82703 -1.7336349
143.14313 -160.80132 -2.0562661
142.73892 -160.86232 -2.2952571
144.21864 -160.99869 -2.2047451
142.93909 -160.85913 -2.5213571
142.53754 -160.95148 -2.8673091
143.7776 -160.91556 -2.807935
143.05374 -160.9702 -3.2413471
158.06369 -160.84967 -5.0605612
153.83853 -160.88942 -5.5469518
153.89243 -160.85056 -5.7710938
154.02612 -160.98723 -5.72332
155.62842 -160.94649 -6.0311098
152.12698 -160.92186 -6.5402708
150.92279 -160.83322 -6.9959059
150.52126 -160.92651 -8.0730381
153.98209 -160.8311 -8.0438499
151.45282 -160.95746 -8.202364
152.33804 -160.82899 -8.2009249
153.84448 -160.8811 -8.8550148
143.45193 -160.75916 -1.385794
145.80841 -160.6673 -1.257468
142.79311 -160.69847 -1.46338
142.98093 -160.77644 -1.723927
143.06601 -160.72372 -1.700533
143.21429 -160.77412 -1.762271
144.2598 -160.68748 -2.194833
144.06146 -160.78734 -2.262203
143.62975 -160.63364 -2.4047539
143.03915 -160.70358 -2.668967
143.45857 -160.68573 -2.7280741
142.44052 -160.75015 -2.9526179
142.68428 -160.70364 -2.9139869
143.08868 -160.71054 -2.9337339
143.48911 -160.65482 -2.917836
143.51602 -160.72842 -3.2392361
158.32104 -160.62787 -3.8978181
158.01723 -160.69373 -4.3933291
154.68976 -160.74908 -5.3640718
153.62498 -160.60297 -5.4049258
153.84344 -160.66043 -5.4137979
152.65964 -160.64096 -5.7246242
152.86261 -160.66599 -6.6352229
150.70923 -160.67604 -7.0436029
150.61807 -160.70102 -7.3702021
150.97501 -160.70381 -7.3738141
150.88777 -160.61664 -7.6997609
151.4126 -160.74571 -8.1667633
142.98286 -160.61517 -8.2767582
143.31384 -160.6362 -8.2667351
152.12688 -160.6387 -8.6962614
152.60301 -160.70007 -8.6975269
142.83241 -160.70641 -8.8283434
152.98639 -160.65561 -8.8552876
153.89615 -160.76785 -8.9016514
141.07474 -160.60687 -10.950798
144.54022 -160.55191 -1.068761
144.64215 -160.41365 -1.198017
143.0502 -160.44371 -1.358778
142.66849 -160.55637 -1.410835
158.18336 -160.45699 -1.4846441
158.70451 -160.4429 -1.477529
143.0661 -160.54855 -1.679754
142.83539 -160.49448 -2.1212039
142.46979 -160.51422 -2.2850211
143.64975 -160.43817 -2.313247
143.11804 -160.55133 -2.5350289
153.69772 -160.54144 -4.939527
153.3288 -160.53448 -5.4819322
154.05476 -160.56706 -5.722158
152.84265 -160.58376 -6.0832558
155.55812 -160.4455 -6.288198
159.09833 -160.4278 -6.676621
155.32321 -160.47504 -6.9967799
158.5098 -160.52341 -7.035552
150.55507 -160.48558 -7.4807329
154.95047 -160.56969 -7.4937501
155.48094 -160.59958 -7.8745279
143.03093 -160.52019 -8.5337811
143.12329 -160.59407 -8.6514912
151.8782 -160.57782 -9.2474194
141.79935 -160.25766 -1.356636
142.17792 -160.2608 -1.3470041
143.32025 -160.36676 -1.306455
157.35391 -160.23372 -1.471011
159.86496 -160.34521 -1.4620709
142.72023 -160.2829 -2.187119
143.99486 -160.34064 -2.3258779
158.13275 -160.35422 -4.4073648
153.34648 -160.22441 -5.3498292
153.45668 -160.36143 -5.3603988
153.03183 -160.25415 -5.7048512
157.41443 -160.2614 -5.789124
153.49054 -160.33682 -6.8919601
153.72226 -160.22491 -6.996737
155.41141 -160.26881 -6.9759312
157.98694 -160.23669 -7.1981349
152.05368 -160.26234 -7.2706628
158.01846 -160.26987 -7.524765
155.8728 -160.26828 -7.7846322
155.7876 -160.32639 -8.0663643
143.15388 -160.3577 -8.3297195
142.57455 -160.01118 -1.380203
140.60104 -160.18678 -1.427141
149.78653 -160.06171 -1.759614
142.66069 -160.10434 -2.1245201
143.64578 -160.19614 -3.217242
153.11685 -160.0593 -5.4721999
158.11189 -160.09344 -5.7502508
157.08005 -160.15332 -5.8215222
157.9426 -160.08081 -6.089819
151.28519 -160.12366 -6.3189392
156.09116 -160.17255 -6.9903979
151.91353 -160.06638 -7.1139469
154.20511 -160.0358 -7.333643
153.80556 -160.15282 -7.9480209
140.28772 -179.9021 -1.9262151
141.34097 -179.94415 -1.896719
141.54707 -179.91422 -1.897619
155.48714 -179.94279 -1.9998111
153.92516 -179.93622 -2.057219
141.29704 -179.86386 -2.256057
141.51831 -179.83374 -2.2881119
156.2583 -179.87993 -2.2231441
142.14702 -179.87097 -2.570461
157.86519 -179.86865 -2.4346559
158.18835 -179.90977 -2.4432721
142.14923 -179.82233 -2.9524131
142.29367 -179.85663 -2.8516221
140.00589 -179.95425 -3.0341091
156.90289 -179.84622 -4.2490401
158.65083 -179.81754 -6.1300888
155.59879 -179.88528 -7.5606699
155.79761 -179.81247 -7.4515839
157.70889 -179.83362 -7.6775832
154.08098 -179.80545 -7.8338919
146.73415 -179.82516 -8.2509155
154.63661 -179.89848 -8.2785616
152.36629 -179.82924 -10.741881
141.83145 -179.78096 -1.976368
156.13338 -179.79466 -1.991196
148.2074 -179.7735 -2.0424211
152.33858 -179.63771 -2.054893
156.28233 -179.72411 -2.1561451
140.08667 -179.72137 -2.23733
142.58377 -179.70201 -2.251513
141.50452 -179.74802 -2.461834
156.47142 -179.69284 -2.4889791
159.02754 -179.66388 -2.4738171
140.15746 -179.67792 -2.670589
141.67987 -179.71368 -2.660547
141.8564 -179.74013 -2.7232499
142.12872 -179.69312 -2.7346089
156.79214 -179.62358 -2.633162
141.69421 -179.6514 -2.9097481
142.65588 -179.66409 -2.841084
156.93108 -179.71228 -5.7860618
158.63931 -179.77637 -6.3219552
158.0966 -179.7245 -7.396482
157.50647 -179.76224 -7.4143038
153.92426 -179.67822 -7.6956668
144.71872 -179.71541 -7.821435
141.82451 -179.62987 -9.0128536
147.08162 -179.64227 -9.3147354
147.51802 -179.73547 -9.2437334
148.06161 -179.74045 -10.263321
141.29834 -179.46683 -1.924868
144.33881 -179.42126 -1.809595
144.65634 -179.49078 -1.905743
153.82802 -179.44958 -1.9810849
144.93985 -179.45096 -2.022759
151.56602 -179.41501 -2.039417
154.28586 -179.4324 -2.028717
156.33308 -179.41655 -2.0945089
156.73734 -179.48041 -2.112777
141.71683 -179.5697 -2.3353629
159.33788 -179.50706 -2.2472241
140.20657 -179.50732 -2.477694
141.29608 -179.4776 -2.517822
141.67729 -179.54468 -2.4471071
156.45175 -179.55721 -2.5147929
141.87088 -179.52631 -2.728951
142.75317 -179.57257 -2.738497
156.53467 -179.49829 -2.6788051
158.01765 -179.40755 -2.7819991
142.50668 -179.48239 -2.8948741
142.81999 -179.58517 -2.8098891
157.02486 -179.4192 -5.242466
155.90617 -179.53189 -6.7502961
158.23038 -179.43896 -6.9645128
153.97139 -179.52383 -7.7614312
147.1138 -179.4593 -10.343225
150.43399 -179.50279 -10.539177
141.80238 -179.2476 -1.7554981
141.06847 -179.28674 -1.917079
141.50662 -179.24475 -1.981895
146.99496 -179.39331 -2.0855751
154.99248 -179.38995 -2.0474041
156.34015 -179.33646 -2.1024749
140.24245 -179.22285 -2.5150721
141.55255 -179.28613 -2.8131161
142.07716 -179.34625 -2.924185
142.23874 -179.39612 -3.0216801
141.88646 -179.26883 -3.3406041
141.87833 -179.26962 -3.7388649
142.04846 -179.23418 -3.7743959
141.88814 -179.28078 -3.836549
141.75302 -179.22968 -4.1024399
142.05768 -179.23254 -4.1392589
141.88992 -179.26917 -4.7098632
141.90689 -179.2433 -4.8963132
156.78435 -179.30984 -5.3758678
141.79912 -179.22514 -5.518785
141.92567 -179.2614 -5.4820719
156.65488 -179.29663 -5.6958208
158.35136 -179.36525 -5.7937369
141.9407 -179.20953 -6.68678
142.01028 -179.20705 -6.8757648
156.66563 -179.29443 -6.9663301
157.73448 -179.33994 -6.901381
156.57544 -179.39842 -7.365366
154.82259 -179.36171 -8.4949608
156.65015 -179.28596 -8.9582024
141.37933 -179.23358 -9.0085297
140.19049 -179.00735 -1.892759
152.97173 -179.06665 -1.968839
144.72375 -179.11249 -2.0041189
142.11073 -179.03827 -2.468477
142.43216 -179.00516 -2.509805
141.80435 -179.16296 -2.9923389
141.71286 -179.09631 -3.469368
141.8779 -179.1534 -3.4793799
141.52176 -179.14642 -3.7153511
141.70923 -179.06949 -3.752939
157.78313 -179.17638 -3.7231669
141.81175 -179.13217 -3.839056
142.07245 -179.13083 -3.8403959
141.7467 -179.116 -4.2645669
141.85855 -179.17102 -4.331254
141.70081 -179.08881 -4.718215
141.58473 -179.15732 -5.0185251
141.71552 -179.08173 -5.1245289
141.69159 -179.04475 -5.284029
141.73685 -179.10841 -5.475071
157.00848 -179.13135 -5.7943082
158.24965 -179.11642 -5.7452378
156.66888 -179.13026 -5.8617711
141.71025 -179.09647 -6.1547942
141.52472 -179.0287 -6.2790971
141.7674 -179.17358 -6.3119998
142.10176 -179.13548 -6.3258939
157.03323 -179.07664 -6.5121689
157.35394 -179.07796 -6.5599041
141.8886 -179.11852 -6.7477889
142.07713 -179.1813 -6.7549062
141.77234 -179.08698 -6.9689722
142.12544 -179.12874 -6.896379
141.55455 -179.03769 -7.6042218
142.0986 -179.15721 -7.7069111
142.08426 -179.0141 -7.8183408
142.05618 -179.06755 -8.0634499
158.0867 -179.13969 -8.3157711
151.53568 -179.07524 -9.1700439
141.50314 -179.15552 -9.2814674
146.59787 -179.153 -9.3832474
141.07413 -178.93304 -1.936296
142.2843 -178.92357 -1.945428
140.19135 -178.90912 -2.1700709
141.68771 -178.97365 -2.092895
145.77408 -178.82547 -2.0954089
146.71503 -178.86017 -2.081778
156.02634 -178.98224 -2.18507
159.73114 -178.84819 -2.4633141
142.27191 -178.87953 -2.7392941
141.86301 -178.9071 -2.923291
157.13477 -178.93109 -3.2506931
141.73238 -178.95335 -4.3275309
141.73972 -178.9169 -4.8511262
157.96466 -178.80304 -5.0661192
155.98317 -178.8279 -5.3452082
157.55983 -178.90558 -5.967298
141.6472 -178.96635 -6.1928821
156.23897 -178.86896 -6.2810531
156.97052 -178.92705 -6.3149281
157.36176 -178.94025 -6.3191881
157.33929 -178.91063 -6.4997268
141.83994 -178.88647 -6.6769242
141.87709 -178.85487 -6.9131632
157.31657 -178.95737 -6.9669909
141.86763 -178.85867 -7.0841808
141.74152 -178.95766 -7.4639158
141.73566 -178.95624 -7.6769872
151.90201 -178.84625 -8.6029787
154.50671 -178.82764 -8.9965553
146.92929 -178.90143 -10.275455
142.63414 -178.61975 -1.857245
152.96008 -178.70277 -1.9501131
147.36145 -178.66022 -2.0936811
148.36232 -178.71327 -2.065331
149.80835 -178.69553 -2.039629
155.59767 -178.6362 -2.2940941
157.50998 -178.61517 -2.5248079
159.02022 -178.62885 -3.104568
141.90964 -178.75456 -3.807868
157.75919 -178.69069 -5.7551169
157.00426 -178.66896 -6.336061
142.58327 -178.79703 -6.7703171
157.90698 -178.62653 -7.825654
153.44637 -178.72708 -8.2766399
151.77461 -178.62668 -9.6740246
142.73314 -178.58961 -1.796289
141.13535 -178.47986 -1.8905751
141.73819 -178.48904 -1.924466
142.40434 -178.41762 -1.8862751
142.75388 -178.47272 -1.81399
153.7551 -178.54877 -1.965948
155.44939 -178.43674 -1.988827
140.21315 -178.54956 -2.0101039
154.30847 -178.56369 -2.0498199
158.19438 -178.54364 -2.4943769
156.61685 -178.48688 -2.6427031
156.78023 -178.53171 -3.2648461
155.30109 -178.42761 -5.0616078
157.97311 -178.48341 -5.2617059
157.5527 -178.52132 -5.907186
157.5076 -178.5741 -6.0580478
156.25653 -178.45132 -6.452024
156.66727 -178.50433 -6.9180241
157.02472 -178.4519 -7.6842709
159.53687 -178.40128 -7.9845772
157.28059 -178.57758 -8.7785025
154.92291 -178.58356 -9.0403118
152.49072 -178.47974 -9.3415976
145.53647 -178.48529 -10.152695
152.73239 -178.52069 -10.284247
141.30797 -178.31535 -1.908224
153.65451 -178.20282 -1.958196
140.21286 -178.21591 -2.020386
145.69389 -178.35368 -2.07037
148.09601 -178.28494 -2.051367
148.42455 -178.35309 -2.0449641
151.81032 -178.24292 -2.0147049
152.66747 -178.35095 -2.0137889
140.30844 -178.32884 -3.3501489
155.35333 -178.33684 -5.1324792
157.6875 -178.32727 -5.6799231
156.26852 -178.29733 -6.2180352
157.38123 -178.35326 -6.4156389
155.65155 -178.28899 -8.6556559
141.64926 -178.27498 -9.8837948
144.13843 -178.17133 -1.7143559
140.85339 -178.04941 -1.856601
152.28311 -178.08553 -1.993257
148.25858 -178.08801 -2.0466959
141.89645 -178.13071 -2.3189139
142.01704 -178.15469 -2.3298841
141.87128 -178.14215 -2.481514
140.04945 -178.11293 -2.653919
157.73451 -178.13686 -3.1429851
141.88104 -178.13263 -3.496938
141.87149 -178.09506 -4.5555029
141.91217 -178.08318 -4.7063112
157.92339 -178.04684 -4.7615051
157.72194 -178.05963 -5.1455312
141.91547 -178.0343 -5.731133
156.46199 -178.17773 -7.4411449
142.60207 -177.93153 -1.773905
143.31847 -177.87747 -1.631245
150.49734 -177.80307 -1.96928
151.60608 -177.82846 -1.985522
147.30978 -177.83128 -2.034961
155.40462 -177.85905 -2.11305
156.5582 -177.86816 -2.4342749
158.01611 -177.8371 -3.7945659
141.84604 -177.95631 -4.1368642
157.89372 -177.82756 -5.538167
156.43645 -177.80995 -7.2306042
156.31764 -177.94208 -8.3188591
159.77747 -177.87233 -8.4110909
145.70839 -177.9783 -9.9755096
158.06641 -177.86337 -10.943985
142.27042 -177.74873 -1.774471
141.71974 -177.66785 -1.821878
144.91193 -177.68881 -2.0228119
146.22963 -177.77626 -2.1003311
147.24579 -177.72104 -2.052258
148.68358 -177.74597 -2.03268
156.60307 -177.60884 -2.405684
156.27982 -177.69269 -2.6591129
142.15988 -177.6669 -3.1561091
156.30119 -177.65535 -3.0233619
142.10916 -177.63132 -3.254019
157.46503 -177.68719 -3.3129749
156.37335 -177.64539 -3.651217
157.48749 -177.75912 -3.7009211
158.08789 -177.74683 -3.676167
157.70569 -177.75584 -4.3529429
158.20502 -177.78412 -5.7083621
154.22057 -177.66963 -5.8610482
156.60115 -177.7363 -6.340342
155.10764 -177.68829 -6.5510449
152.11267 -177.67722 -7.3017831
154.26117 -177.66364 -7.3479261
158.38669 -177.60359 -7.493587
140.09457 -177.78857 -8.427393
152.51175 -177.70316 -9.247242
155.46234 -177.7475 -9.2903147
152.65747 -177.74286 -10.160242
146.54276 -177.69473 -10.802769
141.8129 -177.53262 -1.841177
144.95825 -177.47636 -1.970005
151.60452 -177.52271 -1.995057
147.09033 -177.50917 -2.043252
148.98431 -177.46536 -2.0261199
156.24182 -177.55209 -2.4961209
156.57152 -177.48003 -2.446615
156.62802 -177.51903 -2.4351339
142.17328 -177.4552 -2.6297729
156.28299 -177.53319 -2.633517
157.26831 -177.43243 -2.789763
156.34302 -177.56161 -3.6156111
158.49127 -177.56451 -3.7097411
157.68945 -177.51416 -3.9541249
154.23904 -177.54135 -4.3589158
157.41791 -177.42938 -4.2722778
157.3309 -177.4108 -4.5362601
157.69856 -177.43663 -4.5824652
158.1664 -177.59015 -4.483429
154.21245 -177.50603 -6.5785189
155.1127 -177.41403 -6.920155
158.3795 -177.57938 -7.5644379
156.32596 -177.53011 -7.7461181
154.37897 -177.45284 -8.3673573
154.32401 -177.49483 -8.4164257
140.24324 -177.41548 -8.7377348
156.84268 -177.49199 -9.684082
143.00955 -177.35271 -1.714563
143.75491 -177.33115 -1.641605
152.92755 -177.33527 -1.959502
146.24419 -177.36282 -2.0304329
147.29121 -177.33896 -2.017916
149.42627 -177.34613 -2.0053411
149.88979 -177.23183 -2.005619
156.51123 -177.2972 -2.4160719
156.9321 -177.32426 -2.5171859
156.50089 -177.34996 -3.041436
142.63635 -177.33229 -3.3439519
157.45319 -177.34985 -3.7622471
157.50305 -177.25688 -4.314919
157.32291 -177.25409 -5.4469061
156.97836 -177.23257 -5.8373141
157.138 -177.37628 -6.1475081
159.65962 -177.274 -6.2754059
159.75592 -177.32948 -6.6412978
159.32779 -177.38176 -7.1246872
157.5239 -177.38081 -8.1457233
145.55258 -177.38736 -9.395628
152.53137 -177.28024 -9.390605
152.22421 -177.3307 -9.4334097
159.18658 -177.37779 -9.6384087
143.8992 -177.10599 -1.606331
146.96173 -177.05659 -1.99077
147.08862 -177.12886 -1.991372
152.8065 -177.01158 -1.996158
142.328 -177.05356 -2.4610879
142.6991 -177.078 -2.8739879
156.42456 -177.10295 -3.1121049
142.02069 -177.04988 -3.4656379
157.64896 -177.06195 -3.7196281
156.76038 -177.16516 -5.779635
158.13795 -177.04494 -5.7393332
159.80211 -177.07541 -5.7867088
156.96861 -177.16104 -5.8310261
156.64264 -177.05592 -6.051229
154.40483 -177.12396 -6.3040748
158.50687 -177.13741 -6.5166249
152.36748 -177.1747 -7.4276762
153.48004 -177.10648 -7.86939
152.21329 -177.08829 -8.1041059
154.9944 -177.11914 -8.0436621
157.8743 -177.07602 -8.4666977
154.69553 -177.08453 -8.6270857
153.54668 -177.17261 -10.105669
146.72182 -177.01727 -11.554014
141.85489 -176.95471 -1.75626
149.2809 -176.89978 -2.008049
144.11935 -176.99677 -2.331847
155.97115 -176.9817 -2.4261501
156.26184 -176.91466 -2.4552
142.53809 -176.83493 -2.7486501
142.30054 -176.91299 -3.240885
156.30869 -176.94243 -3.2783239
141.99321 -176.96498 -3.481108
157.62054 -176.88068 -4.2489219
156.39185 -176.95985 -4.7887702
157.34235 -176.90274 -4.7571468
157.31696 -176.95914 -4.862134
156.34024 -176.94531 -5.1410818
156.32541 -176.96817 -5.3495212
157.80045 -176.93921 -5.4883389
156.55179 -176.9713 -5.8735938
156.73204 -176.85129 -5.9123678
157.3596 -176.98911 -5.805078
157.96716 -176.88438 -6.1855221
152.85275 -176.888 -6.3342972
155.97112 -176.95255 -6.5641208
155.42522 -176.90002 -6.720119
155.42102 -176.96765 -6.9087472
157.86493 -176.87367 -7.694345
141.90695 -176.72556 -1.751775
142.92198 -176.62219 -1.6882221
146.88799 -176.69125 -1.946184
147.32785 -176.76215 -1.9788949
141.91743 -176.71323 -2.1016321
146.23877 -176.70622 -2.0560501
142.32559 -176.65771 -2.844357
141.77144 -176.63217 -3.2770929
142.23288 -176.71356 -3.3647881
142.45406 -176.60043 -3.2195849
142.17366 -176.7982 -3.488169
157.1188 -176.77261 -5.3907862
159.22131 -176.72256 -5.7280779
154.02635 -176.72202 -6.0962639
159.42445 -176.64685 -6.1673112
154.20178 -176.69908 -6.232584
156.565 -176.61981 -6.724957
155.06268 -176.71704 -7.3752022
155.10287 -176.69374 -7.7455029
156.5264 -176.69608 -8.150444
156.34999 -176.61273 -8.3038454
141.21222 -176.65402 -8.5135689
153.26376 -176.74014 -8.6293573
159.84171 -176.63147 -8.6624737
154.08371 -176.72757 -9.0837536
145.63617 -176.7005 -9.4818935
152.54826 -176.68988 -10.080199
159.43504 -176.62102 -11.293764
142.27275 -176.49875 -1.759279
140.13831 -176.56024 -1.823649
141.3067 -176.44467 -1.829592
146.28845 -176.46349 -1.966307
147.24213 -176.41092 -1.994826
148.15103 -176.5155 -1.967998
149.69446 -176.45654 -1.976119
152.65146 -176.53671 -1.951159
153.26244 -176.43304 -1.973581
155.65414 -176.52425 -2.10976
158.0889 -176.44559 -2.78654
141.92596 -176.52545 -2.8406961
142.7422 -176.54681 -2.93436
142.84294 -176.55609 -2.9639809
142.60373 -176.40424 -3.2251871
142.07065 -176.54378 -3.4473939
155.59068 -176.56009 -3.952091
157.98177 -176.41663 -4.0051661
157.74271 -176.47346 -4.3537588
157.68976 -176.4581 -5.045115
155.52783 -176.51257 -5.3874888
155.59454 -176.53452 -5.6783538
158.01932 -176.57837 -6.3283319
158.36264 -176.40294 -6.9399452
158.19821 -176.53741 -7.086946
141.36153 -176.48781 -8.1635399
141.40752 -176.49579 -8.2175694
141.67981 -176.44135 -8.5642033
141.59279 -176.43808 -8.7404594
154.92529 -176.44727 -8.7451115
141.73083 -176.48198 -8.928153
157.01025 -176.48352 -9.1392384
147.0826 -176.50325 -9.9104176
141.49655 -176.31393 -1.745574
144.2827 -176.31686 -1.665681
145.07623 -176.33795 -1.9773411
146.21779 -176.33012 -1.974889
148.74052 -176.37083 -1.964537
150.69386 -176.22574 -1.956879
154.28709 -176.20044 -1.9350671
142.27838 -176.2663 -2.1110921
142.8929 -176.26242 -2.330915
142.87109 -176.33865 -2.498349
156.6084 -176.21851 -2.4072371
142.45218 -176.26102 -2.7447541
158.12975 -176.31306 -2.757149
156.53506 -176.34256 -3.2927649
157.92459 -176.35785 -3.4640231
155.5271 -176.37421 -5.3174682
157.56079 -176.28838 -5.669045
158.70142 -176.23758 -6.9127421
158.90649 -176.20654 -7.746366
144.29994 -176.3891 -8.2127399
142.72037 -176.36319 -9.0099621
152.112 -176.0217 -1.9614919
154.51505 -176.16245 -1.928349
152.32837 -176.15904 -2.0228989
159.28142 -176.05182 -2.663322
157.4212 -176.18066 -5.3214331
159.43481 -176.06906 -5.692523
153.90805 -176.08354 -6.691082
153.52672 -176.18301 -7.1241479
157.94501 -176.08299 -8.5918798
158.20569 -176.07117 -8.6178894
141.07834 -176.19492 -8.996645
151.00053 -176.0239 -9.6360054
150.72305 -176.08452 -10.143394
141.99181 -175.97214 -1.704903
141.29474 -175.96715 -1.820415
148.97736 -175.87552 -1.9352829
149.29846 -175.8412 -1.930268
150.5126 -175.88715 -1.964412
155.05652 -175.81837 -1.977975
150.51588 -175.89592 -2.02404
143.81313 -175.86743 -2.2913239
157.7243 -175.82094 -3.4880829
154.68948 -175.90186 -7.0834961
141.65442 -175.80072 -7.9597101
158.22795 -175.97 -8.2707348
157.86787 -175.88101 -8.6363821
142.69739 -175.98433 -9.4685268
152.44113 -175.97794 -9.5640392
154.02963 -175.84532 -11.161301
143.73592 -175.73378 -1.480067
144.03311 -175.737 -1.5849479
142.69028 -175.7253 -1.6500601
146.66962 -175.61153 -1.90197
148.71649 -175.74074 -1.921784
151.14801 -175.78709 -1.915175
151.50177 -175.71246 -1.934165
155.31752 -175.63942 -1.962297
140.09465 -175.76245 -2.1259351
157.19397 -175.70624 -2.3514609
159.25641 -175.68979 -2.3645699
157.75577 -175.69525 -3.3525021
157.73344 -175.70532 -5.6565671
153.09787 -175.72028 -6.398241
157.26759 -175.68695 -6.244585
153.31239 -175.75955 -6.6849012
153.78877 -175.72815 -7.4479141
141.32973 -175.651 -7.929904
141.65976 -175.75691 -7.9005032
147.40236 -175.61516 -8.2473555
141.38329 -175.67709 -8.4685555
152.50636 -175.63737 -8.8834467
151.83144 -175.78546 -9.284873
149.67767 -175.65639 -9.9725628
157.77875 -175.78406 -10.817746
142.42508 -175.56873 -1.662903
146.99077 -175.46698 -1.889257
148.49994 -175.42166 -1.921585
150.76089 -175.43022 -1.918349
154.54984 -175.45822 -1.878454
155.51901 -175.53574 -1.93787
144.18854 -175.41098 -2.2737579
158.29041 -175.51215 -3.039227
158.29703 -175.42906 -4.2723432
157.51669 -175.43933 -6.1214538
141.032 -175.57446 -7.753737
141.55548 -175.55344 -7.739428
141.74741 -175.56958 -7.723835
141.50433 -175.58272 -7.8129029
147.40341 -175.49643 -8.1620274
152.47948 -175.58961 -9.2096424
145.86958 -175.49791 -9.6363983
152.64035 -175.55095 -10.049961
141.39264 -175.36508 -1.789497
141.72478 -175.29507 -1.6860681
147.90088 -175.28725 -1.896935
151.5347 -175.26248 -1.9189301
152.04898 -175.2533 -1.817227
152.21269 -175.3642 -1.877265
156.21109 -175.3692 -2.00893
140.04764 -175.23688 -3.3585529
158.90985 -175.3907 -6.6586628
158.35217 -175.3721 -7.073524
153.01926 -175.39334 -7.3762951
153.84155 -175.28201 -7.3483009
157.14052 -175.30952 -7.282445
157.35129 -175.29016 -7.2628789
156.73579 -175.29099 -8.451458
147.36427 -175.3521 -8.67799
147.2762 -175.33101 -9.4635897
147.83493 -175.39032 -10.174871
140.89532 -175.12425 -1.793864
141.71205 -175.09641 -1.695261
143.95439 -175.11357 -1.691588
144.71883 -175.18311 -1.886472
147.61104 -175.12315 -1.901842
147.89494 -175.07468 -1.917156
148.28772 -175.11768 -1.911391
149.13904 -175.09151 -1.8840801
151.07607 -175.11435 -1.897408
154.7095 -175.06503 -1.87431
144.9064 -175.071 -2.144418
158.11703 -175.09975 -2.127387
143.86165 -175.17316 -2.2053909
158.63588 -175.11897 -2.3002269
159.84096 -175.07681 -2.307585
158.46547 -175.11375 -6.1969929
153.80338 -175.12338 -6.9521909
157.11336 -175.09412 -7.1008778
152.20668 -175.10867 -7.3238778
143.56313 -175.0415 -7.59161
143.51128 -175.03589 -8.3850632
151.80727 -175.04562 -8.2796144
154.09616 -175.17389 -8.4557219
156.64548 -175.1319 -8.4454699
140.62718 -175.05452 -8.6326513
158.39465 -175.15564 -9.3709259
153.63873 -175.10222 -10.461174
147.08646 -175.11304 -11.796806
141.91092 -174.88271 -1.70014
144.28442 -174.9639 -1.755461
147.52023 -174.91951 -1.9200211
147.70898 -174.87842 -1.9340121
155.58644 -174.80037 -1.880929
156.96097 -174.87378 -1.917796
147.56343 -174.93372 -2.0935149
147.79526 -174.92059 -2.0745871
147.90033 -174.8828 -2.1126261
158.25432 -174.9893 -2.3267801
158.25499 -174.99281 -3.6828699
158.42889 -174.95956 -4.679584
158.39392 -174.96329 -5.456193
152.35849 -174.90097 -6.7800589
153.14532 -174.86243 -6.99511
157.29462 -174.99402 -6.8573709
158.36533 -174.91895 -6.8904519
157.12372 -174.86493 -7.1061921
157.28053 -174.83588 -7.507833
156.03548 -174.80666 -8.0731468
156.86667 -174.84978 -8.0216455
140.26343 -174.87381 -8.2774134
140.55167 -174.90651 -8.3147469
143.79274 -174.87314 -8.5500164
143.50558 -174.88947 -8.6533432
151.98659 -174.9325 -8.9168644
156.63637 -174.98053 -8.8825808
148.02036 -174.96439 -9.1807241
152.14337 -174.8365 -9.0796509
140.61325 -174.8246 -9.312376
147.92395 -174.93979 -9.2552357
153.42505 -174.89487 -9.341094
155.76085 -174.87381 -9.3872118
150.57152 -174.96667 -9.6044636
140.36671 -174.70947 -1.738602
141.92104 -174.7594 -1.661724
144.58228 -174.67358 -1.7883641
146.9334 -174.66956 -1.870573
154.18555 -174.71222 -1.844645
154.59779 -174.67969 -1.889799
157.28185 -174.62895 -1.971707
147.84451 -174.70096 -2.155015
157.86823 -174.76158 -2.0330541
158.95642 -174.64185 -2.1440971
157.62514 -174.70602 -3.429199
157.63982 -174.74068 -3.9219351
157.64874 -174.64059 -6.9133029
159.34236 -174.69574 -6.8502431
143.41238 -174.77124 -7.9394989
146.59169 -174.6239 -7.9563971
156.55646 -174.71428 -7.8706779
143.4227 -174.77594 -8.1402016
143.87473 -174.77853 -8.144269
140.15492 -174.65956 -8.342433
140.44777 -174.76472 -8.4117165
143.10136 -174.65176 -8.7136288
143.25439 -174.71249 -8.7300797
153.44124 -174.67206 -9.1772881
153.75182 -174.60809 -10.5566
141.87169 -174.5054 -1.8052239
144.60904 -174.5193 -1.8128901
149.12079 -174.57356 -1.867189
150.0921 -174.50423 -1.856796
152.30075 -174.54491 -1.867727
152.98631 -174.59364 -1.822371
153.31168 -174.47153 -1.879207
147.77814 -174.42621 -2.1266429
159.73354 -174.49442 -2.29089
154.26889 -174.51183 -6.306447
154.69066 -174.42477 -6.5465088
140.69702 -174.47244 -7.7218981
155.87938 -174.50497 -7.883388
143.88644 -174.30913 -1.438877
140.48643 -174.2352 -1.717751
142.73224 -174.34114 -1.798254
143.10931 -174.2338 -1.658978
142.49478 -174.33002 -1.879742
150.94122 -174.21513 -1.893605
153.04144 -174.20111 -1.876694
157.7599 -174.21733 -1.9462481
142.32254 -174.22556 -3.0901711
142.44783 -174.20216 -3.512094
142.26262 -174.25323 -4.253191
159.6524 -174.22531 -4.9578309
154.86237 -174.23837 -6.093317
152.8334 -174.24281 -6.8566709
159.05045 -174.37242 -7.094769
152.99706 -174.36444 -7.3922701
140.55841 -174.23483 -7.7883682
140.97519 -174.2625 -7.9021659
140.98721 -174.20084 -8.1479397
157.32166 -174.29555 -8.1342211
151.9068 -174.2785 -8.2997894
151.14368 -174.29031 -9.2254276
152.49048 -174.23645 -9.453764
148.79893 -174.39819 -10.429153
144.04532 -174.00212 -1.571903
143.2863 -174.17419 -1.6239949
142.70349 -174.13902 -1.882467
149.53954 -174.0507 -1.874842
152.51703 -174.18477 -1.863168
155.16843 -174.15115 -1.884087
142.19568 -174.16179 -2.0529499
157.86967 -174.14517 -2.0384281
142.51575 -174.13918 -2.6635201
142.28424 -174.12772 -2.939189
142.2738 -174.07068 -4.6938381
142.29279 -174.10396 -4.9053798
142.29424 -174.06781 -5.1060338
142.27963 -174.08264 -5.33709
142.3284 -174.14679 -5.4723368
142.27136 -174.06 -6.3332
142.18344 -174.00343 -6.4025698
142.28036 -174.15182 -6.668889
142.55711 -174.02461 -6.7448082
142.23596 -174.10713 -6.8230181
142.24179 -174.06853 -7.10813
151.91451 -174.14465 -7.027091
140.6185 -174.0873 -7.6330142
140.63474 -174.1673 -8.1238565
140.30878 -174.07922 -8.2238617
148.41296 -173.95424 -1.8506711
149.84384 -173.99028 -1.860209
155.40738 -173.84842 -1.868879
156.65929 -173.89056 -1.903367
142.45154 -173.91278 -2.1190679
157.93227 -173.9455 -2.054904
142.28958 -173.95581 -2.2690871
142.44429 -173.94456 -2.9489391
142.42673 -173.90326 -4.1348181
142.49966 -173.8356 -5.161654
154.60526 -173.84724 -5.8003998
141.92961 -173.93774 -6.3426428
140.52005 -173.86951 -7.2760911
156.97253 -173.83145 -7.5193529
140.257 -173.93188 -7.782877
155.49094 -173.98184 -7.9351931
140.46291 -173.81064 -8.4862719
142.38092 -173.86429 -8.7015734
150.98254 -173.82349 -8.9385481
143.9832 -173.75847 -1.6038589
146.97549 -173.72734 -1.79879
153.00328 -173.7211 -1.796942
154.98926 -173.77673 -1.8421299
140.10141 -173.62994 -2.612026
154.7211 -173.76268 -5.625309
142.37125 -173.79233 -6.8384318
146.41623 -173.63095 -7.5928788
146.36508 -173.62733 -7.7205672
154.647 -173.66931 -8.6987972
154.72479 -173.7101 -8.801733
140.87032 -173.72202 -9.130434
152.5121 -173.69394 -9.0167522
153.34578 -173.76918 -9.3835258
142.07422 -173.49611 -1.703846
149.81099 -173.42867 -1.812129
152.05609 -173.58824 -1.863073
157.95612 -173.45969 -1.8741241
159.1698 -173.4664 -4.6917772
154.71188 -173.53934 -6.0797901
158.38643 -173.41824 -7.7183819
141.27025 -173.44223 -8.6126385
151.54306 -173.52013 -8.9126892
151.73807 -173.55896 -8.8871202
144.62494 -173.49188 -10.041868
140.19559 -173.39629 -1.763495
142.76866 -173.31754 -1.632447
146.92596 -173.28976 -1.788872
153.85916 -173.34631 -1.79532
154.09041 -173.38596 -1.799736
150.63232 -173.28236 -1.850862
151.42728 -173.33261 -1.83886
153.45438 -173.27313 -1.8332011
157.30446 -173.36479 -1.917524
159.92307 -173.25566 -2.1518781
159.12839 -173.2538 -3.835875
159.15839 -173.32297 -5.9928699
159.23486 -173.25836 -6.1854339
159.15137 -173.32742 -6.230216
157.03264 -173.31979 -7.135561
156.12671 -173.38275 -7.4405208
159.25751 -173.28267 -7.6881599
143.34718 -173.21329 -8.1938829
154.29298 -173.3716 -9.0377579
141.96622 -173.00412 -1.648535
159.2095 -173.19341 -6.0033851
159.1805 -173.14932 -6.9657488
142.77403 -173.00323 -7.3065481
143.5257 -173.18494 -7.2782788
146.34917 -173.06345 -7.2813601
143.79875 -173.06552 -7.8475742
140.69879 -173.17113 -8.3026724
140.9664 -173.18274 -8.5913277
151.09831 -173.07474 -8.5001469
156.19472 -173.07397 -8.5889235
143.39844 -173.13983 -8.6461201
151.03564 -173.14989 -8.8507519
153.74951 -173.10538 -9.7353687
152.75108 -173.15166 -11.220063
143.33899 -172.93271 -1.550722
141.80386 -172.89536 -1.768455
142.67358 -172.96495 -1.666209
152.34209 -172.97397 -1.779712
155.79813 -172.99252 -1.796899
154.40501 -172.9826 -1.815668
142.8615 -172.95944 -7.4120569
143.37071 -172.9183 -7.7855668
142.83223 -172.84227 -8.1114349
143.50948 -172.95134 -8.0312119
145.53439 -172.92934 -8.2575283
145.84959 -172.98433 -8.2996187
152.80894 -172.83267 -8.3994865
145.83725 -172.97594 -8.4762192
151.5125 -172.97566 -9.0427761
153.2099 -172.96576 -10.437401
144.71066 -172.72885 -1.724938
153.24948 -172.75369 -1.7791851
155.91879 -172.65082 -1.815387
157.75592 -172.74237 -1.86946
141.54405 -172.66147 -7.4498272
159.06116 -172.6217 -7.5331082
155.64664 -172.61563 -7.8040299
158.32983 -172.7845 -7.8062501
145.7807 -172.6933 -8.0474653
145.34286 -172.66695 -8.4779148
146.20528 -172.58009 -1.756052
144.9581 -172.52963 -7.7325568
145.90703 -172.46101 -8.528738
152.0683 -172.40884 -10.430861
143.89085 -172.21909 -1.319865
143.42949 -172.20331 -1.42424
147.10153 -172.23305 -1.7523969
151.12106 -172.21213 -1.78941
151.4281 -172.22934 -1.793919
140.24503 -172.31825 -2.353523
141.416 -172.30157 -8.1545238
141.67886 -172.30478 -8.2604027
149.08372 -172.30794 -10.840883
142.73155 -172.14122 -1.578971
142.46371 -172.09171 -1.6543061
149.5425 -172.17001 -1.792477
152.16531 -172.16692 -1.775071
157.71718 -172.08463 -1.8337229
153.8503 -172.17398 -10.857088
142.65427 -171.85316 -1.557005
141.74913 -171.92358 -1.676529
148.49612 -171.89665 -1.754914
150.49695 -171.85719 -3.876055
145.63968 -171.95508 -8.3849144
142.25125 -171.76291 -1.572831
140.7717 -171.62746 -1.672112
141.70804 -171.79903 -1.678144
142.14561 -171.76164 -1.608867
144.68774 -171.74352 -1.6372629
142.5352 -171.74188 -2.46768
150.36877 -171.72112 -4.0293031
149.7755 -171.65637 -8.7491207
159.836 -171.6581 -8.9546165
140.74805 -171.64061 -9.84688
147.77551 -171.67795 -9.8450375
151.76659 -171.74699 -10.066342
143.08548 -171.52426 -1.538071
140.1474 -171.45776 -1.7306269
147.74069 -171.58292 -1.735287
149.79483 -171.52798 -1.7696609
157.91501 -171.48677 -1.777894
158.15828 -171.42769 -1.773878
142.12642 -171.45573 -2.0480189
142.66776 -171.55618 -2.2973881
142.91492 -171.50854 -2.3131959
142.58881 -171.47745 -2.6522069
150.35269 -171.41481 -3.5423419
156.65779 -171.44011 -7.576313
151.36011 -171.40927 -10.101158
153.48227 -171.44366 -10.167904
144.05087 -171.30095 -1.560426
141.72949 -171.28598 -1.7103159
142.64455 -171.26141 -1.6970659
145.0323 -171.36523 -1.6390899
146.92133 -171.39133 -1.709537
147.7175 -171.37201 -1.706138
148.14073 -171.31735 -1.7436709
141.93954 -171.38382 -1.85162
142.15179 -171.26611 -2.05531
142.63297 -171.30502 -2.1159761
150.36407 -171.30002 -2.252635
151.24731 -171.27415 -3.958843
147.18787 -171.35767 -9.4071102
153.25229 -171.3056 -9.9775257
151.09895 -171.00594 -1.702999
157.48653 -171.11588 -1.705452
158.96693 -171.04073 -1.75817
142.70035 -171.10065 -2.58129
142.56491 -171.00377 -2.636848
142.8199 -171.11807 -2.6366761
149.68817 -171.01715 -3.468477
150.14543 -171.02921 -3.4287241
150.18912 -171.01483 -3.618197
142.70988 -170.91869 -1.568198
144.12656 -170.91013 -1.5081969
146.71069 -170.99336 -1.681538
148.70398 -170.95024 -1.682529
142.31412 -170.89413 -2.073519
150.46521 -170.93802 -3.129828
150.07497 -170.96237 -3.4938469
150.35425 -170.97997 -3.7169149
151.95526 -170.85211 -3.6711669
150.6694 -170.86734 -4.2829671
151.73547 -170.88947 -4.3511028
147.57477 -170.86801 -9.4395542
140.89925 -170.86163 -10.423547
154.19128 -170.91394 -11.808231
141.07268 -170.92227 -14.05755
144.47197 -170.64209 -1.532198
142.01929 -170.66403 -1.7122869
148.20482 -170.66006 -1.667297
149.54156 -170.69299 -1.740146
154.17618 -170.68741 -1.701041
157.38107 -170.69885 -1.701113
142.37108 -170.75783 -2.0294759
140.24651 -170.78749 -2.6308849
150.15475 -170.74008 -3.5156469
149.69966 -170.75308 -3.9087031
150.84454 -170.70871 -4.2497792
158.60527 -170.62311 -8.0721941
158.6683 -170.73346 -8.9563313
144.09468 -170.56192 -1.3996561
142.25549 -170.51619 -1.615316
147.51381 -170.47285 -1.685528
151.27734 -170.47932 -1.75766
152.26871 -170.51697 -1.712821
153.61075 -170.42577 -1.630936
151.31979 -170.5462 -4.356216
151.23071 -170.44269 -4.7677269
152.05272 -170.54504 -4.8155241
159.98055 -170.50677 -8.4690571
140.75052 -170.49577 -10.494344
140.92667 -170.38412 -1.658127
148.22278 -170.38152 -1.669857
150.94566 -170.27676 -1.765026
155.34419 -170.27499 -1.651708
157.85716 -170.37813 -1.632097
149.9044 -170.30237 -3.1574571
152.48175 -170.37662 -3.112047
150.58511 -170.30099 -3.727206
151.66489 -170.23093 -3.7826369
151.25601 -170.20287 -4.4525142
152.08493 -170.27019 -4.5098219
151.23184 -170.29637 -4.6733432
140.70467 -170.38591 -10.095999
153.89943 -170.36952 -10.473715
151.03354 -170.20392 -11.373138
157.00407 -170.39592 -12.129024
142.88907 -170.14258 -1.557953
140.68878 -170.12485 -1.68907
141.76411 -170.09782 -1.669673
144.74327 -170.1546 -1.606593
149.32748 -170.12369 -1.673686
152.57578 -170.19759 -1.705555
155.24844 -170.11443 -1.644815
156.17346 -170.19034 -1.657464
151.28934 -170.12115 -2.0782609
151.33517 -170.07491 -3.4563711
150.68552 -170.0192 -4.5315242
150.36285 -170.05338 -4.884419
152.05307 -170.1393 -4.879169
159.32391 -170.06683 -8.1442757
151.37576 -169.87091 -1.780138
153.3763 -169.90205 -1.6404901
159.30214 -169.89578 -1.682645
140.29192 -169.80612 -1.951383
142.77164 -169.85167 -1.871372
142.54352 -169.81111 -2.027087
151.28189 -169.9554 -2.7395029
151.05359 -169.88232 -2.9930041
151.76465 -169.90051 -3.411298
149.96738 -169.82715 -4.2029958
151.14655 -169.80959 -4.6741161
140.83035 -169.84074 -9.669569
159.99681 -169.95969 -10.073062
141.87447 -169.65199 -1.5751849
144.97144 -169.74556 -1.58056
142.3096 -169.68997 -1.686692
146.46507 -169.71027 -1.639307
149.18597 -169.63995 -1.667312
151.7608 -169.73013 -1.719555
142.65955 -169.64375 -2.119014
142.67288 -169.73463 -2.295588
142.86807 -169.69693 -2.264564
142.7755 -169.74545 -2.5051501
142.56479 -169.70758 -2.658915
142.58459 -169.66028 -2.881037
142.69876 -169.74393 -2.846597
142.72058 -169.70447 -3.496295
142.8959 -169.63611 -3.4746571
142.84625 -169.66653 -3.7222209
150.89217 -169.63562 -3.6738689
142.5704 -169.68004 -3.8978591
151.46461 -169.71066 -3.972255
142.65771 -169.696 -4.473526
142.56711 -169.62659 -4.6764302
142.33563 -169.6044 -4.8587098
142.85243 -169.67953 -4.9951849
142.70392 -169.66122 -5.5189061
142.81851 -169.68825 -5.4911618
142.93259 -169.64758 -6.0489922
142.70444 -169.67477 -6.2839031
142.62894 -169.66032 -7.09231
142.93411 -169.64348 -7.127255
142.59003 -169.63158 -7.335669
140.96941 -169.77045 -9.3405867
154.30231 -169.70309 -10.062767
142.32248 -169.48132 -1.717729
155.07535 -169.46756 -1.6238821
150.40041 -169.4147 -2.477561
142.5217 -169.55026 -2.9313979
150.17137 -169.4429 -3.9467421
150.68781 -169.4659 -3.8462911
142.38344 -169.40253 -4.0100169
142.64978 -169.44418 -4.1400828
150.12572 -169.5304 -4.290266
150.99728 -169.53584 -4.2201838
142.86682 -169.44574 -4.5265541
150.83371 -169.5473 -4.8452859
142.55693 -169.53874 -6.1029878
142.53616 -169.51848 -6.2553802
142.55017 -169.49838 -6.4924388
142.91476 -169.55594 -6.9979162
142.53056 -169.45689 -7.0850248
142.9053 -169.56897 -7.420979
142.71011 -169.55014 -7.780313
142.49748 -169.23798 -1.702353
148.99683 -169.39317 -1.644513
150.26003 -169.31561 -1.736001
152.56284 -169.38196 -1.657174
157.83005 -169.3302 -1.638303
150.16867 -169.31476 -2.1788421
150.44661 -169.29712 -2.2767551
142.69531 -169.25391 -3.171464
151.71797 -169.25922 -3.1405871
152.4111 -169.34459 -3.221457
150.08249 -169.31628 -3.4863379
151.45132 -169.27271 -3.453089
142.6937 -169.27383 -3.7657969
149.91302 -169.35501 -4.3093948
152.1115 -169.27246 -4.273571
150.09256 -169.28198 -4.4711699
142.75589 -169.37225 -5.7108369
142.63663 -169.37585 -6.9107099
149.02071 -169.39781 -10.156837
141.00134 -169.20781 -12.362409
143.1185 -169.11472 -1.585834
142.31372 -169.04599 -1.6516629
152.33469 -169.19467 -1.652689
155.64238 -169.17105 -1.611586
155.80009 -169.00073 -1.613773
150.30396 -169.17676 -1.887259
150.31343 -169.16913 -2.248709
150.17197 -169.11983 -2.6522
150.25778 -169.16789 -2.8380661
150.05051 -169.11029 -3.1724639
151.16666 -169.08559 -3.7374289
157.73001 -169.14612 -7.9150782
159.43922 -169.06351 -8.9385662
153.62067 -169.07629 -10.099356
148.68701 -168.81879 -1.5894639
155.43216 -168.90601 -1.564196
141.56488 -168.84291 -1.66108
145.41417 -168.97592 -1.601946
147.06534 -168.81853 -1.628135
150.99365 -168.94771 -1.669533
154.48349 -168.90244 -1.645829
143.13957 -168.8206 -2.077107
151.4729 -168.8735 -3.4454169
150.07356 -168.94107 -4.7059102
151.58057 -168.92374 -4.6718602
158.83099 -168.96146 -6.2925391
148.19713 -168.8633 -10.013203
148.79335 -168.8441 -10.452015
154.72662 -168.89769 -10.769337
158.51878 -168.87804 -12.256107
144.20703 -168.69077 -1.361378
141.40466 -168.70351 -1.5923001
143.05432 -168.66444 -1.5361969
145.30328 -168.6292 -1.557099
148.66588 -168.70377 -1.581027
151.34546 -168.62988 -1.584303
142.5224 -168.69849 -1.629841
147.31592 -168.60333 -1.60382
150.07637 -168.75098 -1.629753
153.63336 -168.62677 -1.625025
143.08888 -168.67662 -2.142076
142.63068 -168.60078 -2.645242
151.59853 -168.70581 -3.1443441
150.61295 -168.73312 -3.4949501
151.15874 -168.6539 -3.6909029
150.88815 -168.72733 -4.2263141
150.07272 -168.74164 -5.0681772
147.45155 -168.73676 -8.7512093
148.25281 -168.68365 -9.3847399
147.45514 -168.73914 -9.7467794
147.70169 -168.77045 -9.9435644
151.69478 -168.62576 -10.16139
144.27286 -168.44031 -1.501621
145.89076 -168.53705 -1.591205
146.7417 -168.46635 -1.585476
149.4446 -168.5807 -1.577002
158.59256 -168.55444 -1.594161
145.38029 -168.4911 -1.6091419
140.07626 -168.5224 -2.5947239
142.67755 -168.54092 -2.8545749
158.24445 -168.59814 -9.1145258
149.04047 -168.53433 -9.5564756
142.71146 -168.38483 -1.57535
159.32286 -168.23929 -1.576845
142.89116 -168.31731 -1.637168
149.9957 -168.3187 -1.6035759
156.62805 -168.3755 -1.6025389
157.31796 -168.31224 -1.622231
142.2549 -168.26021 -1.947487
143.82126 -168.33447 -8.5486717
159.56984 -168.33145 -9.3341541
140.38564 -168.33159 -10.455244
143.61404 -168.11992 -1.359345
140.67386 -168.19394 -1.590873
142.54205 -168.08807 -1.574183
144.49205 -168.08453 -1.476504
148.12006 -168.13826 -1.58806
149.04442 -168.17384 -1.522037
149.49606 -168.11603 -1.5934269
149.82092 -168.19772 -1.583064
150.07491 -168.09877 -1.587729
151.69354 -168.09879 -1.552156
142.76984 -168.15585 -1.6882811
142.93834 -168.0394 -1.719198
142.39848 -168.0161 -2.5097749
143.02751 -168.18161 -2.461463
142.53238 -168.12479 -2.7221799
143.25256 -168.06635 -2.714853
142.74889 -168.1674 -2.8417721
143.08778 -168.03801 -2.819911
157.38304 -168.04327 -10.509506
154.91719 -168.18549 -10.687366
143.11273 -167.89664 -1.544257
146.29861 -167.80461 -1.536777
147.04842 -167.91443 -1.569862
147.99448 -167.95465 -1.592217
148.03485 -167.8912 -1.56401
150.21045 -167.82664 -1.5845931
143.46046 -167.828 -2.0432529
142.19257 -167.9075 -2.3943939
143.22717 -167.84599 -2.348964
142.63773 -167.9899 -2.538064
143.5056 -167.81229 -2.6011469
159.37196 -167.95995 -7.6532559
147.29869 -167.95602 -9.5539827
151.43814 -167.95872 -10.932779
143.255 -167.65666 -1.426788
144.94205 -167.76195 -1.478863
147.8942 -167.67543 -1.5586801
151.05521 -167.79675 -1.5555871
142.74838 -167.61165 -3.0149889
159.76476 -167.72034 -9.0310936
150.8073 -167.65027 -9.6945105
142.90738 -167.48528 -1.449697
147.29454 -167.4371 -1.560433
152.46945 -167.59335 -1.588869
153.59015 -167.44992 -1.558314
156.73787 -167.59215 -1.592207
159.17731 -167.44623 -1.5801589
141.44019 -167.47647 -1.608466
143.08267 -167.4951 -2.6794419
158.22433 -167.48703 -7.4456978
159.07014 -167.52377 -8.5817499
159.82825 -167.48486 -8.9589033
158.42578 -167.50793 -9.0182762
158.73128 -167.51836 -9.3337355
142.57277 -167.33453 -1.474187
145.05992 -167.28433 -1.531739
147.29465 -167.31442 -1.54301
147.80627 -167.33919 -1.54108
150.56799 -167.35992 -1.5826761
151.01108 -167.33357 -1.536386
152.67738 -167.26425 -1.560171
158.55751 -167.27731 -1.5684561
159.78656 -167.2854 -8.7427626
158.17378 -167.39285 -9.2697144
150.61789 -167.31952 -9.4533577
152.34921 -167.37 -10.038748
152.52568 -167.35477 -10.123297
157.5502 -167.28278 -10.247194
142.35446 -167.10074 -1.585871
143.173 -167.14594 -1.406841
147.46796 -167.02983 -1.540305
149.77243 -167.04941 -1.546916
159.62865 -167.16315 -1.6019861
145.40776 -167.04141 -9.013525
157.35353 -167.12093 -9.085536
147.10278 -166.93776 -1.531536
147.20197 -166.93671 -1.5051709
149.24097 -166.83688 -2.054635
140.5778 -166.98869 -2.7462749
140.79036 -166.8656 -8.2626591
141.08246 -166.88179 -8.549139
140.9666 -166.88557 -8.9614439
141.06308 -166.91837 -9.2506857
141.66884 -166.81374 -9.694725
152.1161 -166.60725 -1.478251
152.84178 -166.66753 -1.5374219
154.26831 -166.71284 -1.524473
157.15526 -166.61015 -1.548921
140.56281 -166.63843 -2.029407
149.0376 -166.75642 -2.110672
141.00087 -166.76312 -7.973105
140.45204 -166.72638 -8.1929235
140.65005 -166.6687 -8.2919588
140.96259 -166.73685 -8.3364601
154.09299 -166.71886 -8.3840933
140.63589 -166.6604 -8.7427406
159.38992 -166.67795 -9.299387
141.07883 -166.58488 -1.559126
142.92444 -166.5069 -1.555477
146.74251 -166.57327 -1.495015
148.96106 -166.51765 -1.524732
152.74626 -166.57477 -1.541375
152.90637 -166.53368 -1.528535
154.27702 -166.52803 -1.529737
155.45193 -166.57907 -1.551883
142.73624 -166.4389 -1.668474
142.85143 -166.44443 -1.656864
142.75905 -166.42535 -1.88209
145.09201 -166.50079 -8.3674192
157.59164 -166.47673 -8.71068
158.07005 -166.5121 -9.7698517
156.10045 -166.44287 -10.102862
144.17754 -166.2693 -1.019821
142.58231 -166.22581 -1.565713
150.48943 -166.23781 -1.515208
150.85394 -166.33545 -1.510097
151.455 -166.22237 -1.482471
152.15292 -166.26985 -1.491261
152.70213 -166.28571 -1.52549
155.74837 -166.20746 -1.522228
142.58029 -166.32111 -1.709306
142.6772 -166.26993 -1.65122
143.13068 -166.35269 -1.6549571
142.76505 -166.30685 -1.9282449
142.9398 -166.34311 -2.068505
142.77969 -166.26884 -2.748781
142.87247 -166.2551 -2.8716791
142.88885 -166.27271 -3.0603311
142.79291 -166.26535 -4.1647658
143.03322 -166.28293 -4.0865479
143.03781 -166.25296 -5.0472832
143.21353 -166.20303 -5.649374
143.04698 -166.23468 -7.5124159
156.63873 -166.22943 -7.7738762
140.89861 -166.34805 -8.2164297
153.78958 -166.34196 -8.3540573
157.79355 -166.21703 -8.3721609
157.38113 -166.23259 -8.6620922
159.04805 -166.32169 -9.0393543
140.6821 -166.36548 -9.4861441
141.63742 -166.38008 -9.4926767
148.90631 -166.16449 -1.509047
143.10226 -166.04341 -2.087523
143.23471 -166.13768 -2.1677101
142.84006 -166.06293 -2.2914109
140.23102 -166.15639 -2.541512
142.80829 -166.10889 -2.8991871
142.82904 -166.11572 -3.473814
143.20212 -166.12076 -3.6914821
142.93375 -166.16718 -4.6734142
142.86359 -166.04694 -5.8744531
143.16901 -166.01479 -5.833179
143.21747 -166.14876 -5.8152041
142.90256 -166.09598 -7.4297972
143.19167 -166.1364 -8.3391705
143.06538 -166.08299 -8.4751596
157.75218 -166.19293 -9.1020832
156.18237 -166.17224 -10.56644
142.49823 -165.84055 -1.562995
144.44427 -165.98769 -1.422549
148.28424 -165.93945 -1.487493
150.95415 -165.98766 -1.512201
153.37659 -165.86319 -1.506923
159.86975 -165.85744 -1.532424
142.72585 -165.97748 -1.661065
142.8477 -165.98083 -2.9074409
143.07503 -165.9285 -4.2644348
143.3522 -165.95923 -4.3419628
142.8607 -165.9785 -5.9280248
154.51927 -165.91731 -6.960032
154.71895 -165.92474 -6.947639
154.88876 -165.88321 -6.887938
152.52473 -165.80505 -7.3897672
142.93826 -165.80203 -7.8480959
159.72736 -165.80789 -7.98244
153.08093 -165.85147 -8.3704176
153.20959 -165.83327 -8.3523464
157.07208 -165.85034 -8.2404118
142.85121 -165.99619 -8.5113468
153.15854 -165.87709 -8.4442768
153.36356 -165.75121 -1.512103
155.40842 -165.74942 -1.482931
157.34686 -165.75671 -1.511757
143.64919 -165.70261 -2.560689
143.63409 -165.66411 -3.262773
155.91478 -165.73273 -6.125237
154.2189 -165.7659 -7.3035631
152.64861 -165.64516 -7.6852412
156.95728 -165.72951 -8.6268787
144.58089 -165.43428 -1.382905
143.10851 -165.51619 -1.4937381
145.7356 -165.48863 -1.458663
159.4841 -165.51601 -1.416567
159.91321 -165.52527 -1.5172271
