# .PCD v0.7 - Point Cloud Data file format
VERSION 0.7
FIELDS x y z
SIZE 4 4 4
TYPE F F F
COUNT 1 1 1
WIDTH 912
HEIGHT 1
VIEWPOINT 0 0 0 1 0 0 0
POINTS 912
DATA ascii
153.23456 40.932365 4.5285549
157.96404 41.614983 4.143002
156.41754 41.790241 3.12098
152.61568 41.950329 4.5861001
157.68491 41.811806 2.547935
146.69302 42.060162 -0.77437901
152.38385 42.24501 4.4788871
157.7989 42.348457 1.471094
152.18359 42.603634 4.5140972
151.94205 42.899792 4.4529529
152.03871 42.889404 4.5525742
156.58311 44.135784 2.5381269
148.08472 44.537811 -0.69266999
148.68565 44.778175 0.91973001
148.56738 44.792141 0.61458898
148.53168 44.884766 0.65332597
148.56535 45.186768 0.90298599
146.80894 45.303898 0.53385597
147.86275 45.296108 -2.3262179
150.36133 45.497257 4.4544549
150.10446 45.684082 4.0643058
150.05084 45.736641 0.71641803
147.5123 45.745544 -2.358768
150.12885 45.840813 4.4407592
146.07596 45.833759 3.4741089
148.46129 46.3414 3.1892481
148.15524 46.332745 0.54014701
148.2211 46.479496 3.7304931
145.84158 46.521072 3.4941061
146.29785 46.442127 3.561625
144.85246 46.749836 1.401361
147.90961 46.665455 -3.958034
145.3929 46.93531 0.97894102
144.82544 47.050499 4.0025778
147.02914 47.10862 3.871232
145.81148 47.111702 3.793083
144.64 47.38451 0.91772997
145.13609 47.486965 3.7508979
154.45183 47.531155 2.962513
147.21136 47.576763 -2.6170709
144.35846 47.672745 4.0702372
144.36349 47.710297 3.9753189
144.25888 47.738937 3.3908601
141.61279 48.163567 3.1726201
141.74207 48.560528 3.8497679
141.44756 48.468933 3.0766251
153.81705 49.123173 -2.7053101
140.22607 49.426392 -1.362806
140.7244 49.55917 -2.819144
140.09982 49.998863 4.449223
140.01123 49.947121 -1.40071
152.13142 50.384655 3.8508611
152.27489 50.344624 3.17328
159.91586 50.573997 4.5643058
152.15411 50.449108 4.2105079
159.91441 50.518707 4.3583159
151.90979 50.594444 3.835521
152.02621 50.45293 3.9236031
159.94427 50.683025 3.672462
159.83505 50.981239 3.4659591
159.69727 51.065655 3.663239
159.43875 51.376949 4.681129
159.29697 51.466339 4.3141842
159.15443 51.81229 4.3719339
159.07678 52.23378 3.4374509
158.55368 52.627708 4.334682
158.12192 53.316261 4.3079691
157.49594 54.288544 4.2271628
157.28484 54.565331 4.2131391
144.18565 54.770683 4.8435588
157.21942 54.786922 4.5490232
157.02246 55.079559 4.5372758
157.03572 55.00761 4.21102
156.88771 55.257751 4.5291719
156.87735 55.287075 4.1857572
156.30762 56.249195 4.8100042
156.25676 56.287514 4.4918399
156.10658 56.459396 4.1343188
155.94521 56.791859 4.4733992
155.8006 56.960575 4.1308079
155.73688 57.100933 4.4609828
155.74336 57.218113 4.8797212
155.17328 58.013348 4.4276352
154.11971 59.567173 4.0602608
154.12766 59.645222 4.3656092
153.95221 59.931473 4.672668
153.75308 40.096302 4.4803119
153.48807 40.386078 4.5382252
153.40013 40.631607 4.3603072
153.21773 40.878632 4.5266571
153.17516 40.983829 4.3746219
147.10481 41.542973 -0.89549398
152.81659 41.692524 4.3696132
146.63855 41.66729 -0.19683801
157.32191 41.847317 2.898097
157.95935 42.157997 1.025454
144.3744 42.044895 -0.54066998
147.04675 42.016922 -0.67456901
146.93549 42.123428 -0.89662898
145.34236 42.179436 -1.105903
147.23059 42.115513 -1.12169
146.12608 42.343712 -0.58553201
151.80052 43.13076 4.3701081
145.63168 43.104111 -0.777152
145.54865 43.227043 -0.76793599
156.52026 43.730503 3.0822871
156.9485 43.695435 2.8466091
156.64268 43.66177 2.248996
156.5589 44.160915 2.5690179
144.53331 44.307178 -1.130788
145.23599 44.261219 -1.389798
144.93668 44.282108 -1.493184
144.55814 44.41338 -1.009472
147.53474 44.508091 -2.3983591
147.20499 44.492287 -2.6106501
148.7233 44.936378 -2.3645279
155.46733 45.164013 1.262207
148.62547 45.014717 0.86289501
146.94888 45.129475 0.62168097
146.16193 45.360775 2.8455231
148.82243 45.292912 1.035304
147.0647 45.206882 0.852723
147.466 45.383614 -0.84642202
147.84619 45.38353 -2.296618
150.13541 45.630081 4.214529
150.10544 45.682766 3.6524091
147.30602 45.645138 -2.478159
148.96494 45.675743 -2.4475801
146.00578 45.833626 2.8756649
148.91286 45.967583 1.697816
147.90997 45.970367 -0.11166
146.44954 46.006886 3.4947419
147.90868 46.065662 1.317637
149.73761 46.340004 4.5309191
154.56638 46.296906 0.94838798
147.241 46.350311 0.60431999
147.70627 46.590454 2.730386
145.31952 46.58197 2.592957
144.95139 46.577644 1.385054
148.23535 46.491756 -0.83205801
146.50046 46.570599 -1.8748879
147.46587 46.47213 -3.9064519
145.05898 46.745865 2.663625
143.28375 46.721706 2.1216619
153.6676 46.652023 0.91114002
146.9355 46.745922 -1.8816251
147.64688 46.730457 -1.87291
147.17532 46.990162 2.9548309
147.28596 46.817978 2.3234279
145.75662 46.904247 1.1035
154.04877 46.920429 0.34350801
147.18283 46.814373 -1.883435
148.56345 46.818832 -3.743309
145.65488 47.18681 1.3223259
155.00885 47.173389 -0.76096398
147.00143 47.106407 -2.2495911
145.03024 47.309383 4.1736708
144.73294 47.236233 3.9048679
153.61293 47.217003 0.893646
147.62021 47.405491 2.694622
144.4438 47.516296 1.3825949
146.41185 47.485256 0.43248701
152.95836 47.451286 0.28728899
144.45094 47.689819 4.1451159
152.67607 47.781013 3.897125
145.75027 47.722183 3.428277
146.0937 47.797314 1.348428
147.40692 47.666737 -2.72841
153.52718 47.965443 0.156248
147.7034 47.935005 -0.91640002
140.54343 47.836975 -6.808495
147.62233 48.13055 -0.77469403
154.54518 48.151009 -0.62726003
147.52386 48.129208 -0.92994398
155.2896 48.067924 -4.992003
142.57143 48.023449 -5.6139259
141.73077 48.269684 3.217979
141.17386 48.397358 3.031193
140.39055 48.225018 -5.6145391
141.5918 48.302231 -6.949409
141.73883 48.587036 4.072793
141.76878 48.588181 3.7429471
141.51363 48.569214 3.320363
147.21558 48.540287 1.587963
154.78601 48.435429 -3.6165299
140.09525 48.525917 -5.0998998
140.21971 48.484909 -5.70755
140.08348 48.709274 -4.4294629
140.88422 49.118538 -5.1262231
140.15685 49.340683 -0.910146
140.49495 49.272663 -1.024855
140.2283 49.382607 -1.452648
141.45631 49.389992 -3.0571721
152.46765 49.39053 -5.3940468
140.05205 49.438129 3.1085291
153.46045 49.567871 -2.249306
153.66266 49.417278 -2.2561159
140.07637 49.793324 3.242734
140.18439 49.737556 0.96341199
140.25417 49.749474 -2.1422479
152.10005 49.632523 -3.797497
151.56483 49.677124 -3.905303
151.79318 49.665794 -3.8806579
151.26141 49.726059 -4.2414451
151.78821 49.634201 -6.5361719
140.3855 49.754326 -8.5373173
140.11201 49.826527 1.244728
140.16727 49.906815 0.33240101
140.10364 49.87648 -1.055475
140.08601 49.938465 -1.506442
140.63712 49.846294 -2.1354611
140.21675 49.853794 -2.5606239
140.59395 49.815365 -2.5846641
140.99097 49.918663 -2.594126
140.58862 49.923237 -3.3230791
140.66101 49.854172 -3.7102251
141.06445 49.998573 -3.8248069
151.1685 49.908218 -4.2578931
140.70601 49.88427 -4.5916839
150.7159 49.989677 -5.1789632
151.88391 49.990612 -6.8650479
140.56316 50.199406 3.906991
140.4379 50.117367 -0.2343
141.03781 50.121407 -2.1403911
141.27606 50.072205 -2.584882
140.53149 50.068573 -3.8359029
141.27493 50.194462 -4.6041088
151.88312 50.354797 4.525208
152.45303 50.289528 4.4880071
140.19006 50.212555 4.3219199
143.06584 50.225338 -3.2825339
152.0546 50.471577 3.8728349
152.24825 50.445232 3.377167
152.06909 50.458202 3.0159931
152.18494 50.479633 1.688236
142.52756 50.419941 -3.102499
142.79111 50.50322 -3.319447
159.78337 50.648056 4.821435
140.47073 50.678761 3.875133
159.90552 50.612633 3.4921069
159.69821 50.901775 4.5924692
159.53387 51.190434 4.5853939
140.06996 51.012993 0.971452
147.86111 51.147854 -2.8992419
159.39777 51.429745 3.512902
141.07648 51.457726 -5.4004889
141.91869 51.56834 -6.802896
146.00943 52.110966 4.962965
145.91725 52.122658 4.787487
158.65895 52.610111 3.434581
158.31546 53.02063 4.2818608
145.28914 53.269169 4.9571519
158.1095 53.353489 4.936337
158.38469 53.591328 -2.525172
158.70262 53.567223 -2.4933679
158.21344 53.599419 -2.9177251
140.23253 53.852646 -3.4469161
140.13477 53.954781 -3.70153
157.54561 54.167355 4.8920412
144.65442 54.058876 4.781518
157.27045 54.871395 -1.0693001
144.02794 55.062511 4.8366771
143.87173 55.34063 4.7341089
156.84012 55.599735 1.722115
143.60638 55.706417 4.7800851
156.51735 55.85796 4.9235072
143.49704 56.122437 4.9447942
155.61148 57.296299 4.769526
155.35747 57.735645 4.8538599
155.27008 57.770111 4.7030239
155.20691 57.91193 3.9970191
142.07671 58.100494 4.780108
155.07497 58.195335 4.259439
154.50381 59.039165 4.8598371
153.91203 59.892998 4.8159819
153.94196 59.921749 4.7252469
147.48518 40.059113 0.36284399
145.70184 40.039867 -1.686927
147.88141 40.542667 -0.85462701
146.84229 40.713963 -1.7518179
152.88347 41.34288 4.51056
147.24339 41.50845 -0.89680201
157.93298 41.643112 4.1208739
156.38412 41.735115 3.2387199
156.45284 41.764175 2.978776
145.47548 41.658127 -1.56138
152.62769 41.934917 4.529675
149.30978 41.856205 -0.99848902
148.59836 41.803402 -1.547769
152.4075 42.144276 4.3083229
144.54346 42.101448 -0.70552802
159.81381 42.327885 4.0963211
146.66997 42.25515 -1.054137
152.15099 42.65205 4.4951348
157.21887 42.813099 4.0928278
151.60634 43.418205 4.3649101
155.7491 43.585587 3.2261789
156.31917 43.654217 2.9439459
145.27586 43.755089 -1.047195
144.52954 43.906681 -1.041294
145.0338 43.938992 -1.0603549
145.33978 43.885082 -1.27017
144.4982 44.414597 -1.20249
154.78677 44.743179 1.898765
149.071 45.189064 1.0468169
147.33032 45.193993 0.75016701
148.36871 45.111092 0.47412899
150.42453 45.278061 4.576026
146.14587 45.316811 2.9158831
146.91354 45.263546 0.64304501
150.34462 45.540237 4.462491
146.05934 45.454704 2.6697071
147.92937 45.487968 -0.78602999
147.49597 45.474182 -2.4500811
154.498 45.708031 2.4518321
145.75378 45.715931 2.070931
150.03813 45.771835 0.311358
147.85086 45.780724 -2.128922
145.45775 45.905117 2.593914
148.44711 45.898792 1.679224
147.98994 45.978752 1.485569
148.25299 45.849407 0.174961
147.15648 45.979965 -2.4519329
147.91153 45.897789 -3.3199849
149.67438 45.909771 -3.4054959
145.39288 46.053535 2.913871
148.23488 46.177959 1.665603
145.48657 46.036621 1.5530469
148.10085 46.010094 1.520262
148.14801 46.13216 0.20097899
147.54343 46.044804 -2.255332
147.81207 46.125584 -3.380928
145.78555 46.288036 2.3527131
147.60228 46.39312 -3.628067
148.25114 46.427494 4.431766
149.5809 46.568897 4.5253229
148.19772 46.490501 3.8457921
146.0457 46.542828 3.6126831
148.29227 46.542213 2.918679
148.15858 46.512306 2.7662711
142.99417 46.546791 2.1024661
147.27798 46.486465 0.72127199
144.79039 46.744041 2.5528071
145.4828 46.761654 1.090259
146.27167 46.768471 0.55717701
154.5226 46.680649 0.549941
154.94083 46.773705 0.4452
148.32507 46.646664 -0.68301398
148.6467 46.694847 -3.4857459
148.1741 46.72485 -3.652812
145.384 46.903759 1.058745
146.17365 46.90731 1.131816
146.30305 46.920414 0.67189598
148.10408 46.946697 -0.149134
149.22556 46.859871 -3.3178761
142.88995 46.919136 -3.4733469
144.67868 47.086037 4.0166478
146.70483 47.021545 4.0347409
147.06393 47.005646 3.962781
145.79652 47.159752 3.426054
147.07961 47.029003 2.7080541
153.60388 47.004856 0.92368102
145.13289 47.104584 0.616588
153.99472 47.148029 0.333298
144.52408 47.34111 2.6358631
144.82341 47.256104 1.039377
147.56259 47.374554 -0.187383
154.20432 47.419044 3.1462879
147.45862 47.499866 -0.499053
147.36328 47.470356 -2.5936401
147.94553 47.545578 -2.6100559
146.11324 47.630974 4.0054879
143.47305 47.706604 2.477298
143.78737 47.650978 2.496228
152.84377 47.664207 0.265544
145.37234 47.917984 1.564778
154.69864 47.866455 -0.61154902
155.42929 47.976643 -4.9835901
147.4021 48.180523 -0.76603198
147.54271 48.009533 -2.7841489
142.68671 48.017078 -5.5033898
142.526 48.153378 -5.782002
140.36325 48.032364 -8.0369654
141.64505 48.32132 3.1253541
141.7887 48.228115 2.7506781
147.29541 48.266491 1.655653
142.09575 48.322464 -6.7515311
140.25208 48.234352 -6.9314079
141.79587 48.582382 4.0447612
141.47858 48.527218 3.065299
140.17924 48.53257 -4.955833
140.32224 48.429756 -6.050612
141.14099 48.617554 3.1179099
142.57657 48.684074 1.874577
147.34073 48.770081 1.651862
147.18843 48.635406 1.400396
154.04376 48.919765 -2.6901419
141.60522 49.027603 3.5300469
153.84897 49.16124 -2.540765
141.43623 49.030663 -3.3821831
141.53938 49.041954 -3.7467351
141.37939 49.046593 -5.5980711
152.19217 49.015251 -6.717134
140.26114 49.296417 1.857885
140.35944 49.373043 0.60050797
140.20627 49.322433 -0.99821103
140.23956 49.328465 -1.357893
153.67197 49.307404 -2.444066
141.20058 49.368374 -4.8731179
140.28484 49.420193 -0.719616
140.76019 49.577759 -2.823921
151.90799 49.583843 -3.7409799
140.03491 49.762047 -0.19663601
141.47343 49.75771 -0.077071004
140.04633 49.700325 -0.65096003
140.59685 49.774433 -1.885681
140.54457 49.744987 -8.4354935
140.12619 49.996315 4.433198
140.66875 49.878052 2.70667
140.52345 49.867687 -2.9511671
141.37314 49.909878 -3.636004
140.61226 49.867519 -4.2409658
140.63959 49.968437 -5.178205
140.54787 50.110153 3.2840691
140.35727 50.032566 0.144648
140.30374 50.129593 -0.248411
140.85522 50.038704 -1.4654239
141.29047 50.146858 -2.5864229
140.5706 50.113632 -3.7655611
141.2742 50.066563 -5.7892241
150.40154 50.158718 -5.6040349
159.98151 50.31311 4.9877162
152.23386 50.344704 4.4678011
152.51756 50.346062 4.1617432
152.22897 50.387272 3.850611
152.29451 50.354301 3.081789
142.10513 50.328163 -3.137774
149.8656 50.319828 -6.765574
152.19376 50.440739 4.5021658
152.1373 50.425583 4.2794461
151.94302 50.554203 3.5585999
152.1767 50.469933 1.596431
140.82889 50.450325 0.87713498
152.85722 50.525822 -1.341416
141.0762 50.469727 -3.3330989
140.94456 50.559628 -3.92729
149.92946 50.483372 -6.6383548
143.02002 50.442963 -7.1087608
140.71408 50.600609 1.044314
159.76015 50.986378 3.684917
159.69359 50.986435 3.462729
140.4865 50.815422 1.491251
159.58466 51.195972 3.6850729
151.95923 51.046055 1.584483
140.52005 51.046837 -4.7879901
140.38467 51.278606 -5.1403661
140.57433 51.363949 -5.041101
140.14182 51.303017 -5.3670688
140.61568 51.30241 -6.4561248
159.42584 51.420277 3.9739139
144.37054 51.509014 -3.349057
141.10526 51.435547 -5.367918
153.83931 51.716587 -6.859035
154.42398 51.95509 -7.6092439
158.98557 52.179001 3.471833
159.21658 52.06142 3.4427731
158.90767 52.298775 3.7200129
140.18875 52.414696 0.94783002
140.02414 52.785538 0.23983
158.60504 52.82962 3.4424601
140.06151 53.079235 -0.17128401
155.6098 53.068939 -1.2139601
158.11938 53.33287 4.630125
158.27301 53.668617 -2.501127
158.54985 53.657478 -2.4996231
144.95773 53.831726 4.9560628
157.71567 53.915005 4.918509
140.1864 53.804234 -3.092382
140.11606 54.117905 -5.0563478
157.27048 54.590401 4.8492851
156.55424 54.574799 -4.3433781
157.3447 54.621513 4.201591
157.15002 54.85664 4.9243279
156.81561 55.302887 4.8776388
140.62048 55.279617 -8.4592791
143.69814 55.806301 4.9461298
156.31555 56.133995 4.8286848
156.12071 56.488224 4.483727
156.06619 56.568836 4.1591501
142.61935 57.518009 4.9402752
155.34862 57.780552 4.314024
155.01868 58.174274 4.9016819
154.61533 58.851887 4.721704
154.19977 59.538364 4.0762548
154.10031 59.67601 4.3520508
153.87714 59.841938 4.0451899
159.2572 40.16502 4.228683
140.98705 40.045071 -4.8128948
153.52605 40.4142 4.5452251
147.26733 40.447441 -0.77185601
147.57692 40.434921 -0.81925899
153.13617 40.99958 4.523036
147.38065 40.846054 -0.85354298
146.52429 40.95713 -1.709528
157.94142 41.642735 4.5556579
146.94197 41.701862 -0.90894097
148.9772 41.889297 -0.61537802
155.71164 42.144718 1.341468
152.3385 42.257393 4.5057201
145.06241 42.379486 -0.95527798
152.23729 42.44466 4.302865
145.00378 42.516651 -1.004909
144.9357 42.783298 -2.036963
157.29982 42.86573 3.919157
151.81213 43.036285 4.4933262
156.19252 43.196831 2.5493231
151.66425 43.315048 4.4366641
151.37196 43.793507 4.35952
144.96863 44.02169 -1.070514
151.08089 44.244659 4.4324412
150.73026 44.701035 4.5950809
148.60944 44.648499 0.61681402
148.22388 44.687943 0.227642
148.85887 44.766312 -1.9520251
147.99042 45.390331 0.64585799
145.94173 45.423401 2.8919301
145.87744 45.440563 2.6601641
148.17004 45.586483 -0.39343801
147.82925 45.407333 -2.446975
144.2149 45.751358 2.1844499
150.24725 45.747746 1.757557
148.97401 45.701874 1.5237319
150.10954 45.76017 0.94635302
148.29584 45.673264 0.42585799
147.83447 45.799412 -0.410849
147.51379 45.738861 -2.3273561
146.06358 45.884811 3.452251
145.435 45.935272 3.184979
148.2666 45.923607 1.671157
149.53236 45.807121 -3.2312579
154.2326 46.044651 3.3580761
145.82101 46.022861 2.866647
145.84677 46.137012 2.7989681
145.10986 46.197201 1.542224
153.86981 46.154011 0.95773101
148.14983 46.198723 0.47442701
146.93526 46.088764 -2.4643669
149.58826 46.082386 -3.4134359
145.12688 46.244049 2.757529
149.1136 46.398403 2.444293
147.2339 46.220573 1.44224
146.79541 46.242233 -2.355993
148.18781 46.483864 4.0659838
145.86052 46.464493 3.4453211
148.18556 46.520245 3.519053
155.14899 46.478813 3.135211
145.22784 46.523727 2.3149519
142.6033 46.51759 2.015063
148.20723 46.479073 1.6594369
148.30086 46.428928 0.428397
147.85416 46.533981 -3.804744
142.72752 46.618191 1.886266
147.86392 46.66975 1.466386
145.75041 46.774162 0.59250897
148.13188 46.617813 0.217547
147.08369 46.99649 4.1095328
147.57249 46.863735 2.7236209
145.73903 46.827492 0.64640898
154.39227 46.83392 0.54193997
154.41655 46.873146 0.365228
146.2377 46.979546 -1.905394
149.27615 47.058109 4.5155091
145.39572 47.081135 4.0656629
145.80998 47.058258 4.1045699
144.86514 47.100601 3.9111581
145.50267 47.143791 3.8087001
146.53856 47.052902 3.933455
145.92053 47.08017 3.765969
143.73874 47.191078 2.214083
144.52585 47.178864 1.283263
141.77921 47.148834 -4.0105948
144.96611 47.369675 3.848635
145.30702 47.384125 3.8018241
153.85065 47.294136 3.0866661
154.4503 47.31184 1.907197
146.12134 47.210403 1.367542
153.83418 47.245869 0.324339
145.78653 47.569427 3.4086981
154.18629 47.581299 1.7395999
144.31158 47.741661 3.8564439
144.32294 47.741302 3.4716001
144.20102 47.740963 3.118139
154.44289 47.6134 2.3408539
144.23492 47.649677 1.976414
154.14336 47.655899 1.712353
154.21127 47.66077 0.194484
147.09578 47.714828 -2.5937531
141.90799 47.700008 -4.1408882
146.0434 47.816456 3.9968441
142.84521 47.909092 -5.3938708
155.34256 47.811527 -5.463675
140.29187 47.915451 -6.1830678
140.28511 47.985428 -8.1626596
146.14069 48.028484 3.8222079
140.31985 48.18412 -5.783401
140.35927 48.180458 -7.2699771
141.58675 48.399948 -3.6800671
141.47112 48.624424 -6.2385459
147.99541 48.94379 4.8476858
140.16476 49.187668 2.561615
141.53737 49.195229 -3.1379931
141.29028 49.008411 -5.0300169
151.93207 49.126999 -6.7158751
140.48892 49.266289 -1.015739
152.22812 49.366787 -5.3605409
151.80807 49.24818 -6.5595531
140.08971 49.490814 -1.641883
141.05443 49.479542 -3.0302479
152.34439 49.492798 -5.1268911
140.22189 49.784061 -2.222518
140.56688 49.799042 -2.588614
151.74995 49.650227 -4.0647941
152.09825 49.629501 -4.0552649
140.12 49.851418 0.233868
141.46004 49.892212 0.211051
140.58598 49.94577 -0.80520397
140.13705 49.904869 -1.099337
140.59526 49.80183 -1.477463
140.63629 49.822517 -2.2592599
140.13593 49.858662 -2.541189
141.18802 49.812988 -3.267256
140.64299 49.855671 -3.7910559
150.80151 49.948002 -5.1116571
140.38564 50.157112 3.5967641
141.33823 50.138245 0.19707701
140.63205 50.025475 -0.52310997
141.05943 50.035583 -2.538871
151.73959 50.131626 -2.5257349
141.16637 50.141701 -4.5485229
150.56839 50.161888 -5.198112
140.59398 50.038849 -5.2332201
159.97266 50.368607 4.712368
140.48972 50.22419 4.318007
140.50287 50.210445 3.844274
152.27866 50.292377 3.3544469
152.50926 50.368748 2.804764
140.30515 50.224731 0.51667202
152.3354 50.359749 -0.52021003
141.89226 50.2715 -3.0786121
142.20364 50.354034 -3.2720621
142.40053 50.306236 -3.6295171
142.49916 50.241093 -4.505218
142.6351 50.248535 -4.9225068
141.6349 50.303051 -5.282362
150.06897 50.342392 -6.6193781
159.94217 50.503403 4.584239
151.87083 50.498398 4.2916031
159.90311 50.583431 4.320374
159.96919 50.629967 3.689153
140.64394 50.61602 1.224741
159.69522 50.892181 4.307579
159.52623 51.009113 4.953876
159.57738 51.081902 4.2816081
157.59558 51.325603 5.3298678
159.62196 51.216618 3.5030789
140.5264 51.385094 -4.5637569
159.34662 51.464546 4.7137761
153.07561 51.436928 -5.534955
159.23378 51.702084 3.4798551
140.5351 51.736336 -6.9889932
140.54688 51.79599 -7.4513531
146.19806 51.818382 4.9650912
159.13794 51.914803 3.81108
158.72192 52.33157 4.2731328
158.73747 52.603382 3.642473
140.16319 53.322433 -0.99678898
145.04265 53.467808 4.7832909
157.94781 53.583038 -2.894664
144.92265 53.670567 4.7836061
157.95425 53.686047 3.9000671
158.0966 53.622742 3.610126
156.38445 53.624432 0.496997
156.7325 53.698814 0.50709301
140.01871 53.63372 -1.827768
144.79068 53.871677 4.78301
157.90485 53.875446 3.3769081
140.26544 53.852352 -2.7068009
157.63828 54.090744 4.573781
157.62289 54.104626 4.1941419
144.26584 54.686459 4.7815509
157.33093 54.611759 4.5084152
157.07503 54.992519 4.176682
140.26936 54.81596 -7.204586
156.77164 55.360458 4.8626752
156.86237 55.326313 4.4962912
156.74405 55.554314 4.1493869
140.54327 55.632526 -9.6337547
140.78725 55.824783 -10.005447
156.2453 56.221973 4.6843858
158.8166 56.359581 1.812134
155.83917 56.975731 4.4422822
155.68082 57.251343 4.856833
142.19818 57.850498 4.7773218
157.55072 57.835411 3.2752991
154.75143 58.56469 4.8467398
154.76463 58.757469 4.371191
141.62109 58.896702 4.8155179
154.28279 59.379642 4.785418
154.20502 59.42527 4.8553481
154.06003 59.690662 4.8213801
154.09879 59.652275 4.786521
154.03146 59.756886 3.936178
146.31766 40.398125 -0.59286898
157.10236 40.719887 3.811686
147.43057 40.862907 -0.51416999
147.62735 40.868427 -0.41092601
152.89908 41.436745 4.3627748
146.51312 41.578907 -0.246595
147.71259 41.523884 -0.82138699
145.44574 41.437824 -1.0524009
158.55275 41.652348 1.4852819
158.46228 41.706509 1.050734
152.70215 41.942253 4.3660879
152.48318 42.129223 4.4683342
148.90529 42.016251 -0.63881302
146.041 42.404873 -0.66137302
146.97099 42.533134 -0.920825
157.42751 42.825275 3.2376821
151.50543 43.415649 4.4472799
151.32086 43.803406 4.439477
144.62694 44.170288 -1.435336
156.55373 44.218212 2.824913
148.11942 44.532917 -0.72769803
149.02115 44.579262 -2.3673151
150.86946 44.607502 4.4760909
148.70139 44.720627 0.84196198
148.15842 44.786491 -0.81046897
150.66614 44.97448 4.472014
148.08157 44.821411 -0.80273002
147.35899 45.12553 0.96512502
148.54868 45.071442 0.72952098
145.57408 45.319305 2.59326
147.24928 45.265038 0.69296402
146.60106 45.323311 0.57241899
148.09808 45.261795 0.49936199
147.83125 45.344406 0.39954099
150.30792 45.594788 3.916966
144.34277 45.532066 2.255589
154.66998 45.545128 -0.26174599
150.11772 45.797421 4.5096002
145.87631 45.773006 3.208761
150.06885 45.708023 2.93489
150.28314 45.67421 2.6564741
154.95355 45.792767 1.717618
150.09692 45.761135 0.70785499
147.11606 45.667686 0.359842
148.03943 45.75631 -2.106483
145.94266 45.855736 2.916935
148.29816 45.852875 1.476763
149.8002 46.090572 4.9108939
145.3768 46.174164 2.634347
147.39969 46.175919 0.83286101
150.05585 46.192039 0.296536
149.8251 46.192001 0.096542001
149.89006 46.005871 -3.412894
145.91554 46.317825 4.7024689
142.60599 46.242027 2.1379449
148.01846 46.342537 -2.3326211
147.48657 46.237572 -3.793921
146.31604 46.533154 3.488935
145.16621 46.472507 2.8326099
148.81056 46.497879 2.4242229
148.422 46.429165 1.732262
147.45828 46.474083 1.421278
147.08328 46.543858 -2.252125
147.42621 46.521286 -2.2314091
142.92354 46.779312 1.897954
147.18115 46.648041 0.49350899
155.00134 46.799606 0.379161
144.45792 46.602718 -2.8946879
148.03999 46.739525 -4.049716
145.06564 46.866486 2.8304279
147.53818 46.985233 2.906064
146.42447 46.865543 1.1445971
154.55865 46.871601 0.56092399
148.07706 46.887196 0.35717699
145.00674 47.103626 4.036418
147.16525 47.122986 0.106713
142.46759 47.018032 -4.5381188
140.46402 47.061916 -7.9390039
141.84613 47.33289 -4.1094599
146.44211 47.501991 4.0164609
154.34497 47.548012 4.0214062
154.30548 47.531979 3.7860439
154.27016 47.5224 2.4246571
144.68367 47.415394 0.97350001
154.5127 47.473644 0.32912001
147.91826 47.553669 -0.490646
148.43939 47.469208 -2.579932
144.4342 47.686035 4.153019
144.44495 47.74963 3.8954179
144.44922 47.708061 3.451746
144.32193 47.67622 2.1272061
147.80286 47.772892 -2.753736
140.56848 47.732342 -6.9884601
144.46239 47.813065 2.7323029
148.53172 48.109695 4.8663769
154.25426 48.050446 1.734628
154.79135 48.163052 -0.81021798
140.42293 48.009907 -5.9857039
155.02438 48.284573 -3.8631029
141.76857 48.324078 -6.7609811
141.82237 48.323513 -6.8461771
141.75092 48.598118 3.4357159
141.63344 48.409779 2.961628
154.84244 48.493347 -3.725275
142.51443 48.636688 2.007097
142.33698 48.684742 1.860049
140.07843 48.656548 -4.5869002
140.46555 49.188618 -1.088627
140.97354 49.127792 -5.0911102
151.49661 49.145782 -6.85357
140.44098 49.36161 -0.66828501
140.06976 49.483788 2.9649141
140.44177 49.503284 -1.837504
140.00189 49.762894 3.1040649
140.1264 49.761032 1.403528
140.1235 49.746101 1.080282
141.02878 49.788414 -2.9790161
140.96173 49.7687 -4.4647141
140.04596 49.644554 -6.2382159
140.15941 49.828522 0.57423699
140.72992 49.927448 -0.67836499
140.91232 49.951534 -1.104723
140.13826 49.928593 -1.9360909
140.99622 49.99115 -2.37971
140.97964 49.886112 -2.5852561
140.29616 49.960945 -2.9493611
141.24449 49.896698 -3.1132331
143.29797 49.909431 -3.552598
141.01627 49.953503 -3.8011551
140.54051 50.160259 0.151343
141.17169 50.141773 -1.951205
141.22032 50.16029 -1.842046
141.41075 50.130211 -2.3698919
150.4985 50.067101 -5.4238491
141.08148 50.044918 -5.944592
142.70418 50.19558 -6.218257
143.40425 50.14814 -7.0080161
140.58708 50.218971 4.4599328
140.2608 50.270851 4.233707
152.25403 50.385838 4.224875
140.19904 50.249344 3.829268
143.18614 50.32272 -3.064646
141.51369 50.293598 -4.9726591
150.27701 50.265106 -5.4482841
142.10992 50.244247 -5.8603001
151.80609 50.523254 4.4618139
151.9342 50.539001 3.811686
151.88873 50.575939 3.043025
151.98268 50.584343 1.603248
142.93011 50.522495 -3.0901849
151.48416 50.698471 4.5809102
140.06082 50.691189 -1.188642
140.34784 50.814053 2.8664179
140.40091 51.13834 -5.021996
159.38823 51.337631 4.223557
140.67778 51.284771 -6.02877
151.34506 51.424549 -4.359201
141.50804 51.406399 -6.1194992
159.22472 51.605106 4.9498472
141.96445 51.686996 -7.4886932
146.10957 51.830601 4.7887301
159.14076 51.827286 4.1970978
140.33824 51.871181 -7.5712509
158.90869 52.170483 4.2411308
141.17509 52.321274 -0.34436101
158.62189 52.574043 4.9672389
158.65298 52.529415 4.6341681
158.64099 52.573875 4.3310571
140.18747 52.700569 0.51060599
158.44998 52.932266 5.009428
145.53117 52.870731 4.9586082
158.43446 52.99334 4.311965
140.00172 53.100029 -0.43433899
158.10248 53.340435 4.2603612
140.18771 53.548615 -2.170464
157.75092 54.080627 3.4691319
157.53705 54.283016 4.5678682
144.41246 54.531204 4.7851238
157.34166 54.459602 -2.9682751
157.18188 54.762711 4.171432
140.21548 54.701145 -6.860909
144.11394 54.943085 4.7386971
158.22067 54.877632 -1.412927
156.98756 55.12228 4.5026808
157.82652 55.077412 -2.654887
156.85767 55.326359 4.1689138
156.56091 55.784599 4.557776
156.58943 55.766037 4.1794729
155.9599 56.674164 4.074964
155.81351 56.949932 4.1307058
155.58823 57.173187 4.6180029
155.6644 57.228367 4.0208111
156.73434 57.285732 1.948634
155.45355 57.527733 4.6139359
155.45459 57.533363 4.00986
155.18571 57.888336 4.856926
158.07593 57.871826 3.39692
155.02267 58.198532 4.5070119
154.73804 58.553215 4.689538
154.21626 59.428501 3.94962
