# .PCD v0.7 - Point Cloud Data file format
VERSION 0.7
FIELDS x y z
SIZE 4 4 4
TYPE F F F
COUNT 1 1 1
WIDTH 320
HEIGHT 1
VIEWPOINT 0 0 0 1 0 0 0
POINTS 320
DATA ascii
153.64404 60.370346 4.9378109
153.42267 60.691696 4.170362
153.19701 61.168427 4.918684
153.02213 61.370979 3.9923811
152.86201 61.631847 4.2906141
149.6198 61.747311 -1.8715889
152.69347 61.807636 4.280354
152.51407 62.148273 4.2699142
152.44481 62.149117 3.9565799
150.62192 62.085979 -1.866755
152.28609 62.448544 4.2562318
152.30118 62.658447 4.6790509
154.48651 64.238266 0.018323001
153.58101 60.381004 4.7655749
153.60907 60.436237 3.914561
151.01437 60.789772 -5.410213
150.59119 60.824738 -5.4269552
140.21263 61.381287 5.0687509
149.76144 61.573963 -2.1125791
150.28885 61.744026 -1.116654
149.77502 61.659447 -1.830826
149.55031 61.621887 -2.152631
150.09702 61.763718 -5.4405961
152.75882 61.86219 4.6034031
150.82433 61.936031 -0.22923601
150.73169 61.924583 -2.3014491
149.86195 61.93885 -4.1006899
150.90703 62.063721 -0.360614
150.5192 62.053284 -2.092814
152.49892 62.220802 4.2746921
141.09241 62.262871 1.894564
142.29059 62.224335 0.012641
143.3351 62.344631 -0.508991
141.59526 62.271828 -0.79468501
141.17374 62.326942 -3.3524611
152.26317 62.520439 4.256114
152.22495 62.57193 3.8940279
143.24255 62.460888 0.015024
142.62154 62.493942 -1.395793
143.64415 62.541344 -1.239539
141.92084 62.510818 -3.348619
144.17247 62.696716 -0.95635098
143.91545 62.679287 -3.3819799
152.00772 62.867317 4.4589429
141.25322 62.978783 -0.056396
144.11504 62.855988 -0.37800601
140.9548 62.947475 -1.071883
144.27151 62.894947 -1.0845079
140.83279 62.857674 -3.402189
141.93324 62.808308 -3.90289
140.65915 63.017147 0.76905102
140.50044 63.043594 0.17138299
140.74817 63.018257 -1.390542
154.74203 63.304337 -5.0487599
154.56552 63.379913 -5.4951172
140.76151 63.40107 -0.091706
154.63504 63.694038 -3.346555
154.59012 63.637756 -3.760366
140.30843 63.974926 0.50233799
140.22517 63.841602 -3.3687949
150.11046 64.082664 -4.0168829
150.98776 64.371811 4.551949
151.00255 64.471909 4.1995239
140.2697 64.557564 -2.4005499
142.35562 64.71286 3.7468381
150.08733 64.75016 -4.077559
142.6143 64.801559 4.1162562
156.37125 64.801239 -2.9806781
150.7403 65.136353 4.3671861
150.44308 65.354767 4.9472451
150.08577 65.385941 1.5855319
141.50325 65.263832 -1.481137
142.01892 65.21862 -1.827069
140.33266 65.485344 -0.99238098
142.67131 65.486771 -7.9264979
149.98289 66.125099 4.984138
140.98442 66.922432 -4.5785732
148.9615 67.482513 4.6355681
140.313 67.500854 -4.5789781
148.39095 68.366333 4.6402688
147.35226 69.909737 4.5926261
149.05969 69.860245 0.940126
149.05978 69.903366 -3.0030749
146.07245 72.137817 4.550539
144.14709 76.8946 -5.4082232
143.50854 77.865379 -5.1423049
140.85689 60.033493 4.8516998
153.7066 60.342449 4.8810039
153.62444 60.507675 4.7582979
150.8291 61.179081 -4.355679
148.2243 61.2253 -7.6315088
152.99167 61.467133 4.9091692
152.97862 61.522926 4.7340012
150.62555 61.436657 -3.802068
150.08167 61.719749 -1.414664
150.02182 61.765568 -1.611522
149.88022 61.764694 -5.5552821
150.57941 61.809605 -0.63928598
149.95215 61.842999 -3.8115001
149.51733 61.896172 -8.4816647
142.81172 62.156452 -0.067383997
141.87363 62.193649 -0.73437399
142.05934 62.173119 -0.92808503
150.81236 62.084473 -1.642404
141.63348 62.233658 1.923823
141.44052 62.305836 1.733386
140.43005 62.291328 1.5925879
143.52008 62.395226 0.34435901
142.0755 62.236237 -0.777165
141.74806 62.226883 -0.88996899
150.84914 62.284286 -1.127697
142.61815 62.242165 -3.344871
140.58086 62.423218 1.8654571
142.94675 62.406292 1.498948
142.51048 62.462257 0.27929801
141.59853 62.485695 -3.1032741
141.03471 62.544243 -3.3727629
142.24023 62.472691 -3.868217
140.18646 62.62682 1.575888
142.17009 62.752831 0.758834
141.47742 62.762024 -0.54811901
140.46426 62.894062 1.346473
140.8475 62.95192 0.68984002
144.11276 62.970016 -1.23546
143.7142 62.820606 -1.859095
142.04993 62.967422 -4.1282978
140.27806 63.011799 1.334554
140.94933 63.053246 0.25089601
151.88763 63.200726 3.825896
144.48344 63.494301 -0.62718302
140.23135 63.560638 -1.794567
140.90941 63.594803 -4.504921
144.14098 63.607491 0.350099
154.65555 63.893272 -1.396319
149.43234 63.883179 -4.2430429
140.69858 63.941727 -4.665359
144.93695 64.195396 0.528216
140.68094 64.043503 -5.299427
151.15411 64.298607 4.2070751
141.49396 64.398788 -2.186713
141.5667 64.409096 -1.437241
150.92909 64.489464 -3.0436699
142.50394 64.787415 4.1405768
151.34784 64.670006 -2.297925
141.84613 64.945221 -0.96019202
140.51743 64.825523 -4.333961
142.12392 65.087006 -1.5511661
150.36697 65.352684 4.6742301
140.32681 65.398499 -0.97227597
155.03864 65.276855 -3.0317791
141.75201 66.097107 -0.92367202
141.2912 66.671532 -1.062488
141.08737 66.775017 -4.5805988
149.41 66.968628 4.6673489
140.79211 66.966499 -4.517365
141.03159 66.924515 -4.8092108
140.61719 67.380577 -4.6485019
149.05528 67.445732 4.3336539
140.45207 67.585167 -6.1040449
148.6985 68.030586 4.6377192
149.10312 69.788864 0.64789802
149.26234 69.820854 0.79731202
149.24789 69.866875 -0.78619599
149.09094 70.09742 0.78049803
154.22409 70.164917 -4.1080999
142.71863 76.24498 0.25326699
143.92999 76.957352 -4.4243999
143.40335 77.825211 -5.513577
152.91603 60.217628 -8.4211159
153.57014 60.56612 4.7217789
153.64429 60.521564 4.0587459
153.39685 60.8414 4.9275532
153.36819 60.988941 4.5393381
153.12527 60.821537 3.872504
150.66269 60.926765 -5.0774951
140.16382 61.302868 5.3360639
150.58733 61.540253 -3.503624
150.63512 61.729218 -3.0708721
152.67833 61.902397 4.2780871
150.15445 61.861191 -3.4517341
142.9742 62.164379 1.39201
150.69708 62.070404 -1.841041
140.74696 62.23785 1.7428679
141.39778 62.247635 0.96043199
143.62332 62.394386 0.32989001
142.88812 62.386215 -0.85118699
142.07463 62.264549 -2.512315
141.48334 62.356537 -2.7871361
142.13451 62.218224 -3.069366
143.73174 62.417149 1.546173
141.07883 62.555412 0.82696998
141.28699 62.476093 0.75637197
143.82426 62.401844 -0.017386001
144.15054 62.559017 -0.0035999999
142.68579 62.417782 -0.734712
143.47385 62.527657 -1.112258
142.81819 62.442375 -1.386297
143.76421 62.596722 -1.6130691
141.03409 62.466267 -3.0281701
143.28075 62.512482 -3.3173621
140.16568 62.736168 2.0919769
142.12338 62.670525 0.93067199
142.24307 62.69326 -1.419489
142.59781 62.657047 -1.786346
143.31422 62.679317 -1.872475
143.85619 62.710262 -3.406904
140.17494 62.981915 0.74980998
141.27869 62.886055 -0.76378399
140.76457 62.960571 -2.133146
142.59132 62.849525 -4.189558
151.82642 63.101688 4.590395
141.05609 63.05809 -0.067420997
144.09363 63.084805 -3.327847
140.38763 63.366982 0.15589499
144.21973 63.251228 -0.63048601
140.76566 63.21579 -3.180562
155.71942 63.382462 -6.9578462
140.49838 63.626152 -3.2189491
154.57394 63.993595 -1.630705
140.61703 63.911312 -6.2310252
154.47517 64.17112 -0.27445599
144.9019 64.217796 0.37808299
154.2654 64.247856 -0.39263201
142.10469 64.215485 -5.2464218
150.61095 64.499496 -3.4569769
142.32872 64.784332 4.133822
142.27121 64.878769 4.1974769
150.63269 65.073975 4.5537839
146.50641 65.061333 -6.1862702
149.07693 65.509041 -4.8372111
154.90082 65.524292 -5.4731998
150.2374 65.779419 4.6335821
141.9005 65.760994 0.79156399
149.8956 66.093475 4.5918431
149.89685 66.247368 4.1501589
140.97438 66.28479 -4.4954438
141.00505 66.386604 -5.1827679
150.48468 66.471428 -5.8094811
140.90753 66.710243 -6.486732
149.53125 66.951843 4.31672
159.30443 66.858376 0.67896301
150.15292 68.41478 1.009575
148.66397 69.765862 -1.027467
154.84438 69.762436 -4.2341709
148.7569 69.888626 -0.35251501
148.54678 69.856796 -0.42629001
149.31129 69.841019 -1.0624321
149.07202 69.86647 -1.307664
152.32713 60.363853 -8.0544586
153.47525 60.725166 4.1116481
153.40854 60.766216 3.904274
153.20389 61.092403 3.893723
153.07251 61.324451 4.303154
153.03674 61.336426 3.9878399
152.89276 61.618065 4.2891698
150.81589 61.780472 -0.55138099
150.61853 61.68158 -3.337034
143.26405 61.970196 1.520672
150.6358 61.913597 -0.27459401
150.57082 61.95359 -2.45012
150.29881 61.91552 -3.1427519
150.11337 61.838108 -3.816242
152.50357 62.160339 3.9249051
150.82193 62.149513 -1.4177639
141.76047 62.187088 -2.6120319
142.58763 62.278881 1.698259
143.06488 62.218735 1.726706
143.72768 62.286606 0.49975801
142.48157 62.29073 -0.011637
142.52356 62.256729 -0.53587002
151.02151 62.262047 -0.58819699
141.60608 62.271439 -3.3376491
142.06 62.360008 -3.3336711
142.50076 62.250496 -3.604053
142.27667 62.410461 1.68466
143.02124 62.413715 -0.52349001
143.79919 62.584667 -1.096565
143.435 62.511581 -1.249005
143.05795 62.576378 -2.958967
140.7598 62.598721 -3.0485859
152.20886 62.605671 4.6670108
141.14252 62.606781 0.71229303
141.74164 62.735691 -1.023541
142.2373 62.728516 -1.680838
143.87785 62.697819 -3.1930971
142.23064 62.741463 -4.188817
141.483 62.878334 -0.87843502
140.65414 62.894409 -1.74262
140.91505 62.951492 -1.831792
141.7915 62.977917 -4.1926041
140.57693 63.115528 -3.389703
142.44887 63.11779 -4.5070229
151.82306 63.317436 5.0635018
151.69055 63.398743 4.4458051
143.05836 63.257637 -4.3668489
140.4568 63.588127 -2.4866951
140.22943 63.764595 -2.954438
141.11925 63.696144 -4.5036612
154.84433 63.695213 -8.63377
151.27612 63.970608 4.5657339
151.3759 63.988762 4.217494
140.37975 63.822266 0.14088701
142.5621 64.198517 4.2635789
142.5274 64.105286 3.8049941
140.74527 64.183525 -4.2704701
140.90268 64.11644 -5.0570011
142.58711 64.322968 -0.080729
140.87099 64.326118 -1.555751
150.25636 64.277702 -3.7401199
151.08278 64.427208 4.421021
149.96545 64.704971 -3.784699
140.40698 65.394135 -1.216911
154.92159 65.335922 -3.8931589
150.48239 65.413078 4.375546
150.21138 65.738495 4.2737098
148.69272 67.977448 4.6127129
148.3159 69.677628 -1.746645
148.11353 69.725311 -2.1690271
149.26614 69.940613 -0.36443499
149.0423 69.913757 -2.454073
