# .PCD v0.7 - Point Cloud Data file format
VERSION 0.7
FIELDS x y z
SIZE 4 4 4
TYPE F F F
COUNT 1 1 1
WIDTH 1512
HEIGHT 1
VIEWPOINT 0 0 0 1 0 0 0
POINTS 1512
DATA ascii
177.76184 -230.69016 -11.799919
163.93887 -230.70763 -12.325125
174.52316 -230.63669 -12.604825
166.13043 -230.75151 -12.940395
172.612 -230.7155 -15.386987
173.32379 -230.64784 -15.752532
165.46356 -230.52307 -4.3341012
160.23993 -230.40094 -7.4111042
162.79468 -230.44377 -7.5597768
161.02872 -230.55838 -8.2601051
160.76706 -230.50827 -8.9377232
161.0125 -230.48917 -8.8930845
165.08723 -230.4664 -10.195408
171.45297 -230.48293 -10.928272
170.9407 -230.41872 -11.576727
164.10799 -230.56232 -11.738091
164.19788 -230.57042 -12.599674
165.80403 -230.45595 -12.445777
164.29596 -230.26849 -6.3692179
164.22601 -230.26758 -6.9702039
161.19392 -230.39732 -9.2862968
162.07472 -230.22737 -9.3841524
165.31807 -230.27693 -9.3899364
174.52174 -230.22922 -10.589722
170.48517 -230.34351 -11.077152
168.84651 -230.34877 -11.488235
163.19839 -230.38315 -11.707325
167.93724 -230.28926 -11.889453
169.48547 -230.28271 -11.908472
163.92938 -230.21878 -12.508477
165.86386 -230.30872 -12.565248
179.64607 -230.38608 -15.638192
175.49124 -230.07593 -4.0633979
166.25481 -230.04715 -6.4329848
167.61349 -230.13318 -7.0925932
164.20111 -230.18521 -7.328104
166.27379 -230.09116 -7.5583282
165.8493 -230.19571 -7.7744198
161.39816 -230.14471 -9.3084059
161.21033 -230.01028 -9.6280003
172.45175 -230.15488 -10.089476
165.00983 -230.10149 -10.541168
165.09451 -230.09521 -10.962875
178.17111 -230.09708 -11.4627
168.91968 -230.12231 -12.280058
164.45712 -230.13989 -13.078351
166.22821 -230.16052 -13.450733
179.75618 -230.07358 -13.823539
165.36331 -229.89806 -4.5507841
165.55612 -229.8322 -6.3447342
163.36166 -229.84131 -7.7331748
175.09375 -229.89413 -10.24465
170.55856 -229.84091 -10.970384
174.53371 -229.8855 -10.940832
170.59846 -229.88324 -11.57755
170.56406 -229.81049 -11.668486
178.20203 -229.90549 -11.779631
163.68735 -229.81088 -11.849166
169.989 -229.96387 -12.076351
164.31148 -229.9631 -13.039278
165.74199 -229.89014 -13.191893
166.05859 -229.80074 -13.32448
164.7979 -229.80238 -13.45887
168.71246 -229.83469 -14.080988
165.34869 -229.92456 -14.27895
165.76802 -229.60263 -4.3242631
165.70654 -229.73776 -4.9644318
165.69739 -229.68445 -6.436295
166.41313 -229.71886 -6.6715689
166.2177 -229.78432 -7.546556
163.24918 -229.702 -8.6328325
161.40118 -229.71985 -9.1229935
173.69833 -229.63641 -9.5688372
172.16333 -229.61511 -10.451939
173.9754 -229.72749 -10.618942
174.12721 -229.70276 -10.641102
175.06633 -229.60933 -10.768759
178.4174 -229.74666 -11.292982
178.17441 -229.78784 -11.465488
170.08168 -229.76726 -12.033911
165.68011 -229.63718 -12.502481
164.47977 -229.75339 -12.639806
169.62999 -229.60249 -13.223809
168.77686 -229.64545 -13.400817
171.51071 -229.71851 -14.891781
166.12598 -229.50528 -6.4831061
164.74982 -229.4287 -7.11588
162.54837 -229.49673 -7.3754988
165.91428 -229.57162 -7.6034908
165.98824 -229.40791 -8.2237148
163.0856 -229.46133 -8.6973362
160.54321 -229.49977 -9.0465946
162.22931 -229.46393 -9.2494688
161.22934 -229.49406 -10.046807
174.36484 -229.53061 -10.255989
164.95857 -229.54669 -11.086647
178.31743 -229.46649 -11.395861
170.18549 -229.45908 -11.401579
169.87732 -229.56207 -11.984346
164.55093 -229.54401 -12.573381
165.41566 -229.47409 -13.82099
172.67143 -229.46101 -15.625188
164.9408 -229.39801 -6.499959
176.07126 -229.2827 -7.9611139
177.80356 -229.25555 -8.7653713
177.88605 -229.2361 -8.860383
161.42691 -229.32288 -9.166256
178.45027 -229.37015 -11.033494
165.48114 -229.24905 -12.980671
166.39035 -229.33121 -12.945282
166.56735 -229.21266 -13.061213
167.85428 -229.29688 -14.617484
170.61949 -229.29565 -15.404133
176.60648 -229.03677 -3.9997001
162.74373 -229.05437 -4.1809139
165.7498 -229.10782 -6.5190649
165.37549 -229.0784 -6.694654
166.66232 -229.16122 -7.1475248
176.00967 -229.02246 -8.0463896
177.84268 -229.05191 -8.7553482
160.72775 -229.08704 -9.4494858
161.48206 -229.07547 -9.5187216
171.15031 -229.17436 -9.4280996
161.08353 -229.15005 -9.7084217
172.19208 -229.13358 -9.8047094
171.05432 -229.08603 -10.122211
174.04216 -229.13005 -10.345369
174.6066 -229.03596 -10.974531
166.9043 -229.01378 -13.685569
170.74384 -229.15677 -15.217879
177.51465 -228.81433 -3.9615519
177.85529 -228.85114 -4.0786052
167.28653 -228.89761 -6.3412738
167.33601 -228.84203 -6.401752
164.60085 -228.98438 -7.251997
166.14737 -228.91342 -7.4008799
167.60709 -228.98935 -7.683435
174.85727 -228.91383 -8.4586172
160.88036 -228.94592 -8.9900408
161.70374 -228.9248 -9.5201187
161.33856 -228.98901 -9.6239586
172.87459 -228.92932 -10.25374
162.42508 -228.83539 -10.978752
169.85355 -228.80084 -11.2645
171.63756 -228.83328 -11.711761
169.15154 -228.82693 -11.806919
170.54594 -228.98532 -12.121213
170.90002 -228.9567 -12.014003
178.17662 -228.88048 -17.144676
178.19313 -228.84445 -17.321205
175.33122 -228.782 -3.9789619
178.7106 -228.67032 -3.9053421
177.78564 -228.66956 -4.074194
179.67046 -228.75705 -4.0647559
174.77171 -228.76814 -8.6003456
175.39447 -228.62723 -8.7213306
161.55855 -228.65253 -9.0585127
178.15965 -228.69237 -9.2001076
160.67418 -228.78601 -9.4266148
175.47632 -228.68259 -9.4806137
178.84479 -228.66193 -9.930706
178.7247 -228.62314 -10.114582
163.70895 -228.65924 -11.074306
169.42557 -228.63293 -12.174133
172.55234 -228.61618 -13.2307
165.75323 -228.68289 -13.482021
167.80536 -228.60025 -14.952616
178.56354 -228.60698 -16.287523
172.85088 -228.67525 -16.558161
178.53131 -228.76767 -16.469978
178.16264 -228.6871 -17.02721
177.81355 -228.47086 -3.9452679
166.45872 -228.4938 -4.1233368
176.22366 -228.46268 -4.0938792
176.5441 -228.56323 -4.1099
178.34506 -228.48787 -4.0598712
164.38895 -228.41154 -6.1003251
164.93942 -228.51477 -6.4621429
177.57239 -228.46129 -7.0797458
177.10507 -228.51602 -7.3746791
178.23849 -228.57053 -8.9703169
177.48438 -228.43518 -9.1215954
161.34253 -228.59875 -9.4696674
162.08266 -228.46814 -9.9063396
176.14502 -228.55957 -10.11985
174.22093 -228.56789 -10.625286
168.18745 -228.4937 -11.194601
169.17035 -228.55029 -11.767599
167.12733 -228.44876 -11.91387
171.42111 -228.5432 -11.86393
165.52362 -228.49106 -13.422689
178.61098 -228.42879 -14.210064
172.28625 -228.58624 -15.89586
177.99167 -228.56093 -17.092449
176.62398 -228.22357 -3.997962
177.41153 -228.36935 -3.9629829
162.58345 -228.39761 -4.0943131
167.5443 -228.30946 -4.1259198
171.96301 -228.25008 -4.1730509
177.54578 -228.23752 -7.04702
166.62585 -228.32245 -7.9368858
164.62453 -228.26178 -8.523201
177.83357 -228.37883 -8.8546314
173.71765 -228.22659 -9.5656872
162.41406 -228.27692 -10.371748
168.8757 -228.23224 -10.349211
162.50491 -228.22278 -10.894709
162.71843 -228.21167 -11.24971
172.60956 -228.2854 -11.420552
169.82571 -228.22702 -11.881645
179.61893 -228.22626 -12.107116
166.25583 -228.23386 -12.371305
166.02277 -228.21979 -12.61668
165.66144 -228.25113 -12.807955
166.56796 -228.23227 -13.051473
168.5618 -228.35423 -13.18815
165.40704 -228.3792 -13.272532
179.8988 -228.35049 -14.17123
173.81424 -228.33694 -14.242298
167.21219 -228.34364 -14.78049
168.49191 -228.2094 -15.126116
161.01581 -228.19957 -4.113924
163.87143 -228.17184 -4.1037169
166.25739 -228.13116 -4.1312542
164.21581 -228.03839 -8.1133575
164.32883 -228.12476 -8.2942114
160.70117 -228.1124 -8.6929874
164.67691 -228.11005 -9.1337404
164.84372 -228.04732 -9.0938873
179.24142 -228.19452 -9.2374573
161.73779 -228.15213 -9.4977007
163.74139 -228.1152 -10.49477
168.63779 -228.10542 -10.498295
163.12885 -228.02823 -10.603979
162.87613 -228.12973 -10.955154
174.54245 -228.09921 -10.883726
179.35687 -228.02548 -11.148492
167.03613 -228.09869 -11.483408
165.37563 -228.09038 -11.822277
169.8931 -228.19846 -12.577895
166.32526 -228.12357 -13.053077
179.74164 -228.15852 -14.471073
167.34335 -228.12659 -14.88899
175.44635 -227.93283 -4.0481148
176.95082 -227.99681 -6.9719458
165.11751 -227.8392 -7.8942118
165.06348 -227.90082 -8.1152506
164.29749 -227.84958 -8.3296728
179.90282 -227.83286 -8.2831039
164.3381 -227.89572 -8.4771338
164.60217 -227.9234 -8.460166
179.75455 -227.90433 -8.5274715
164.89134 -227.88895 -8.8273935
179.38098 -227.91904 -9.0025339
179.16644 -227.97813 -9.3714008
168.60097 -227.83498 -10.337771
175.38083 -227.91794 -10.612056
162.19418 -227.84763 -10.860095
174.34763 -227.87288 -11.051718
179.48801 -227.94986 -11.142837
165.27609 -227.8669 -11.571592
177.6748 -227.90704 -11.909149
170.69647 -227.89188 -12.648001
167.96295 -227.88141 -13.14042
167.73566 -227.84232 -13.375998
167.45505 -227.83167 -15.301153
170.94421 -227.88957 -15.569098
163.08998 -227.72684 -4.0562949
165.0638 -227.63666 -4.1337042
172.73631 -227.61807 -4.0340471
175.04845 -227.65669 -6.8722491
177.37521 -227.65491 -6.9565072
175.59087 -227.7914 -7.4506259
175.84491 -227.6714 -7.8336549
164.31401 -227.60114 -8.5541668
164.58981 -227.74246 -9.3142233
167.59985 -227.65779 -9.561141
175.41241 -227.69716 -9.7957249
179.74147 -227.62306 -10.032036
162.8806 -227.7771 -11.033991
173.11024 -227.73363 -11.273804
165.75937 -227.66251 -11.842419
171.31032 -227.71677 -11.860885
165.72629 -227.76411 -12.080353
165.39725 -227.6293 -12.282763
174.35785 -227.74898 -12.31767
166.2435 -227.77652 -12.940338
167.07846 -227.74049 -14.019974
172.89059 -227.74152 -16.357466
165.38509 -227.41939 -4.1279821
168.4709 -227.49034 -4.126791
175.06575 -227.45491 -6.8849869
175.00458 -227.54561 -7.5917101
174.88905 -227.53885 -7.6649561
167.63618 -227.43303 -8.4450321
168.31787 -227.47896 -9.8199015
175.38985 -227.48848 -10.148689
162.1685 -227.51221 -10.223937
168.11938 -227.45705 -10.519892
166.51523 -227.4458 -11.069485
171.20383 -227.44385 -11.652817
165.30701 -227.48216 -12.250708
174.63155 -227.47568 -12.255038
174.92398 -227.50049 -12.514814
176.93539 -227.4993 -12.418434
167.19888 -227.47691 -12.761976
169.41913 -227.40482 -12.716358
167.42865 -227.43677 -13.348711
166.77116 -227.53099 -14.858416
175.58998 -227.39145 -6.3626251
175.35172 -227.35452 -6.6029682
174.02794 -227.39975 -7.5680718
175.21005 -227.32454 -7.4279828
176.04895 -227.22047 -8.3267002
175.06044 -227.22859 -9.3957052
167.46863 -227.34131 -9.4734173
176.54942 -227.23509 -9.5493393
161.5195 -227.39905 -9.8388004
160.99448 -227.22073 -10.340796
167.78914 -227.39973 -10.282524
162.99438 -227.35899 -10.995226
167.81648 -227.22607 -10.89165
174.26649 -227.37196 -12.053734
175.39357 -227.20897 -12.110247
176.62375 -227.35136 -12.385406
165.94693 -227.36694 -12.609104
169.69708 -227.3938 -12.777869
179.85426 -227.31354 -13.247681
179.86526 -227.31793 -13.61898
173.88963 -227.24712 -17.49295
174.18556 -227.30499 -17.55962
175.44318 -227.16896 -6.694324
175.1868 -227.17677 -7.2173362
173.86649 -227.17969 -7.5452461
175.70172 -227.10266 -8.6123028
167.04129 -227.0631 -9.012289
172.94977 -227.05905 -9.163435
174.99413 -227.09029 -9.3866396
175.78156 -227.1188 -9.2606392
164.12582 -227.08725 -10.104538
161.09891 -227.09146 -10.373556
167.51854 -227.03464 -10.66744
172.02539 -227.04233 -11.181573
161.32993 -227.06075 -11.239883
165.46545 -227.04889 -12.242476
176.0972 -227.15858 -12.530203
167.01959 -227.16319 -13.052557
162.5567 -226.94896 -4.1144161
164.08594 -226.94302 -4.0918322
164.59726 -226.92987 -4.1213651
166.25906 -226.93915 -4.1111202
166.64609 -226.95175 -4.1151509
175.71539 -226.84108 -6.0486069
175.58101 -226.85504 -7.752418
176.79922 -226.81384 -7.7590981
167.30838 -226.85664 -7.8893561
174.27887 -226.92175 -7.9143281
175.8452 -226.94569 -7.8721681
167.27278 -226.85986 -8.5979919
161.31059 -226.95273 -9.4412727
167.61551 -226.93805 -9.4780569
161.17166 -226.91272 -9.8848705
174.81236 -226.9343 -10.481713
171.42229 -226.94493 -11.019464
164.69574 -226.84393 -11.21892
171.93616 -226.80299 -11.306362
162.0882 -226.90739 -11.75333
179.92218 -226.90369 -12.266993
164.57054 -226.93391 -12.62641
163.78485 -226.6748 -3.984401
161.07712 -226.64584 -4.140337
161.72801 -226.62018 -4.1604819
161.82062 -226.6217 -4.122942
162.14044 -226.63451 -4.1154938
163.82724 -226.71721 -4.074841
164.28482 -226.6741 -4.1032391
164.49722 -226.65115 -4.1163998
177.30753 -226.77145 -6.543725
175.56148 -226.69164 -6.6967239
167.17247 -226.71759 -7.4106622
176.84045 -226.7018 -7.5494671
175.53624 -226.76532 -7.890388
176.57945 -226.77441 -9.0568542
161.35728 -226.68112 -9.7559605
164.04013 -226.73639 -10.24222
161.50104 -226.78287 -10.989261
173.10754 -226.7869 -10.879282
173.66478 -226.61642 -11.405559
175.75446 -226.78227 -11.638229
176.17992 -226.65686 -12.333349
179.81429 -226.70865 -12.908463
170.5096 -226.43318 -4.0410938
175.77148 -226.42731 -6.2580628
175.71288 -226.58876 -7.33325
175.37238 -226.43417 -8.6870584
175.40778 -226.46176 -8.9556751
161.38617 -226.47577 -9.3525848
161.40292 -226.42773 -9.3513355
175.26727 -226.46582 -9.4266481
177.11073 -226.42136 -9.7523746
168.70015 -226.4769 -10.578278
167.7708 -226.5815 -10.673748
162.57745 -226.5536 -10.858279
167.48962 -226.54463 -10.956532
179.95724 -226.56561 -11.763792
166.72232 -226.44148 -12.107025
165.06668 -226.57303 -13.04257
173.74237 -226.51978 -17.537271
174.16522 -226.22713 -3.9350059
174.37936 -226.24268 -4.5060802
174.33217 -226.20456 -5.432498
174.53134 -226.2048 -5.625608
177.08994 -226.20505 -6.0953231
174.45837 -226.2908 -7.6095219
176.24597 -226.2621 -8.1857595
175.35631 -226.30338 -9.0806808
173.90482 -226.29559 -10.405693
162.25214 -226.29128 -10.888475
173.71082 -226.32114 -11.09149
174.26556 -226.2345 -11.527142
172.36371 -226.23172 -11.794297
164.60939 -226.23892 -12.566124
174.31615 -226.19087 -4.7224522
174.28456 -226.16446 -5.709044
175.96631 -226.1035 -5.8015332
177.0139 -226.06561 -5.9458251
175.13474 -226.06361 -6.7531819
176.52298 -226.08473 -7.7984452
169.50069 -226.09673 -10.634442
168.66553 -226.1711 -11.344255
171.98285 -226.0876 -11.245798
179.94971 -226.18533 -11.515806
172.54019 -226.1557 -11.685293
166.84824 -226.04056 -12.381504
170.70282 -226.16985 -12.804048
164.59753 -226.13757 -13.025789
179.15591 -226.09132 -13.001303
171.65082 -226.0132 -13.386039
177.19855 -226.17493 -14.776821
177.11398 -226.10126 -14.986563
171.58104 -226.18916 -16.192253
179.63419 -226.1004 -18.714083
169.35588 -225.81786 -3.836936
175.15158 -225.86752 -4.1219349
174.2468 -225.82779 -4.2347922
176.48691 -225.85773 -5.0336161
176.45999 -225.82556 -5.2053051
174.87694 -225.91187 -5.480608
176.03134 -225.96277 -5.7716279
176.29156 -225.9119 -6.7475238
176.46237 -225.92404 -7.0897999
176.42281 -225.96808 -7.2002659
176.07671 -225.94798 -8.0362806
163.81367 -225.83832 -10.568332
169.02675 -225.85201 -10.916766
167.90237 -225.82637 -11.178072
172.7005 -225.82144 -11.620493
166.46077 -225.80206 -12.158375
176.35643 -225.85533 -15.389695
179.88095 -225.84302 -18.881153
162.9799 -225.75636 -3.929275
168.06519 -225.73132 -3.917444
174.25293 -225.62779 -4.159225
175.23306 -225.77104 -4.0414038
174.43938 -225.76445 -5.0365992
176.14374 -225.7636 -5.4027481
168.36935 -225.63751 -10.171298
168.57706 -225.67705 -10.293644
168.65823 -225.68903 -10.637995
179.93008 -225.76372 -10.707224
179.79453 -225.76373 -11.028265
176.67581 -225.75966 -15.40118
167.92909 -225.54938 -3.8269219
173.79056 -225.5867 -4.0472379
176.61209 -225.52261 -4.8329902
175.806 -225.46985 -5.7194929
175.97162 -225.43527 -6.6154432
176.02515 -225.42134 -6.7205529
175.85542 -225.42255 -7.3425412
175.5334 -225.40605 -7.7180738
178.07504 -225.55775 -7.9765949
178.65265 -225.46222 -8.9574528
176.4068 -225.54956 -9.005209
178.63947 -225.44029 -9.2790108
176.24222 -225.40216 -10.558227
168.88403 -225.42258 -10.956837
172.96346 -225.43338 -11.662592
163.91623 -225.40921 -12.187563
164.1255 -225.47552 -12.354467
170.00586 -225.54944 -15.566167
170.35603 -225.36427 -3.8463061
170.83905 -225.38788 -3.982724
175.97549 -225.3746 -6.8771558
176.54846 -225.3981 -7.747508
176.55779 -225.37244 -8.1708546
175.09186 -225.28162 -9.3537455
174.07338 -225.27409 -9.408658
177.08371 -225.30243 -9.5789261
168.19072 -225.38544 -11.135791
164.13123 -225.31711 -11.693693
170.26703 -225.23505 -11.608883
166.45563 -225.39972 -12.291424
167.93942 -225.27551 -12.294532
171.31184 -225.32886 -12.608946
170.54987 -225.32706 -14.620013
170.16318 -225.34259 -15.961544
167.81331 -225.1951 -3.8002429
176.5336 -225.03018 -5.3859911
177.07144 -225.186 -5.2117019
178.49702 -225.02957 -7.8266578
175.08432 -225.05424 -8.3919811
168.66031 -225.0347 -9.7839651
168.37572 -225.17984 -10.07815
163.43445 -225.03937 -10.660896
176.19093 -225.05867 -10.701729
164.50558 -225.14078 -11.098604
168.03564 -225.17271 -11.272534
168.81894 -225.14418 -11.271996
166.80087 -225.15585 -11.403774
168.23511 -225.11082 -12.193308
170.33185 -225.04079 -12.388632
176.7305 -225.01123 -13.807358
170.13448 -225.08047 -15.429319
171.90395 -225.0173 -15.82275
169.07312 -224.9019 -3.767487
176.25992 -224.86765 -4.3133721
176.51308 -224.92737 -4.280601
176.33374 -224.84711 -6.0654349
172.34686 -224.86856 -10.229351
164.52856 -224.92096 -11.318165
170.62669 -224.96567 -11.285105
166.17085 -224.8569 -11.823572
168.44771 -224.9819 -12.043386
179.75932 -224.94231 -12.183762
170.60236 -224.95628 -12.326859
166.67694 -224.95319 -12.473385
168.10661 -224.93477 -13.323965
171.83621 -224.95409 -13.865314
169.83839 -224.76901 -3.7498579
175.98332 -224.73595 -6.1043701
176.31349 -224.65735 -6.1530089
175.26703 -224.67506 -6.8574829
167.9493 -224.62546 -9.7881069
177.19644 -224.68048 -10.081752
165.80875 -224.7504 -10.842329
165.94395 -224.64027 -11.449731
166.65921 -224.72687 -13.079136
167.7699 -224.7921 -13.196375
170.10501 -224.65237 -15.445601
176.33081 -224.52829 -3.9447949
178.57007 -224.42796 -4.0251789
178.85855 -224.47382 -8.6490116
173.43777 -224.56703 -9.4687357
164.33093 -224.55963 -10.925718
170.16089 -224.40576 -10.997114
170.11978 -224.50797 -11.365091
173.89713 -224.40726 -11.233637
171.6265 -224.43254 -11.843579
167.55998 -224.56776 -12.049511
169.08885 -224.58315 -12.169806
175.55687 -224.5065 -12.590923
168.42375 -224.54218 -12.781775
170.25632 -224.26492 -3.753675
171.33234 -224.20303 -3.8490081
179.90417 -224.2973 -3.983742
176.61378 -224.23656 -6.9343472
176.09534 -224.21983 -7.091516
167.86279 -224.21501 -8.2598324
176.02222 -224.24915 -8.8261108
167.97726 -224.25679 -9.8233414
170.1904 -224.21568 -10.897564
171.3894 -224.29623 -11.35277
166.05742 -224.21411 -11.68369
169.6424 -224.35808 -11.633095
176.96053 -224.23335 -11.644642
179.50235 -224.20985 -12.547895
166.23712 -224.2841 -12.969885
170.65808 -224.16077 -3.752434
168.81897 -224.19643 -3.8111169
173.12917 -224.14095 -3.903497
176.0314 -224.02188 -6.3575759
179.93054 -224.03455 -8.0220127
167.80936 -224.18272 -8.6875763
175.88411 -224.12811 -8.6401463
168.04648 -224.12506 -8.9763956
172.88773 -224.10208 -9.3079624
168.56177 -224.04581 -9.5330524
171.83676 -224.12141 -9.5043402
171.94746 -224.01483 -9.631669
168.55052 -224.18665 -10.679967
166.83203 -224.04582 -12.53891
175.27484 -224.15781 -13.386523
174.77818 -224.08339 -13.4994
169.76753 -224.08572 -15.370497
160.14203 -223.8555 -3.7238641
179.80194 -223.90842 -4.109839
175.70612 -223.91263 -7.105855
176.8898 -223.87411 -7.0996909
167.81198 -223.96428 -8.1627522
178.01654 -223.99214 -8.1880636
177.67004 -223.82755 -8.2159595
179.01794 -223.9287 -8.240984
167.75607 -223.94786 -8.6509562
175.32558 -223.80705 -8.8288212
168.17229 -223.84885 -9.3158321
163.86107 -223.82501 -10.548401
170.91386 -223.84114 -10.728663
166.68935 -223.82344 -12.106612
176.04333 -223.88663 -13.465572
169.69151 -223.90913 -15.35165
168.99579 -223.75464 -3.699506
176.47372 -223.71915 -3.6733069
172.95271 -223.67876 -3.8292639
175.48433 -223.70062 -7.7302098
176.37468 -223.65588 -8.7252827
168.46732 -223.68181 -9.5461407
173.87843 -223.72375 -9.7338381
177.71748 -223.60416 -9.6021271
177.31992 -223.75256 -10.341703
169.10913 -223.6662 -10.566232
177.52158 -223.62738 -10.611814
165.39441 -223.67459 -10.857407
174.87985 -223.70815 -11.252298
166.88193 -223.77673 -12.25942
166.57816 -223.68411 -13.47404
171.8679 -223.6593 -16.598652
161.0578 -223.4303 -3.709203
178.506 -223.40208 -3.780232
173.10031 -223.43999 -3.805243
177.55771 -223.46472 -6.7288022
176.85342 -223.59485 -7.5048761
172.55637 -223.45868 -8.3962193
179.97424 -223.52115 -8.4371586
171.37497 -223.52155 -9.2449188
171.63266 -223.44519 -9.4512539
169.17784 -223.51375 -9.8864021
163.73323 -223.5659 -10.433601
177.89699 -223.59438 -10.425127
174.98285 -223.55809 -11.046343
170.11324 -223.51828 -11.510995
168.31755 -223.48395 -13.714878
164.61691 -223.21339 -3.697835
167.80986 -223.30603 -3.7235751
175.77655 -223.2619 -3.7046871
177.65729 -223.31898 -6.7274652
177.41388 -223.34772 -7.123775
167.68994 -223.24203 -8.1041756
168.39221 -223.20157 -8.5519695
171.22791 -223.3331 -8.5588417
177.15248 -223.31665 -8.5115147
167.49698 -223.30649 -9.3823795
167.51567 -223.32971 -9.4885826
163.59254 -223.2012 -9.7358284
167.78564 -223.34253 -9.6897945
169.80699 -223.37918 -10.077815
169.35965 -223.39934 -10.574014
165.47839 -223.29927 -11.785704
165.90637 -223.36139 -11.725815
166.1077 -223.29793 -11.873571
167.55765 -223.29047 -12.938391
161.2103 -223.30612 -14.377972
173.48796 -223.02873 -3.796279
178.67398 -223.02441 -6.3176661
179.38139 -223.12042 -7.7663078
174.95665 -223.03986 -7.894228
172.4277 -223.15729 -8.3534098
175.22333 -223.19211 -8.2055359
177.20909 -223.14796 -8.9336033
178.26004 -223.13628 -9.1313934
168.53716 -223.13409 -10.068996
170.01907 -223.08615 -10.1872
169.74026 -223.00015 -10.475187
165.77226 -223.08998 -11.547295
175.13544 -223.10542 -11.553668
165.95877 -223.10788 -11.726538
166.08893 -223.05103 -12.04841
166.49733 -223.06898 -12.461734
160.58707 -223.14377 -13.784412
162.56439 -223.03719 -13.641727
167.57611 -223.19777 -13.77142
169.43152 -223.13428 -15.177757
170.21323 -223.11076 -15.34952
178.82578 -222.94179 -6.015223
177.99002 -222.92862 -7.2240601
177.05315 -222.8295 -7.966063
174.56522 -222.93201 -8.0683413
177.23021 -222.96031 -8.1268787
167.64456 -222.93991 -8.2844839
178.73439 -222.93451 -8.4824448
177.9126 -222.87399 -9.3372068
168.30064 -222.92839 -9.6776304
168.93411 -222.92268 -10.413027
162.22836 -222.89525 -11.529385
175.12581 -222.86087 -11.604443
173.68756 -222.86147 -12.073126
168.34586 -222.82837 -12.215885
161.2697 -222.86928 -13.34236
162.73317 -222.87437 -14.037554
169.13316 -222.96631 -14.173298
169.75285 -222.95787 -15.353232
171.76065 -222.97704 -15.648281
170.57256 -222.88139 -16.076193
170.2637 -222.6597 -3.588346
165.37694 -222.74173 -3.7759571
175.45732 -222.65543 -3.7550509
178.15063 -222.68349 -3.6957231
178.86772 -222.69705 -7.7875152
167.59784 -222.77127 -7.922616
177.42938 -222.62875 -8.0893173
179.69113 -222.70624 -8.2450933
162.33765 -222.6738 -9.5229321
169.72379 -222.70395 -9.9537182
162.81926 -222.6667 -10.063723
160.11502 -222.74187 -10.335175
161.75221 -222.71619 -10.333122
177.6989 -222.73749 -10.592859
173.08235 -222.61095 -12.050273
169.57718 -222.64543 -14.993434
169.54379 -222.6152 -15.246113
160.18018 -222.4646 -3.6703291
160.44739 -222.51514 -3.711164
178.66539 -222.4321 -3.67839
161.58342 -222.43225 -6.5596628
176.4827 -222.53612 -6.7998018
177.81473 -222.53479 -6.9502101
167.46927 -222.50969 -7.0780349
176.93639 -222.4588 -7.1847219
173.86374 -222.42488 -7.8914309
177.14423 -222.58365 -7.9840488
178.54622 -222.46216 -7.8009348
169.06773 -222.55676 -9.319582
175.42969 -222.43225 -9.272007
168.86401 -222.43207 -9.714138
179.66382 -222.5213 -9.7793446
179.37354 -222.50865 -9.8517647
161.52963 -222.50555 -10.494114
166.69713 -222.47383 -11.34149
162.23697 -222.45488 -11.822295
167.42853 -222.49394 -12.016345
171.30441 -222.4691 -12.006643
174.69174 -222.42761 -13.496562
161.42065 -222.49979 -13.664467
168.75301 -222.49557 -14.642767
169.89517 -222.54465 -15.749403
168.40277 -222.29895 -3.7527599
176.02692 -222.27443 -3.8042991
177.94212 -222.38972 -6.751483
176.26108 -222.21725 -7.3503928
168.21762 -222.22743 -7.9980912
178.32573 -222.30273 -7.95121
178.18155 -222.22632 -8.0452433
161.73512 -222.24883 -8.5254431
167.8103 -222.28891 -8.6745739
177.25143 -222.24637 -8.7869434
168.68817 -222.20578 -8.8549089
168.39514 -222.21149 -9.7004824
167.38583 -222.32034 -11.778589
172.53757 -222.26584 -11.893304
172.31879 -222.29105 -12.152244
160.68474 -222.35617 -12.285786
161.12177 -222.31007 -13.611441
169.40456 -222.22652 -14.111259
169.798 -222.2933 -14.074577
169.92934 -222.25729 -16.033806
171.86017 -222.17027 -3.508528
161.5007 -222.084 -3.759223
161.69481 -222.1776 -3.758347
176.76805 -222.18875 -3.742902
176.47729 -222.13809 -6.5568662
176.4729 -222.02902 -7.2459178
177.75534 -222.08156 -7.616528
161.83652 -222.08121 -7.8655849
168.53041 -222.18434 -8.6752195
169.22528 -222.1772 -9.3347721
160.17395 -222.11311 -9.6600199
164.55795 -222.1721 -9.7595558
163.78345 -222.15506 -10.191921
161.96823 -222.01315 -10.672943
163.1011 -222.17117 -10.945576
165.3461 -222.13966 -11.228852
162.42171 -222.12408 -11.456956
171.51428 -222.1011 -11.733471
160.0712 -222.13251 -11.867886
171.75114 -222.15344 -11.800209
161.6391 -222.15712 -12.09866
166.08945 -222.01604 -12.061792
171.3792 -222.13997 -12.113431
161.38037 -222.13876 -12.622577
173.99081 -222.11823 -12.644057
175.46442 -222.17334 -13.092419
171.67361 -222.01776 -13.590986
169.55939 -222.1228 -14.69281
176.62251 -222.18073 -17.545332
176.20401 -222.11351 -17.667122
168.35237 -221.82997 -3.5023701
166.18108 -221.84062 -3.6168411
178.18864 -221.96198 -3.8263149
177.97656 -221.9787 -6.4503312
178.1051 -221.82635 -6.8652139
179.29857 -221.8708 -7.2604642
177.79138 -221.81532 -8.2336264
161.73495 -221.96785 -8.426693
161.31328 -221.84036 -9.5124168
168.67854 -221.86246 -9.6749754
179.02405 -221.8822 -10.792784
160.33211 -221.82339 -11.127804
166.98691 -221.84601 -11.07213
162.29977 -221.89648 -11.417315
171.39116 -221.88239 -11.719153
174.35022 -221.90805 -11.76211
170.24625 -221.81937 -12.205426
160.20715 -221.83353 -12.714281
160.23886 -221.82068 -12.868685
167.67625 -221.91655 -13.14823
171.79935 -221.89438 -15.112234
170.38239 -221.98586 -15.213155
169.26584 -221.80571 -15.684465
178.84328 -221.93904 -16.994818
170.18739 -221.76974 -3.4994919
160.17502 -221.61275 -3.7364841
160.31097 -221.7318 -3.746479
160.53284 -221.71017 -3.6913149
160.83417 -221.72824 -3.7727971
161.29623 -221.73671 -3.734128
161.17026 -221.79663 -6.680027
177.43854 -221.72893 -6.925281
177.70471 -221.72743 -6.8288651
160.96802 -221.69405 -7.0452099
168.95892 -221.70319 -7.087707
179.27377 -221.67781 -7.1844888
160.17603 -221.6033 -7.3070168
177.62192 -221.67807 -7.5421252
162.26604 -221.78989 -7.7002192
177.521 -221.67905 -8.2370386
160.36667 -221.67935 -8.6823473
168.70021 -221.63635 -8.986825
161.90158 -221.74504 -10.170369
161.27235 -221.64764 -10.873325
171.15527 -221.60225 -11.481688
171.31638 -221.65903 -11.506129
161.07689 -221.77261 -11.849184
164.23473 -221.75378 -11.802408
169.12381 -221.76807 -14.087816
169.31796 -221.77803 -14.973495
176.79691 -221.70671 -16.14085
172.58 -221.75934 -17.248755
173.01892 -221.44374 -3.7165971
161.32529 -221.43967 -3.9619639
161.30664 -221.44516 -4.0201101
161.30823 -221.40811 -4.5541182
160.88322 -221.4498 -5.2942352
161.25807 -221.42787 -5.7530651
161.31508 -221.4917 -6.1200018
160.74911 -221.42693 -6.7314701
161.62721 -221.59109 -6.6454601
177.62305 -221.50185 -6.788486
177.45128 -221.42398 -7.0309601
160.0636 -221.55357 -7.3813372
177.34874 -221.49446 -7.4918218
168.37659 -221.45612 -8.3236008
168.27481 -221.44147 -8.538044
177.31851 -221.44138 -8.7453365
162.08795 -221.57809 -9.7821331
160.05005 -221.58231 -10.013809
161.36572 -221.43645 -10.28089
165.69745 -221.42935 -10.274288
161.1414 -221.41948 -10.539005
165.73486 -221.52231 -10.450518
179.39836 -221.51128 -10.581057
179.67654 -221.47423 -10.557815
160.33827 -221.42513 -10.661953
176.24637 -221.58968 -10.975581
179.0842 -221.4223 -10.817361
164.51784 -221.47807 -11.268587
161.47377 -221.51248 -11.426554
173.37335 -221.47696 -11.51475
175.60542 -221.55807 -11.601946
171.63863 -221.54755 -11.803488
169.62439 -221.53017 -15.339027
178.49205 -221.28094 -3.7838161
160.76176 -221.31161 -5.3772368
160.95163 -221.32942 -6.158936
161.08492 -221.27325 -6.0175552
160.90788 -221.23766 -6.278913
160.9245 -221.33826 -6.6845789
177.41061 -221.29385 -6.7457509
160.8636 -221.36554 -6.9220939
161.49651 -221.38042 -6.8954382
160.70609 -221.33508 -7.823411
161.53864 -221.3235 -8.1635704
160.83551 -221.36285 -8.2330551
169.02759 -221.34509 -8.2403545
160.76132 -221.34845 -8.5741386
161.69423 -221.35484 -8.5370693
169.29807 -221.28488 -8.4711046
168.98743 -221.27881 -8.6862059
160.89786 -221.35489 -9.6316795
160.76605 -221.3522 -9.8717251
166.05975 -221.37054 -10.147406
162.15071 -221.31778 -10.202628
169.49022 -221.38116 -10.521012
164.58884 -221.36438 -11.126747
173.55298 -221.37463 -11.114181
167.45155 -221.2547 -12.2572
167.59848 -221.25816 -12.648008
169.39362 -221.34943 -13.062223
170.35617 -221.20908 -14.314013
169.34723 -221.32024 -15.047955
176.17252 -221.36136 -15.991013
177.87363 -221.34953 -17.552242
177.99875 -221.24832 -17.639145
172.77795 -221.13757 -3.3937211
169.79649 -221.13893 -3.499629
170.6552 -221.01202 -3.4201801
160.28787 -221.013 -3.6417379
176.6842 -221.19861 -3.6329789
178.49084 -221.10304 -3.79722
177.25046 -221.14601 -3.8108339
160.77905 -221.13904 -5.1608982
161.05734 -221.15152 -5.9147248
160.93584 -221.11606 -6.1628909
161.08688 -221.12468 -6.590477
160.74934 -221.15829 -6.6985688
160.84576 -221.13222 -6.691165
160.56604 -221.10101 -7.469748
161.00209 -221.18724 -7.785605
160.36118 -221.0607 -7.9256411
160.19003 -221.00406 -8.6113071
169.08011 -221.05685 -8.6875134
177.12244 -221.12991 -8.8793612
177.33496 -221.13745 -8.9839249
169.62976 -221.02921 -9.1718721
162.10948 -221.1286 -10.329024
167.50659 -221.13214 -10.765337
178.76602 -221.18564 -10.775158
167.51649 -221.10062 -10.871663
177.5755 -221.18979 -10.875488
160.30479 -221.07773 -11.310512
162.06758 -221.16179 -11.350676
172.97589 -221.05614 -11.437787
164.21286 -221.16794 -11.738104
169.30066 -221.08823 -13.047272
168.49832 -221.05351 -13.989463
169.88608 -221.10001 -14.12784
177.13327 -221.00662 -16.260777
172.43321 -221.01257 -16.931356
174.65155 -221.01237 -17.135687
178.1806 -221.08415 -17.375511
160.3755 -220.81633 -3.5929551
166.283 -220.81609 -3.5854981
167.20416 -220.89026 -3.5230711
179.23361 -220.99846 -3.7434399
160.76056 -220.90427 -3.9236929
161.02737 -220.83505 -3.9666951
161.2774 -220.9258 -5.6574788
176.65543 -220.92728 -8.8522453
174.10945 -220.94562 -10.194464
161.88814 -220.80714 -10.20509
168.97354 -220.92105 -10.283827
179.40051 -220.85516 -10.48105
172.87793 -220.97577 -11.115479
170.66699 -220.96158 -11.355615
169.1525 -220.90422 -12.561386
168.07172 -220.87282 -12.753774
167.72379 -220.9603 -12.917103
167.9066 -220.97601 -13.446272
168.82698 -220.80721 -14.254181
168.50696 -220.93294 -14.547895
163.96921 -220.80763 -14.780348
176.77716 -220.80113 -15.693192
179.6778 -220.8465 -16.34285
160.90726 -220.66037 -3.8001051
161.70413 -220.60468 -7.554306
176.47287 -220.72588 -8.8216991
162.76236 -220.76311 -10.447917
166.77876 -220.66418 -11.228728
170.47665 -220.72293 -11.324961
161.42523 -220.78893 -11.47621
165.78133 -220.76688 -11.627251
174.61488 -220.75363 -11.781235
175.04108 -220.66965 -11.892399
169.19736 -220.69943 -13.969627
160.72403 -220.72272 -14.295404
160.78514 -220.69046 -14.487911
170.53241 -220.43738 -3.3314459
164.83925 -220.55095 -3.5064321
161.47505 -220.51817 -3.7747149
174.56941 -220.55679 -3.738961
174.85745 -220.48528 -3.6638451
160.79965 -220.4749 -5.2611008
160.9725 -220.45029 -6.9630151
169.27829 -220.58752 -8.342371
176.47113 -220.59142 -8.5702648
172.19824 -220.41071 -10.092262
160.58507 -220.46724 -10.339451
160.31966 -220.44815 -10.547777
172.60204 -220.49811 -10.703062
171.03741 -220.49658 -11.289766
170.2765 -220.45071 -11.413578
167.57462 -220.40173 -11.939091
161.45775 -220.44862 -12.302498
165.02673 -220.40233 -13.432688
167.51556 -220.45479 -13.708158
167.79321 -220.51895 -14.918947
178.50209 -220.51068 -16.029953
172.61742 -220.25604 -3.2952361
160.92964 -220.26855 -5.951488
161.00729 -220.31989 -6.4808731
177.52928 -220.21048 -8.3585987
176.6691 -220.3472 -8.4110355
177.54517 -220.2522 -8.4868698
174.52554 -220.20131 -9.3367634
160.32086 -220.246 -11.337849
164.55014 -220.24448 -11.557358
175.65187 -220.27794 -11.591945
161.38486 -220.27338 -11.939455
160.53668 -220.34128 -12.143605
161.27823 -220.27654 -12.130743
161.33003 -220.3425 -12.55272
160.30597 -220.21231 -13.540745
160.56848 -220.36989 -13.48841
167.7019 -220.28561 -13.429944
170.42807 -220.36067 -13.884699
162.27573 -220.20366 -14.063223
168.22229 -220.24973 -14.585881
168.59521 -220.37204 -14.62579
176.42316 -220.36276 -16.143723
178.16968 -220.22252 -16.532339
171.37166 -220.22389 -16.875393
174.46588 -220.34138 -17.03632
176.99298 -220.23784 -17.442636
169.4751 -220.09918 -3.3097539
164.98119 -220.08945 -3.500407
165.4379 -220.0741 -3.452724
166.19629 -220.15834 -3.463125
161.00195 -220.16054 -6.919106
160.79118 -220.12073 -7.3653712
174.72372 -220.15691 -8.3185806
174.59247 -220.10869 -9.0755215
160.97231 -220.19427 -9.712326
168.42763 -220.15564 -11.561968
168.28369 -220.14081 -11.77667
176.67587 -220.16399 -11.626853
161.14349 -220.15964 -12.216714
162.76529 -220.1701 -12.348146
168.94724 -220.09579 -12.322464
162.92566 -220.18343 -12.521317
174.79353 -220.09938 -12.799501
179.54156 -220.05608 -13.672586
168.6915 -220.18584 -14.081231
179.8817 -220.19214 -14.098974
170.92757 -220.11208 -14.297899
179.2894 -220.0101 -16.338621
160.52769 -239.88641 -4.444489
166.1882 -239.85231 -4.4382739
167.0295 -239.93852 -4.4330769
171.31448 -239.91229 -7.4776731
174.00404 -239.9572 -9.3647623
167.79544 -239.89697 -9.4411726
164.97299 -239.95874 -11.699608
162.82843 -239.86192 -12.836482
168.51733 -239.92186 -13.062068
170.42671 -239.97816 -13.430645
170.0303 -239.92627 -13.882425
169.36389 -239.8837 -15.418072
164.13306 -239.62184 -4.3947968
162.35265 -239.71281 -4.4085908
173.43489 -239.77061 -7.2743268
167.91216 -239.67001 -10.224444
168.02008 -239.66225 -10.302153
163.76767 -239.77563 -10.72242
164.07007 -239.71112 -10.717005
168.22711 -239.64154 -10.915834
171.2345 -239.66161 -11.926511
168.14052 -239.71983 -12.583961
168.43649 -239.71753 -12.757277
172.27325 -239.67638 -12.869485
169.8606 -239.75162 -13.394717
168.6552 -239.79752 -14.579706
168.9877 -239.76949 -14.553421
168.74039 -239.6674 -14.979299
169.06927 -239.73074 -15.890474
171.7532 -239.53098 -7.5221858
173.71979 -239.57504 -7.6212049
170.9534 -239.48865 -9.083416
168.04144 -239.53345 -10.263721
164.39165 -239.56052 -10.886324
164.56741 -239.42847 -10.886045
168.4707 -239.49176 -12.654341
167.34885 -239.55168 -13.195878
166.95065 -239.44423 -13.334299
167.35597 -239.44733 -13.250134
165.91246 -239.53122 -14.333352
169.79745 -239.47803 -14.238613
169.44077 -239.47215 -14.572301
169.36719 -239.5665 -15.818199
168.29422 -239.56277 -16.289921
167.97047 -239.4695 -16.874388
162.72064 -239.35588 -4.396441
172.19391 -239.34866 -7.934413
167.26857 -239.31866 -12.411285
171.25632 -239.32819 -12.855032
172.27866 -239.35152 -13.355296
170.3168 -239.36331 -13.716876
166.51454 -239.23521 -14.252375
169.04181 -239.22252 -14.645929
172.09087 -239.18073 -6.746232
172.23705 -239.10785 -7.930954
173.15254 -239.06445 -9.3139505
168.95815 -239.07111 -11.326277
170.93816 -239.08904 -11.890148
171.66847 -239.12767 -11.972523
163.54828 -239.18509 -12.101711
167.87079 -239.01373 -12.709207
170.97177 -239.09335 -13.036016
174.44492 -239.15041 -13.086653
166.34534 -239.07208 -13.706342
170.10143 -239.0127 -14.146834
168.85669 -239.06824 -15.605352
173.95006 -238.90775 -9.7525606
173.05092 -238.89636 -9.9048462
173.03848 -238.9848 -10.107735
174.57678 -238.8327 -10.980343
167.92398 -238.93553 -12.928801
167.05418 -238.98529 -13.86529
174.63879 -238.99319 -14.801025
166.76028 -238.93196 -15.75495
164.9603 -238.60593 -4.3306098
174.16455 -238.65445 -9.635829
172.60059 -238.76128 -11.414209
170.35115 -238.66602 -11.651236
170.53729 -238.67032 -11.760805
162.97736 -238.67133 -11.875533
173.07141 -238.73039 -12.188148
169.4776 -238.69501 -12.303967
171.09912 -238.61505 -13.536478
168.61588 -238.78226 -15.543625
161.71141 -238.47009 -4.4360242
173.84422 -238.5667 -9.2412367
174.16008 -238.47684 -9.3265438
172.29813 -238.41977 -10.284678
173.02242 -238.49434 -10.427568
169.46396 -238.52859 -12.491795
170.13171 -238.57695 -12.466663
167.52963 -238.5041 -13.043674
171.78778 -238.57564 -13.331176
168.04358 -238.59346 -14.929419
167.89905 -238.53622 -15.348714
166.4783 -238.55649 -15.439802
160.1756 -238.29828 -8.2971535
174.07805 -238.31232 -9.3471699
172.54277 -238.25063 -9.927227
172.25394 -238.25948 -10.234121
170.6248 -238.21936 -11.141164
161.92842 -238.37158 -12.345194
167.4841 -238.32536 -12.470117
167.94699 -238.26968 -13.383348
167.25565 -238.22754 -13.699289
174.47643 -238.34001 -14.066917
161.77409 -238.36243 -14.890567
167.61293 -238.21423 -15.221073
162.68546 -238.08252 -4.3940911
173.90778 -238.15012 -8.9547405
174.99408 -238.14194 -10.409992
173.93793 -238.00108 -10.849017
170.9176 -238.07169 -12.196476
162.93813 -238.19788 -12.441122
167.851 -238.19345 -12.620662
172.40498 -238.01772 -12.890226
169.77127 -238.05701 -13.319713
167.07498 -238.07565 -13.523733
168.66545 -238.02658 -13.598877
165.39796 -238.03432 -13.911016
168.51733 -238.104 -13.895936
168.19165 -238.17352 -14.047554
168.87579 -238.04539 -15.186771
162.88461 -237.80905 -4.3876362
174.75415 -237.81241 -9.3696651
174.82736 -237.80975 -9.3391132
172.59846 -237.91924 -10.136271
173.88254 -237.82709 -10.719313
170.61627 -237.90315 -11.124365
167.70973 -237.8692 -14.922968
168.23093 -237.80139 -16.705669
167.90971 -237.88712 -16.925625
174.9343 -237.68246 -9.1131983
174.91977 -237.71771 -9.6264896
173.77037 -237.78278 -9.8464661
170.58102 -237.71921 -10.565569
173.92587 -237.67168 -11.723372
171.12247 -237.79147 -11.903124
161.36496 -237.69678 -12.676161
174.36316 -237.7836 -13.314407
165.29152 -237.75584 -13.951319
165.36511 -237.64862 -14.232537
169.50632 -237.6069 -15.776495
167.64874 -237.67413 -16.164333
174.91516 -237.54788 -9.0997829
174.90686 -237.46562 -9.6036072
173.8902 -237.40219 -12.112922
165.30884 -237.46503 -13.934952
164.89888 -237.27625 -4.3249221
174.79262 -237.34023 -9.395051
172.91435 -237.28737 -10.7443
162.07445 -237.2229 -12.172699
174.70854 -237.38235 -12.891866
170.14894 -237.37091 -13.663494
165.45328 -237.35315 -14.083899
165.81017 -237.3119 -14.489689
168.15289 -237.33293 -16.123146
162.55942 -237.16168 -4.346683
174.94199 -237.01913 -9.1452827
173.3273 -237.04489 -10.904293
172.56276 -237.10561 -11.16625
167.75185 -237.0217 -11.426167
173.74429 -237.08192 -12.525272
170.13135 -237.11438 -13.014711
168.98573 -237.00858 -13.728128
169.69798 -237.06601 -14.550602
168.71904 -237.08357 -15.174875
161.78496 -236.92871 -4.3642101
163.62274 -236.88306 -4.3888001
174.59248 -236.96103 -8.46628
174.81519 -236.96542 -9.6021414
172.74033 -236.97711 -10.915135
172.89209 -236.94275 -11.265432
167.41893 -236.84401 -12.059671
161.15024 -236.92192 -13.615209
165.5937 -236.88242 -14.251495
166.75061 -236.92706 -14.749895
161.83777 -236.76411 -4.445117
174.24062 -236.74992 -8.1166039
174.46591 -236.68695 -8.5554066
174.41353 -236.64886 -8.6169739
174.52368 -236.7327 -9.0601768
173.63565 -236.71844 -10.475595
173.12943 -236.60309 -11.241516
173.66068 -236.6127 -11.466171
165.51311 -236.63554 -13.871951
166.73969 -236.77145 -14.765676
163.99699 -236.43814 -4.379046
174.70796 -236.57787 -9.6443768
174.33301 -236.44009 -10.677862
172.8324 -236.58714 -11.0469
173.3817 -236.5802 -11.132698
165.91888 -236.56873 -11.474323
174.01855 -236.41135 -11.58824
169.63751 -236.53526 -14.37653
161.74284 -236.25583 -4.4531388
161.80032 -236.23587 -4.453547
174.92343 -236.27742 -9.3048801
174.22478 -236.24931 -10.890143
169.47618 -236.22731 -14.42223
169.82669 -236.28107 -17.011347
174.70584 -236.1846 -8.3190584
174.52531 -236.0873 -10.980656
165.51984 -236.04817 -11.121105
173.50549 -236.09592 -11.347956
170.84274 -236.06262 -12.357863
168.10043 -236.00027 -13.259689
167.54236 -236.1326 -13.770298
166.94833 -236.13683 -13.870609
169.37633 -236.12885 -14.249019
164.19061 -235.96083 -4.40486
174.70387 -235.89948 -8.6363697
169.74107 -235.91441 -13.39349
167.51985 -235.69687 -12.704794
170.11531 -235.66411 -12.676046
168.94263 -235.69174 -13.070717
174.72598 -235.48462 -8.3935223
174.86536 -235.52177 -10.128778
161.79698 -235.50987 -12.771691
161.67558 -235.51608 -12.94842
161.50688 -235.52176 -13.062873
168.85226 -235.48929 -13.149115
166.95386 -235.44193 -13.694096
162.01166 -235.52051 -14.662239
164.26746 -235.38702 -4.4014878
160.05193 -235.3038 -14.948082
161.21863 -235.34053 -14.902585
166.81989 -235.25275 -15.091215
166.65488 -235.39778 -15.246602
164.27707 -235.02414 -4.40099
174.72079 -235.14021 -8.614563
174.39137 -235.15384 -10.54217
167.07059 -235.186 -12.763158
166.86961 -235.14684 -13.875137
160.18958 -235.16168 -14.719424
166.75792 -235.07214 -15.112886
174.76891 -234.87521 -10.087519
164.77094 -234.81129 -11.843014
168.81793 -234.87973 -13.685079
168.04398 -234.64717 -12.239369
174.87427 -234.67369 -13.399151
168.16031 -234.64522 -13.483717
163.43188 -234.58418 -4.3929629
164.55641 -234.52505 -11.590715
163.32735 -234.54599 -12.402589
168.85999 -234.54349 -12.42407
164.58472 -234.24391 -11.844791
174.63156 -234.29102 -12.255709
174.82297 -234.36508 -12.907452
174.8869 -234.30458 -13.261672
162.1123 -234.31104 -14.645504
161.62088 -234.02042 -8.8737965
163.76962 -234.17535 -12.207664
174.68063 -234.13571 -12.69153
162.69267 -233.89169 -4.3829002
163.66763 -233.80222 -11.644163
174.49757 -233.83182 -12.680082
174.8427 -233.84637 -12.695267
174.95895 -233.86671 -13.012735
162.73045 -233.70711 -4.37257
164.83047 -233.7437 -4.3699431
162.45309 -233.70917 -11.324185
173.52155 -233.78497 -11.350712
162.76245 -233.66676 -12.045625
165.26221 -233.71288 -12.072093
167.51167 -233.6373 -12.202248
166.94655 -233.42426 -4.2469349
169.25212 -233.58687 -4.279552
160.9633 -233.53882 -8.7390623
161.52493 -233.45338 -8.600873
174.57968 -233.47601 -10.582006
162.37318 -233.47131 -11.293097
174.23315 -233.55603 -11.630917
162.30475 -233.41075 -11.993071
165.1021 -233.51353 -11.938749
163.33943 -233.51389 -12.497971
160.46443 -233.27692 -4.3072209
172.9792 -233.33417 -11.298319
163.91376 -233.23544 -11.505586
166.58301 -233.3652 -11.5291
165.4256 -233.36401 -11.89782
167.83568 -233.37411 -11.848711
162.26152 -233.36679 -12.223787
162.35068 -233.26953 -12.448277
163.79395 -233.38779 -12.633181
160.38992 -233.03972 -4.320281
165.11104 -233.09746 -4.2675538
160.33746 -233.10803 -8.9475651
167.82092 -233.05911 -9.3541451
174.66852 -233.03783 -9.5340195
161.33542 -233.04594 -9.6395531
174.09325 -233.07999 -10.516967
165.28494 -233.14047 -11.433717
173.84851 -233.17009 -11.501125
163.82758 -233.00584 -11.963604
162.24004 -233.1889 -12.205887
160.51672 -232.86115 -8.1595469
173.52336 -232.84749 -8.9442272
161.0166 -232.92163 -9.039238
165.94214 -232.85892 -10.116728
162.57698 -232.96513 -10.775836
163.75822 -232.92181 -11.060106
164.31659 -232.90526 -11.321946
167.39453 -232.82294 -11.369161
163.38571 -232.91583 -11.798196
166.6062 -232.98721 -11.678267
164.51349 -232.97095 -12.094481
168.13316 -232.84741 -13.301827
174.83134 -232.87823 -17.439064
160.48251 -232.61459 -4.3082252
166.32991 -232.63551 -4.2779822
160.00053 -232.78351 -7.995337
160.72217 -232.66081 -7.8577561
160.57928 -232.75894 -8.1484337
173.51199 -232.73749 -9.4846516
160.89297 -232.61307 -9.7632732
161.46271 -232.74881 -9.8054552
174.20309 -232.61833 -9.8332005
165.3287 -232.66096 -10.130682
161.82278 -232.61536 -11.054678
165.71156 -232.67447 -11.111224
168.37495 -232.79919 -11.196743
161.92859 -232.75443 -11.244205
166.15036 -232.71461 -11.223681
165.10568 -232.67792 -11.8207
163.36035 -232.60516 -12.207627
163.27068 -232.65544 -12.443258
172.30441 -232.61734 -14.712826
173.50009 -232.67314 -15.991899
163.69795 -232.50334 -4.3181291
160.89648 -232.52048 -8.2128506
160.5161 -232.47289 -9.295804
160.71275 -232.5204 -9.8595362
162.12012 -232.53632 -10.981544
174.07535 -232.40475 -10.986017
166.25543 -232.48819 -11.020416
168.85773 -232.40311 -11.721035
162.96661 -232.52451 -11.85404
167.07748 -232.58804 -13.791906
162.15274 -232.34462 -4.2862692
160.6418 -232.28345 -8.7267265
161.0096 -232.21857 -8.631381
165.73883 -232.28432 -8.7663565
160.20627 -232.22171 -9.8838081
165.74796 -232.34061 -10.144433
173.75011 -232.25597 -10.19795
173.39877 -232.39969 -10.503002
164.20842 -232.23662 -10.644857
172.80891 -232.37405 -10.794528
174.7664 -232.39233 -11.017043
169.20421 -232.20396 -11.265627
163.12685 -232.33362 -12.424893
173.50504 -232.27545 -16.306175
174.03682 -232.35803 -16.453665
173.40741 -232.39227 -17.545826
166.47833 -232.02971 -4.2765079
164.49336 -232.12137 -7.9401488
164.6553 -232.03146 -8.0604219
162.17737 -232.1929 -8.962513
165.26703 -232.05388 -9.1242504
165.09096 -232.07384 -9.309063
173.11945 -232.07321 -10.837723
166.16599 -232.10022 -11.244881
168.19748 -232.18523 -11.776332
174.54517 -232.11711 -12.027269
173.35359 -232.13889 -14.128902
173.09433 -232.14066 -15.917845
162.10031 -231.89835 -4.280581
164.66205 -231.88937 -4.2909751
161.98769 -231.90411 -8.724946
165.24142 -231.96085 -9.5481548
174.56656 -231.93462 -9.5499611
174.84824 -231.91803 -9.8383493
165.13586 -231.83488 -10.430571
174.5799 -231.81253 -10.474846
162.7805 -231.97536 -11.929431
163.46004 -231.85681 -12.192251
168.4411 -231.93753 -13.417358
173.27557 -231.99973 -16.47509
173.74727 -231.84943 -17.917873
166.70319 -231.6819 -4.262578
164.92279 -231.69588 -7.9583621
164.92154 -231.68359 -8.0907574
160.59247 -231.73947 -9.5612583
174.67458 -231.74069 -10.125093
165.08232 -231.77988 -11.073359
168.19043 -231.74338 -11.794387
165.92502 -231.67992 -11.888578
166.86588 -231.72122 -11.894044
174.36911 -231.72778 -11.987921
167.49966 -231.79712 -12.06483
172.97784 -231.62114 -15.739896
161.81715 -231.47833 -4.2489662
162.54143 -231.47368 -4.333293
160.6521 -231.40784 -7.779305
160.66479 -231.4675 -8.0957127
174.48471 -231.51982 -10.419652
164.99657 -231.53403 -11.165292
165.00043 -231.58852 -11.258039
164.74728 -231.5255 -11.544322
168.64886 -231.52335 -11.798475
173.98611 -231.45969 -11.751769
163.34067 -231.47491 -11.975262
165.94243 -231.51599 -13.336762
166.79102 -231.54732 -13.680353
166.99728 -231.46379 -13.816899
173.76509 -231.5041 -16.141525
160.25812 -231.35449 -4.2350378
161.41005 -231.31824 -4.271472
165.02316 -231.26804 -4.2474189
160.48993 -231.3781 -7.5987682
161.23125 -231.29486 -7.5098152
164.66853 -231.33813 -8.0873652
160.94716 -231.39177 -8.2912474
162.35913 -231.31001 -8.7031155
173.84409 -231.35641 -9.7082901
168.57094 -231.22447 -12.872437
172.59753 -231.39902 -15.043767
173.12627 -231.35889 -16.366776
162.14719 -231.09918 -4.2459159
162.93314 -231.13065 -4.4085088
161.43071 -231.00148 -8.7496662
161.48547 -231.09598 -8.8688374
163.78683 -231.02896 -11.425757
162.95865 -231.14227 -12.118423
168.99379 -231.07043 -12.174191
174.61133 -231.04257 -12.039174
168.7366 -231.10646 -12.219994
165.54242 -231.1035 -12.588802
173.42743 -231.16447 -15.412447
165.14983 -230.86624 -4.2804842
165.32735 -230.97906 -7.353497
161.05814 -230.89833 -8.1635771
169.75079 -230.97079 -12.076514
168.57945 -230.98381 -12.527585
166.64784 -230.93478 -13.027642
165.33466 -230.91588 -13.534221
172.79135 -230.81767 -15.18885
172.75385 -230.81602 -15.28717
167.38411 -230.78413 -4.2205472
161.31641 -230.69675 -7.3961778
167.44754 -230.62314 -7.4079738
166.72397 -230.77731 -8.2244854
165.34364 -230.61102 -9.4585381
162.41473 -230.62523 -9.6788578
165.23801 -230.75313 -9.6468086
170.03679 -230.66245 -11.684208
172.76184 -230.67055 -16.352266
162.26508 -230.58081 -4.2473688
164.87823 -230.5939 -7.925519
160.27127 -230.49921 -8.2416248
160.65154 -230.48856 -8.6372719
160.09082 -230.47279 -8.8583279
161.80486 -230.5724 -9.3468771
165.62881 -230.55157 -9.2275333
164.86177 -230.53224 -11.788005
169.57901 -230.55278 -11.860458
172.9357 -230.59836 -15.208893
161.25269 -230.32027 -4.137187
