# .PCD v0.7 - Point Cloud Data file format
VERSION 0.7
FIELDS x y z
SIZE 4 4 4
TYPE F F F
COUNT 1 1 1
WIDTH 1517
HEIGHT 1
VIEWPOINT 0 0 0 1 0 0 0
POINTS 1517
DATA ascii
174.8028 -200.01614 -4.5075531
162.99846 -200.06844 -5.1632771
163.6561 -200.03021 -5.1854959
163.02815 -200.15637 -5.245173
163.51735 -200.1918 -5.2204332
163.69995 -200.11356 -5.3101201
164.20654 -200.077 -5.2468891
164.06371 -200.0537 -5.5264349
161.02878 -200.18639 -6.1024551
162.48412 -200.04086 -6.3022432
162.97832 -200.13135 -6.6039662
162.52693 -200.09279 -7.057333
163.31592 -200.03207 -7.3288441
172.16565 -219.82216 -3.354547
172.90501 -219.88654 -3.308445
173.39125 -219.91986 -3.439085
161.17899 -219.98466 -6.079596
161.08214 -219.89287 -7.0346818
161.22459 -219.8259 -7.0137572
160.87653 -219.93636 -7.9385991
160.73654 -219.98213 -8.1907139
160.91798 -219.81569 -8.0701342
160.73267 -219.82422 -8.8462143
171.84297 -219.96187 -9.8584528
174.98303 -219.90102 -10.165744
160.37285 -219.97159 -10.591965
167.58797 -219.9411 -10.80491
174.74052 -219.96548 -11.418447
176.36279 -219.85559 -11.565578
176.23842 -219.92513 -11.642578
179.63684 -219.90195 -13.351736
178.82072 -219.9565 -13.599593
179.47496 -219.91389 -13.619697
160.23756 -219.77203 -3.444593
171.48775 -219.62964 -8.6793861
160.86041 -219.61768 -9.0660706
160.56775 -219.74298 -9.3316059
160.68442 -219.75613 -9.7798853
160.93626 -219.60364 -9.7372513
174.42719 -219.78502 -10.194516
160.61201 -219.6678 -11.385314
167.97679 -219.68636 -11.496031
168.14034 -219.71957 -11.587718
168.15108 -219.67584 -11.608562
174.59839 -219.73662 -12.540184
174.89421 -219.75916 -12.510815
175.34566 -219.69913 -12.61928
172.44678 -219.58902 -3.3597519
173.0562 -219.48433 -3.3052199
173.41489 -219.50159 -3.4414079
160.85547 -219.55814 -8.9873123
160.68112 -219.58508 -9.3798027
160.74864 -219.4507 -9.8119316
171.98988 -219.59061 -10.193954
160.69739 -219.54059 -10.200312
160.83588 -219.41277 -10.626858
160.77255 -219.45166 -11.002004
176.07851 -219.47755 -11.590744
174.53232 -219.57152 -11.662905
175.3456 -219.46707 -12.675802
179.07532 -219.5657 -13.148641
161.84985 -219.30919 -3.4593511
171.15222 -219.32462 -8.6336145
171.45239 -219.31596 -8.8124065
168.20409 -219.3006 -9.4993658
160.89421 -219.39442 -9.936697
172.39981 -219.23581 -10.005652
167.1174 -219.25604 -10.388245
167.34415 -219.26317 -10.457557
166.53371 -219.20857 -11.399589
175.86015 -219.35973 -11.461903
168.49954 -219.3443 -11.767668
179.32654 -219.37074 -13.170785
173.05145 -219.18523 -3.305176
165.00534 -219.12515 -3.4290299
165.40329 -219.0742 -8.4523869
171.1488 -219.09732 -8.6905212
171.10715 -219.09677 -8.9384384
171.38776 -219.03163 -8.8185806
167.17445 -219.18451 -9.7446594
168.12436 -219.05481 -9.788249
171.87567 -219.02104 -9.8921289
172.24582 -219.03348 -10.064556
169.09065 -219.05341 -10.847948
170.54359 -219.07117 -11.103856
163.63029 -219.06152 -11.384706
168.33575 -219.18344 -11.257765
168.61346 -219.05136 -11.74719
174.50073 -219.07368 -11.68952
178.92667 -219.04544 -12.306804
173.28328 -218.99721 -3.311924
174.65462 -218.81183 -3.77737
171.4767 -218.87836 -8.6809988
173.0256 -218.84315 -8.9099903
167.74466 -218.93219 -9.5464315
179.75751 -218.83322 -9.4884472
167.45393 -218.95386 -9.6996002
172.11458 -218.9864 -9.8337526
167.85486 -218.9209 -10.438908
168.25566 -218.86198 -10.581385
168.69345 -218.81113 -10.524707
170.55937 -218.92073 -10.773601
172.20026 -218.83817 -10.935342
174.56485 -218.96407 -11.307911
168.54965 -218.87994 -11.540433
179.13132 -218.97766 -12.5097
176.93396 -218.99625 -12.949144
161.60909 -218.62918 -3.4276209
170.29337 -218.61093 -9.6426373
168.47742 -218.63745 -9.874999
168.95702 -218.63341 -9.9088287
168.25827 -218.66702 -10.646156
168.14975 -218.72342 -10.833945
169.12076 -218.68263 -10.949945
171.89572 -218.69394 -10.955921
168.21045 -218.68205 -11.465221
168.59407 -218.66858 -11.492676
176.68195 -218.73473 -11.600041
174.72037 -218.73166 -12.015049
170.26236 -218.79053 -14.334344
170.56653 -218.66623 -14.566183
165.52969 -218.42899 -3.3678639
173.47186 -218.56947 -3.3123429
172.10477 -218.56447 -7.5112362
172.42233 -218.58575 -7.5196748
172.10161 -218.43311 -7.666029
172.46335 -218.54979 -7.7139559
171.51334 -218.56842 -8.6251259
171.64758 -218.52058 -8.7121382
173.20915 -218.47569 -8.6951485
171.56044 -218.5723 -8.9010754
171.68521 -218.59698 -8.8737946
168.46069 -218.4957 -9.445118
168.11197 -218.50842 -9.7603188
168.5954 -218.55949 -10.49148
168.83839 -218.50833 -10.767223
168.52899 -218.56049 -11.082294
169.3907 -218.57051 -11.768237
169.9848 -218.5408 -11.629116
171.43906 -218.54202 -13.112685
163.51109 -218.34775 -3.3860109
173.76711 -218.23914 -3.315722
160.19424 -218.32449 -3.405319
172.05765 -218.29022 -7.5495229
172.50702 -218.24864 -7.5551758
172.47368 -218.29221 -7.6164432
171.58551 -218.35461 -8.7067776
171.65894 -218.37532 -8.8947868
173.95348 -218.35568 -8.9574461
168.31638 -218.29263 -9.750102
170.14726 -218.21675 -9.8851938
168.53644 -218.30859 -10.479129
170.36461 -218.29755 -10.664618
170.86902 -218.25877 -10.749451
170.59209 -218.22913 -10.880873
169.44357 -218.27365 -11.116774
169.76196 -218.20375 -11.134807
175.11676 -218.2619 -12.595671
171.08231 -218.32106 -12.684983
171.75615 -218.21616 -13.116055
169.46475 -218.33673 -14.289598
165.44131 -218.16168 -3.3769491
165.84506 -218.19901 -3.3795149
173.5071 -218.00223 -3.396801
160.88939 -218.16782 -3.403199
163.92632 -218.14008 -3.411037
164.29041 -218.06522 -3.4121721
171.68088 -218.19177 -7.6647372
171.86214 -218.17957 -8.7011003
172.08853 -218.13263 -8.6347265
172.54916 -218.03848 -8.7494965
168.44757 -218.19754 -9.6642923
170.42838 -218.05252 -10.677731
164.08328 -218.18842 -10.931233
170.05548 -218.13588 -11.785031
173.72516 -218.16267 -12.207523
164.52341 -217.89145 -3.3203831
169.0005 -217.87378 -3.285125
169.22099 -217.81041 -3.285486
171.60072 -217.9189 -3.2715001
172.16513 -217.86281 -8.6921616
172.56662 -217.88437 -8.7280731
172.57541 -217.82591 -8.8122921
173.04761 -217.87573 -8.8542051
170.48238 -217.86305 -9.7119923
170.06204 -217.9771 -9.8591204
171.10921 -217.9073 -9.8463402
173.56427 -217.81763 -9.8985023
174.14421 -217.95834 -10.020061
170.07971 -217.92355 -10.269476
168.98978 -217.90474 -10.48409
170.60945 -217.91684 -10.70328
169.26328 -217.91048 -11.545105
173.36743 -217.93466 -11.459243
173.91251 -217.87183 -11.544105
171.83208 -217.84341 -12.053413
173.70375 -217.92877 -12.201211
173.70471 -217.9673 -12.809938
167.59697 -217.77623 -3.1676879
173.99573 -217.66591 -3.4042029
171.90001 -217.7059 -7.5144858
171.87869 -217.74925 -7.6560841
172.01674 -217.65591 -7.7112608
171.86407 -217.75345 -8.7134953
172.93237 -217.7872 -8.729557
173.41261 -217.62921 -8.8280725
165.40456 -217.65823 -9.0772305
172.92267 -217.61423 -9.8650217
169.75819 -217.731 -10.966807
173.7518 -217.74628 -11.773668
174.13486 -217.70871 -11.794234
175.02701 -217.79239 -11.630487
170.17494 -217.68295 -11.923117
170.52448 -217.75781 -11.809945
170.23169 -217.79756 -12.066759
174.10451 -217.77107 -12.199013
168.19179 -217.47488 -3.16817
169.02783 -217.47948 -3.160332
169.35631 -217.42709 -3.1583331
164.18501 -217.48369 -3.279907
160.4232 -217.56897 -3.431725
163.15996 -217.57632 -3.4262569
172.07332 -217.4006 -7.4999042
173.00496 -217.45905 -9.8473778
165.14667 -217.49278 -10.005341
169.89653 -217.55875 -10.880659
168.47404 -217.59013 -11.937679
174.19778 -217.52045 -11.832913
173.78839 -217.47311 -12.581436
174.17171 -217.4082 -12.786467
165.12498 -217.35202 -3.3158009
165.47008 -217.37758 -3.3135369
174.27945 -217.26569 -3.413548
171.99709 -217.263 -7.619503
172.15239 -217.26564 -7.6688399
173.41631 -217.39032 -8.720809
170.0755 -217.37451 -11.04006
170.50072 -217.37685 -11.004002
170.18587 -217.39734 -11.465375
170.21896 -217.37094 -11.926508
170.51707 -217.32332 -11.832399
173.81897 -217.37349 -12.189977
174.18077 -217.25439 -12.19772
174.50804 -217.26579 -12.26333
171.93582 -217.02798 -7.4354391
172.14098 -217.04889 -7.5081019
172.27112 -217.03941 -7.65132
177.16769 -217.04568 -7.7883511
172.56499 -217.08847 -8.5631084
170.32654 -217.06596 -10.675831
167.32845 -217.06458 -11.247805
170.46146 -217.08694 -11.439825
174.42995 -217.10796 -11.922527
173.59827 -217.11368 -12.356934
173.76466 -217.1851 -12.200731
174.3497 -217.1351 -12.289148
174.6683 -217.03004 -12.314272
174.75429 -217.13116 -12.423776
162.46437 -216.87222 -3.339669
174.37196 -216.95921 -3.420929
172.50502 -216.94931 -7.7049909
172.8624 -216.80386 -8.5679598
173.63596 -216.95105 -8.8178692
170.61467 -216.89099 -10.615325
168.66026 -216.66946 -3.15835
169.00061 -216.61809 -3.159956
172.7113 -216.66087 -7.4956341
172.64178 -216.75275 -7.6558809
172.71046 -216.77885 -8.7249794
172.82341 -216.67046 -8.6732187
173.42661 -216.66223 -8.7056274
173.31015 -216.60431 -8.8534222
165.22916 -216.75912 -9.2770901
165.43373 -216.63455 -9.949276
170.2984 -216.61916 -10.460636
179.14923 -216.62965 -11.562501
167.74931 -216.50262 -3.165247
168.11436 -216.55927 -3.1621339
163.83235 -216.52106 -7.9432211
164.11255 -216.53268 -7.953331
177.7401 -216.51718 -7.922401
170.4904 -216.58322 -10.563627
179.0896 -216.58041 -11.752126
173.01909 -216.4509 -13.575782
166.58041 -216.20523 -3.165905
172.73761 -216.3821 -7.653656
174.4664 -216.29066 -7.7937088
164.00072 -216.32666 -7.9756851
164.34854 -216.3829 -8.0005894
165.38657 -216.01947 -3.1872439
165.73001 -216.04472 -3.184763
166.17166 -216.06448 -3.168627
168.18097 -216.19969 -3.167464
174.92383 -216.06532 -5.2825541
174.63593 -216.15549 -6.597806
172.75215 -216.12643 -7.6438632
165.01773 -216.08801 -9.852499
173.74127 -215.81137 -4.0845442
174.89807 -215.88297 -4.4503479
174.91838 -215.92294 -6.6711049
172.68448 -215.95282 -7.6497231
172.84789 -215.84033 -7.6497002
175.31943 -215.81281 -7.8207321
173.15723 -215.87698 -8.6261101
179.04776 -215.93704 -11.583074
162.49615 -215.75681 -3.3356869
173.69153 -215.78926 -3.4193599
174.93927 -215.66934 -4.2031279
174.65073 -215.66103 -6.6152191
172.91061 -215.79247 -7.4677238
174.91901 -215.68416 -7.6886301
175.08034 -215.66983 -7.602633
172.39734 -215.6254 -8.4631262
164.67258 -215.63052 -9.7718964
164.19446 -215.68767 -10.181341
178.9312 -215.64734 -11.745425
163.4707 -215.42046 -3.20838
173.71904 -215.40349 -3.4119551
173.67035 -215.55475 -3.801697
173.67999 -215.42516 -4.1073389
174.74312 -215.5228 -4.2937169
174.69186 -215.4205 -4.522296
175.00731 -215.57626 -6.7055459
172.71408 -215.44691 -7.6131501
173.03638 -215.42085 -8.6663666
164.43877 -215.56767 -8.8927498
164.21776 -215.54947 -10.029044
178.54988 -215.43274 -11.539188
178.67651 -215.40897 -11.737042
161.29167 -215.31024 -3.3391759
174.92242 -215.29327 -4.5650549
173.90073 -215.25488 -6.5307589
174.53682 -215.36281 -6.600853
174.89873 -215.32074 -7.590836
169.72238 -215.22523 -9.8850918
163.81952 -215.3707 -10.551068
179.01295 -215.28296 -11.708904
169.1564 -215.16483 -3.178066
170.43822 -215.01605 -3.1199751
173.84499 -215.01283 -4.1087432
174.84062 -215.17833 -4.2054982
173.79286 -215.07722 -6.3661051
174.7775 -215.09697 -6.4597812
174.89075 -215.09743 -6.5989041
174.17671 -215.03584 -6.6119142
164.4512 -215.02612 -9.4944563
164.39062 -215.06544 -9.689599
164.02887 -215.00923 -10.08954
163.83403 -215.14203 -10.556693
172.68961 -215.02933 -11.421196
178.64502 -215.01733 -11.508437
179.27191 -215.13977 -11.792737
164.01501 -214.96223 -3.1478
173.89053 -214.97488 -3.3678541
175.17529 -214.99512 -6.4688792
175.174 -214.9201 -7.6895862
173.02591 -214.9147 -8.6729708
176.95905 -214.91783 -9.0209942
170.88637 -214.94788 -9.4126148
164.44781 -214.90514 -9.7944908
163.90387 -214.9192 -10.018012
177.3844 -214.97144 -10.269664
171.74721 -214.84042 -10.633535
179.79459 -214.97133 -12.094666
164.70613 -214.66959 -2.984724
174.09885 -214.68686 -3.3711331
177.11115 -214.6898 -9.0162811
165.9436 -214.60178 -9.3974819
166.34372 -214.76669 -9.2716389
166.66794 -214.76689 -9.3000212
170.68529 -214.67578 -9.4227839
170.83104 -214.78201 -9.474082
164.27069 -214.61917 -10.041769
172.06165 -214.60052 -10.575583
178.68916 -214.62613 -11.519945
178.6207 -214.78658 -11.604179
179.82579 -214.75951 -11.961977
176.57872 -214.66882 -12.360484
164.24957 -214.48425 -2.991559
165.82005 -214.54358 -2.9791341
162.69453 -214.44164 -3.157933
162.93643 -214.41621 -3.158577
165.01509 -214.57111 -3.037766
170.76895 -214.59924 -3.1265709
170.79216 -214.47064 -3.345371
174.63538 -214.46941 -3.444782
174.73169 -214.45744 -6.4439001
165.48787 -214.50514 -9.7547636
169.74445 -214.52924 -9.8222466
164.02365 -214.5932 -10.498793
170.92676 -214.56009 -10.444712
171.85999 -214.58859 -10.609909
163.9128 -214.35497 -2.9964571
162.61911 -214.24786 -3.1533461
162.93652 -214.35678 -3.1522231
165.4003 -214.24643 -3.113868
166.62512 -214.3006 -3.074472
168.59775 -214.25043 -3.059582
169.95384 -214.34955 -3.186254
170.82361 -214.26971 -3.1332741
174.85175 -214.29965 -3.4291079
169.90521 -214.20644 -8.3594303
169.85518 -214.30228 -8.4835691
177.58391 -214.2103 -8.8571396
169.57834 -214.20593 -9.2991676
172.71257 -214.24715 -9.5213509
170.2439 -214.30357 -9.837244
163.72054 -214.2406 -10.353382
171.68631 -214.31149 -10.544792
171.57098 -214.38193 -10.603654
165.65388 -214.15439 -2.9877939
168.21738 -214.17207 -2.9689829
161.76962 -214.0638 -3.158803
161.91034 -214.02417 -3.1592989
162.31865 -214.15292 -3.1565399
164.274 -214.13814 -3.148448
164.97221 -214.07666 -3.1080749
173.69142 -214.17674 -3.448365
174.81316 -214.18269 -6.4341569
169.66299 -214.08087 -9.3012371
170.28381 -214.15463 -9.3957739
166.34393 -214.08632 -12.019358
163.17268 -213.89992 -3.010499
167.64037 -213.82576 -3.0408239
170.16208 -213.88055 -3.192482
170.97522 -213.85197 -3.141186
174.21072 -213.84291 -3.351373
168.72456 -213.81448 -8.3644753
169.65234 -213.8288 -8.4367085
170.35727 -213.83234 -9.3096561
177.09387 -213.87737 -9.987668
179.92769 -213.94229 -13.109977
168.45224 -213.65196 -2.9772539
162.87881 -213.78926 -3.014729
165.60828 -213.74623 -3.086082
168.85045 -213.72739 -8.2631893
177.87883 -213.76926 -10.258978
162.12885 -213.70856 -10.694179
160.8511 -213.4485 -3.0933101
161.24493 -213.48015 -3.1151471
161.60728 -213.48431 -3.029691
161.91376 -213.50099 -3.0271771
162.12753 -213.5994 -3.023757
163.41458 -213.48808 -3.156199
165.77513 -213.57535 -3.087312
166.16881 -213.55801 -3.082983
166.50848 -213.51445 -3.079787
171.06445 -213.54276 -3.1472099
179.83081 -213.43907 -6.4523091
179.78729 -213.41298 -7.491478
168.71179 -213.43352 -8.3381062
169.8645 -213.53473 -8.3377085
177.72769 -213.47786 -10.008078
170.64038 -213.41359 -10.346005
168.90613 -213.21007 -2.9824419
163.00072 -213.35188 -3.1545701
167.37115 -213.38429 -3.125457
167.67957 -213.39778 -3.073123
168.37233 -213.38972 -3.070364
169.47267 -213.37263 -7.3013191
168.84132 -213.22748 -8.0889587
164.29178 -213.28204 -8.6488962
164.51115 -213.21945 -8.6818752
170.20456 -213.34538 -9.3503532
160.58664 -213.20538 -9.5270691
171.08942 -213.21979 -9.5805626
171.28979 -213.23056 -9.4956064
160.66077 -213.28416 -10.099129
170.90034 -213.31151 -10.36386
171.13821 -213.29906 -10.585841
171.51392 -213.29599 -10.691517
179.79214 -213.28479 -11.52195
179.60884 -213.19875 -7.4593492
179.65366 -213.0957 -7.73317
168.95433 -213.11572 -8.1696939
168.79526 -213.14644 -8.2252426
169.29778 -213.0481 -8.2374859
164.38652 -213.12259 -8.6415119
164.66595 -213.04988 -8.6642857
164.89948 -213.01291 -8.6982708
160.45386 -213.0571 -9.0663853
163.44322 -213.16057 -9.0531349
169.50867 -213.02542 -9.140316
160.54634 -213.0284 -9.2583561
169.47078 -213.00919 -9.2406197
170.49132 -213.02901 -9.3546495
160.36572 -213.11594 -9.882349
160.57365 -213.12627 -9.8724813
160.62766 -213.02692 -10.106541
160.85571 -213.07645 -10.382404
170.91249 -213.16661 -10.357389
172.48293 -213.01123 -10.552931
173.13284 -213.15707 -11.261053
177.48853 -213.07043 -11.295636
168.49135 -212.96484 -3.075949
168.88181 -212.93866 -3.0300751
179.51784 -212.81073 -5.7972512
179.66434 -212.84843 -5.6584859
179.69148 -212.80235 -6.8122201
160.16791 -212.8902 -8.2357922
169.86366 -212.97632 -8.254056
160.33969 -212.91739 -8.5595465
160.61844 -212.89729 -8.5919819
168.75272 -212.88 -9.0254936
163.11922 -212.95251 -9.3761349
169.8562 -212.88745 -9.365921
171.60422 -212.84053 -9.316783
170.14989 -212.92688 -9.4406071
171.31691 -212.96008 -9.4410267
162.69185 -212.95941 -9.710247
161.63446 -212.81934 -10.01944
162.37134 -212.83058 -10.092722
176.72215 -212.91577 -10.012304
170.52022 -212.80858 -10.208407
171.26425 -212.94772 -10.335718
170.44159 -212.89606 -10.581042
171.83031 -212.96667 -10.483186
172.14929 -212.84843 -10.520445
171.31351 -212.93625 -10.692102
173.1676 -212.93529 -11.157498
177.84454 -212.88445 -11.198749
177.68748 -212.88919 -11.318477
178.01456 -212.84694 -11.216331
178.59715 -212.9729 -11.487587
179.7375 -212.91037 -11.57705
178.93866 -212.9527 -11.895268
161.44688 -212.70966 -3.156522
162.25989 -212.72998 -3.161001
168.21759 -212.66577 -3.0755291
168.87445 -212.63979 -3.0770741
172.6394 -212.66708 -3.471513
177.61655 -212.60437 -4.96841
179.68617 -212.71466 -6.064477
179.48648 -212.64714 -6.933053
169.7509 -212.76773 -7.3168821
169.8031 -212.64862 -8.1522541
170.31415 -212.69798 -8.181695
160.24274 -212.77415 -8.2008228
160.59607 -212.7375 -8.3543091
160.60359 -212.76074 -8.4965754
160.88943 -212.72858 -8.7072563
160.70741 -212.7637 -8.8841763
160.94682 -212.71033 -9.0684624
170.1346 -212.73897 -9.159874
170.41461 -212.63982 -9.1818275
161.11282 -212.65042 -9.3678675
170.5592 -212.60226 -9.3093634
171.11603 -212.6563 -9.3053532
171.39258 -212.68497 -9.391407
172.72472 -212.77966 -9.572155
170.58711 -212.60208 -10.271915
171.37349 -212.71069 -10.375169
177.87003 -212.70932 -11.282735
178.99879 -212.61218 -11.368095
179.56866 -212.65741 -11.448772
179.89952 -212.6971 -11.478479
179.80424 -212.71785 -11.707721
164.36206 -212.77873 -12.340706
177.32671 -212.60609 -12.335983
177.75262 -212.66457 -12.367698
172.28656 -212.42764 -3.1625309
177.60921 -212.5808 -3.5162921
177.47684 -212.4324 -3.6918011
177.83678 -212.51709 -4.4862428
179.32214 -212.57019 -6.2563071
179.41501 -212.49773 -6.5234742
169.6749 -212.52661 -7.142283
169.41843 -212.53636 -7.3014431
179.38324 -212.53012 -7.4326558
179.43719 -212.56235 -7.6977601
169.01648 -212.4454 -9.0778122
169.40033 -212.52084 -9.1235256
162.96808 -212.58194 -9.3245926
169.32932 -212.5166 -9.3173037
169.81772 -212.43913 -9.2188339
170.30286 -212.58353 -9.2857513
161.30313 -212.5287 -9.4920015
171.62454 -212.56149 -9.4330997
172.21259 -212.52339 -9.5080929
161.41 -212.48822 -9.886198
163.06134 -212.44284 -10.310883
172.23701 -212.46478 -10.391152
172.26877 -212.54071 -10.482197
171.34084 -212.51733 -10.714067
177.96677 -212.44533 -11.178257
178.75717 -212.52545 -11.486866
161.61903 -212.53461 -12.109396
178.08701 -212.465 -12.471313
178.81671 -212.56137 -12.548002
179.3528 -212.52568 -12.49405
168.52127 -212.29713 -3.0788691
171.76883 -212.26837 -3.1696639
172.29309 -212.2278 -3.397223
179.33449 -212.2287 -5.7916808
169.56956 -212.34256 -7.123908
169.65013 -212.34474 -7.165916
169.54677 -212.30814 -7.2885671
169.79985 -212.25951 -7.2882209
169.42822 -212.29631 -9.1303844
169.80208 -212.24944 -9.1789484
170.59486 -212.2821 -9.2558985
163.57826 -212.23013 -9.4228601
172.17223 -212.27383 -9.4876394
162.38074 -212.28447 -9.6263313
161.46204 -212.32739 -9.8817253
161.64645 -212.30067 -10.085014
163.03601 -212.28047 -10.178311
172.26689 -212.24527 -10.551851
178.10741 -212.3157 -11.227693
179.02913 -212.26244 -11.717474
177.81004 -212.31752 -12.50477
177.41765 -212.36119 -12.619484
179.13747 -212.32112 -12.768201
179.34271 -212.30154 -12.64235
171.89366 -212.10732 -3.544873
177.39607 -212.05273 -3.5150709
177.37833 -212.09496 -3.6947081
177.67473 -212.15573 -4.475904
177.53166 -212.14949 -4.644001
177.48047 -212.19882 -4.8958411
179.2868 -212.13289 -6.0988221
179.28436 -212.04785 -7.4539609
179.33797 -212.19135 -7.7111182
169.82236 -212.05582 -8.2519922
176.83997 -212.03317 -9.9213047
161.85223 -212.15616 -10.585485
178.08939 -212.16899 -12.36874
179.26535 -212.08641 -12.955769
169.73145 -211.8728 -3.192754
177.367 -211.8044 -4.921319
179.29756 -211.81767 -6.3318839
179.29507 -211.92372 -6.9158788
179.29095 -211.8495 -7.6697841
172.23506 -211.93295 -9.4727097
176.96855 -211.9678 -10.167622
172.30223 -211.99149 -10.5049
162.32721 -211.84171 -11.042822
179.3893 -211.87308 -12.430206
179.73723 -211.98729 -13.121706
179.79781 -211.91714 -13.207222
168.59541 -211.77959 -3.093987
177.2868 -211.67548 -3.6987541
177.44791 -211.72871 -4.618125
179.24266 -211.66763 -7.4360862
168.65329 -211.7403 -8.1467819
168.87628 -211.72479 -8.080409
178.59515 -211.7597 -8.902256
176.73276 -211.75465 -9.8821831
176.89822 -211.60083 -9.845149
177.39981 -211.7247 -10.185165
178.90964 -211.64026 -10.11474
177.78371 -211.64922 -10.2125
177.74707 -211.68465 -11.038843
162.44806 -211.61903 -11.227651
178.35236 -211.77769 -11.24939
179.06125 -211.79207 -12.356416
179.09154 -211.73422 -12.685384
177.36258 -211.46774 -4.9534431
179.35094 -211.45618 -6.3342509
168.19328 -211.49258 -8.1141033
176.95169 -211.57663 -10.007809
177.46893 -211.5493 -10.177107
179.54912 -211.47073 -10.130274
179.97545 -211.50616 -10.114559
177.71458 -211.48952 -11.064187
178.50613 -211.50159 -11.068106
179.38916 -211.51855 -12.442073
168.58698 -211.35367 -3.060535
169.01503 -211.33325 -3.096679
177.37607 -211.32146 -4.6835032
179.24866 -211.33394 -7.5098982
179.32529 -211.37964 -7.7976952
168.75513 -211.35234 -7.982945
168.58266 -211.3801 -8.1091614
169.01266 -211.31728 -8.1390896
169.3923 -211.37889 -8.1795406
162.75029 -211.34566 -8.4956055
176.85162 -211.33826 -9.8210716
167.92212 -211.05139 -3.071876
168.59082 -211.12015 -3.104697
177.36032 -211.04001 -5.0063548
179.29611 -211.00275 -7.670125
162.60089 -211.03632 -8.3239021
178.30396 -211.02231 -9.3474789
177.40404 -211.09422 -9.9006596
179.47881 -211.11562 -12.462509
160.32782 -210.90204 -3.0586209
177.37073 -210.95981 -4.7291942
179.2417 -210.89091 -7.4047451
162.80309 -210.94366 -8.3447199
177.02533 -210.94832 -9.7803526
179.5228 -210.85443 -10.304937
178.01895 -210.99525 -11.143104
179.77658 -210.96593 -12.608528
161.46793 -210.6183 -2.8876269
169.76477 -210.60658 -3.5855761
177.47043 -210.65195 -3.9153819
177.43198 -210.62393 -4.7882991
179.2644 -210.67203 -6.2899852
179.18903 -210.7787 -7.5449319
179.21863 -210.73294 -7.5623369
179.31911 -210.62207 -7.6572342
168.48932 -210.68929 -8.0697889
179.73299 -210.6044 -10.204356
160.97496 -210.46783 -2.8933499
161.23634 -210.50647 -2.891243
177.48233 -210.5132 -5.0067739
179.30293 -210.53484 -5.2538962
168.55313 -210.57722 -7.956841
161.46678 -210.24725 -2.886472
162.01894 -210.3213 -2.880636
163.72507 -210.30035 -2.8842371
177.6097 -210.27333 -3.9302509
179.34953 -210.2576 -4.1375661
177.63284 -210.20731 -5.008882
179.33223 -210.3007 -5.1153498
179.33652 -210.31226 -6.0739188
179.3756 -210.35136 -7.6968369
163.33615 -210.19565 -2.8884261
167.92979 -210.13132 -3.0880799
168.09442 -210.18448 -3.263994
177.6557 -210.18698 -4.006372
179.37769 -210.1638 -5.291605
177.71042 -210.1512 -5.4800301
179.35825 -210.18845 -5.9977241
179.414 -210.02728 -6.7000852
179.37007 -210.14526 -7.5538921
179.41217 -210.09523 -7.6903319
161.14407 -209.82721 -2.876847
162.65883 -209.93878 -2.8851359
164.18951 -209.81378 -2.8769021
164.71255 -209.99551 -2.886529
168.15585 -209.8167 -3.1304581
168.67006 -209.9082 -3.123436
168.17763 -209.95287 -3.2452769
168.96509 -209.95903 -3.6029401
177.84575 -209.87732 -3.9220181
177.89081 -209.84552 -4.0122418
177.86734 -209.95593 -5.061574
179.49141 -209.80377 -6.1381302
179.48964 -209.86118 -7.6875038
167.37498 -209.83604 -11.519028
161.52863 -209.6678 -2.8754971
179.51253 -209.78467 -5.2926812
179.54985 -209.62616 -5.9897251
179.54684 -209.72256 -6.5366769
179.49051 -209.74965 -7.5200729
165.83449 -209.76857 -12.050404
167.23012 -209.69495 -12.140157
162.81226 -209.41046 -2.8488629
164.77032 -209.50294 -2.8974249
168.63434 -209.5143 -3.4839189
168.41425 -209.505 -3.615099
179.50163 -209.43736 -4.1444178
167.75737 -209.4258 -5.9781189
179.58775 -209.56299 -5.9942422
179.66617 -209.42552 -5.9896059
167.66321 -209.47768 -6.149044
166.32187 -209.41388 -6.735395
166.45905 -209.46143 -6.698216
166.37155 -209.41486 -6.833539
179.67439 -209.40906 -7.4972739
166.90097 -209.47054 -7.7634921
168.31374 -209.59782 -11.334838
167.55379 -209.53061 -11.538857
162.62097 -209.36249 -2.8588121
164.34689 -209.36505 -2.902523
165.02156 -209.32367 -2.9003201
179.694 -209.34854 -5.3149972
166.29677 -209.27164 -5.880105
179.68967 -209.39177 -6.4881568
166.59981 -209.3109 -6.9376822
167.05959 -209.28601 -6.856802
167.76819 -209.35033 -6.9740839
179.73312 -209.30179 -7.6758161
167.40443 -209.27997 -8.679081
167.75665 -209.37558 -11.547485
168.08842 -209.01085 -3.4903941
167.93448 -209.06871 -3.6267011
179.72978 -209.03323 -4.1491761
166.3317 -209.09511 -5.8980989
179.9001 -209.01433 -5.9910178
166.24541 -209.0728 -6.0730619
166.40393 -209.14726 -6.129571
166.60533 -209.10109 -6.913496
167.81238 -209.05049 -6.9837551
167.39517 -209.11954 -8.7322311
162.94736 -208.95367 -2.8720701
163.41083 -208.93535 -2.861068
167.87378 -208.8223 -3.3899691
179.94308 -208.9624 -5.3043852
179.99866 -208.9942 -6.352479
179.95296 -208.96402 -6.4922299
179.93109 -208.98093 -7.529191
166.08258 -208.90607 -7.751792
179.93295 -208.97028 -7.66927
163.49725 -208.69051 -2.8676219
163.74493 -208.79878 -2.856735
167.53581 -208.69455 -3.6366301
167.73877 -208.65036 -4.382791
166.93906 -208.72807 -5.3165569
166.87283 -208.69028 -6.9251671
167.2814 -208.64545 -6.9759378
166.17255 -208.62773 -7.7331491
164.0585 -208.56891 -2.866364
167.58963 -208.55766 -3.5030739
166.84355 -208.46329 -4.3526201
166.87956 -208.50116 -4.475111
165.78679 -208.52968 -5.9608521
165.7753 -208.50565 -6.0578141
165.73938 -208.47931 -6.5419431
166.92079 -208.42966 -6.7861362
166.41869 -208.44321 -7.7974849
166.49036 -208.41974 -8.5072727
164.22739 -208.29172 -2.8733239
167.34024 -208.36748 -3.5190041
167.16449 -208.35551 -3.6456449
166.63602 -208.22134 -4.1852608
166.90497 -208.34219 -4.3639979
167.10094 -208.2673 -4.9697232
165.86475 -208.35522 -5.8808579
165.74214 -208.30382 -6.0243502
166.17679 -208.21748 -6.6639309
166.80322 -208.28912 -6.802392
166.59666 -208.23456 -8.599823
166.80449 -208.17703 -2.9180579
167.15109 -208.11098 -3.4038379
166.79974 -208.00903 -3.654834
166.20143 -208.16969 -4.201149
166.83386 -208.1662 -4.4784889
167.32846 -208.07762 -4.9637399
165.942 -208.09663 -5.0101938
166.0352 -208.07787 -5.0586801
166.2919 -208.08713 -5.3385768
167.33789 -208.05879 -5.286674
166.48529 -208.18839 -5.5201011
167.34691 -208.10588 -5.8989592
167.74068 -208.01418 -5.963613
169.13466 -208.11548 -5.979157
169.55382 -208.01158 -5.9710722
166.56151 -208.07426 -6.0923972
165.79297 -208.17096 -6.5285821
166.72728 -208.15631 -6.6773701
167.7455 -208.076 -6.7287788
166.63396 -208.06505 -6.9217019
165.53772 -208.03741 -7.7258549
166.91846 -208.15826 -7.7776499
166.25432 -208.09593 -7.8016052
167.35968 -208.02069 -7.8603792
167.66754 -208.0791 -7.81215
167.08328 -208.08517 -8.6085529
167.50859 -208.16382 -8.6756382
168.83469 -208.08006 -8.7353401
166.86172 -207.90164 -3.529774
166.69315 -207.90013 -4.2598491
166.89905 -207.84082 -4.2725639
167.33542 -207.80756 -4.3322649
167.00548 -207.80478 -4.4862161
165.98625 -207.90916 -4.946897
166.22955 -207.85344 -5.1350551
166.92599 -207.82887 -5.0039582
167.29736 -207.9565 -5.060174
166.52277 -207.88196 -5.257658
166.99263 -207.80969 -5.3120089
167.01003 -207.95502 -5.879869
166.5603 -207.8096 -6.760715
166.50533 -207.83984 -6.9075298
167.17178 -207.87482 -6.9029589
165.53629 -207.92068 -7.4118428
165.6476 -207.86223 -7.5565228
165.58087 -207.88635 -7.679225
166.25366 -207.8989 -7.6420431
166.68217 -207.8548 -7.7648959
166.91968 -207.86758 -7.7300448
167.67947 -207.93091 -7.7782488
166.75177 -207.94955 -8.5901966
167.12901 -207.85808 -8.6519556
167.37744 -207.89362 -8.6597242
168.85339 -207.93924 -8.8528614
164.2149 -207.78943 -2.8924799
166.76483 -207.76173 -3.5251031
166.49973 -207.69788 -3.6630421
166.33435 -207.74646 -4.1647182
166.44652 -207.64313 -5.1098762
167.46178 -207.7915 -5.9530349
166.82201 -207.63205 -6.7825661
165.61115 -207.77249 -6.8273559
167.29677 -207.68272 -6.8118129
165.66461 -207.75522 -7.6577249
167.3532 -207.68951 -7.7880578
169.53336 -207.70445 -7.804708
164.6366 -207.51711 -2.8937349
164.92679 -207.51967 -2.8874619
166.44203 -207.44452 -3.479955
166.91174 -207.55087 -4.3691778
166.77263 -207.41678 -4.4869661
167.35945 -207.43863 -4.4974818
167.06392 -207.50786 -5.0447159
166.98578 -207.43423 -5.2668328
167.35748 -207.42929 -5.280405
166.58698 -207.47556 -6.7404728
166.37976 -207.46579 -6.8947601
167.35916 -207.58839 -6.9091458
165.66373 -207.46524 -7.6616998
167.34331 -207.50996 -7.7145529
167.43286 -207.48364 -8.6980019
165.48706 -207.31036 -2.883245
165.75888 -207.29465 -2.8779809
166.18013 -207.3992 -3.6709731
166.22443 -207.38048 -4.064579
167.42343 -207.38298 -4.345789
168.50552 -207.34969 -4.5378728
166.69501 -207.38672 -5.1950231
167.38583 -207.39435 -5.049726
165.69334 -207.27101 -5.9513779
165.58916 -207.33018 -6.0599332
165.70959 -207.22592 -6.0657349
167.55043 -207.31433 -6.1745858
165.90414 -207.35623 -6.635777
166.13934 -207.38802 -6.6842079
166.52591 -207.3479 -6.8853869
167.06204 -207.3602 -6.9432611
168.5549 -207.28697 -6.8373561
165.81111 -207.39429 -7.561254
167.01311 -207.32433 -8.6068115
168.1689 -207.29695 -8.7406292
166.09537 -207.11549 -3.545429
167.15111 -207.00862 -4.213057
167.37628 -207.02843 -4.337635
167.71777 -207.00363 -4.5099139
178.97626 -207.08905 -4.6662569
178.91995 -207.1252 -4.995214
167.40335 -207.01666 -5.0745759
167.41531 -207.04575 -5.2859921
165.79559 -207.09819 -5.9449968
165.953 -207.1089 -6.0424538
166.46446 -207.04648 -6.0315781
167.42139 -207.01344 -6.1170721
168.50139 -207.11005 -6.0748768
166.11028 -207.09805 -6.6785259
166.60869 -207.01373 -6.7273078
167.13681 -207.01744 -6.6496339
169.60161 -207.08888 -6.7132702
166.71243 -207.04445 -6.8999519
166.91382 -207.06018 -8.524807
165.95598 -206.91254 -3.3267829
165.78796 -206.98746 -3.681828
177.03267 -206.88231 -4.7081089
176.96588 -206.82295 -4.9065571
178.22916 -206.83719 -4.9930792
166.89792 -206.97479 -5.0419359
167.62918 -206.85599 -5.097414
178.60396 -206.87845 -5.0703411
166.68465 -206.90564 -5.3081751
167.07631 -206.83408 -5.2072401
167.64734 -206.99402 -5.2422018
168.28824 -206.92978 -5.3707418
178.86743 -206.85287 -5.2196069
166.15515 -206.88591 -5.9374199
166.75229 -206.95685 -5.840436
166.13898 -206.97795 -6.063271
167.73457 -206.99925 -6.0966158
166.86176 -206.93478 -6.8813038
167.48636 -206.95699 -6.9233651
167.67334 -206.96344 -6.95507
168.49615 -206.91039 -6.957058
166.49744 -206.94321 -7.5768008
166.28983 -206.95946 -7.6889629
166.47856 -206.84567 -7.732842
166.34193 -206.80977 -8.6173191
167.89052 -206.98744 -8.6672745
165.0867 -206.60963 -2.917665
165.77902 -206.78479 -3.5536301
165.42455 -206.60449 -3.691925
165.5584 -206.68425 -4.0607762
167.14839 -206.64294 -4.3791528
167.7328 -206.78957 -4.3831468
167.02481 -206.79573 -4.4998202
167.30569 -206.6543 -4.506958
176.25272 -206.60388 -4.6939092
176.35286 -206.67685 -4.911737
178.10983 -206.71414 -5.117866
166.6235 -206.77817 -5.2069478
167.40102 -206.64464 -5.280447
168.30438 -206.71085 -5.3143029
166.28076 -206.63048 -5.9321928
167.03958 -206.67683 -5.8895159
167.47084 -206.64619 -6.1067891
166.57353 -206.71741 -6.7314281
167.44965 -206.7635 -6.7920208
167.71715 -206.76222 -6.7632642
166.36838 -206.69479 -6.8647389
166.6235 -206.67377 -6.8836398
166.90475 -206.62643 -6.8626952
167.63211 -206.68874 -6.906321
168.24051 -206.69876 -6.9770751
166.65932 -206.65216 -7.5822878
166.65128 -206.6181 -7.7116179
166.84476 -206.60814 -7.653965
166.38161 -206.70555 -8.5303345
167.67862 -206.65424 -8.648221
164.13222 -206.56255 -2.7973249
165.51021 -206.47189 -3.505609
175.85086 -206.51593 -5.085464
176.57245 -206.56842 -5.1237688
166.57306 -206.50368 -5.8516188
166.58781 -206.54523 -6.0630431
168.33949 -206.50049 -6.1582651
166.95332 -206.58601 -6.7298651
167.4537 -206.57703 -6.9508958
168.66489 -206.5817 -7.005352
166.87737 -206.45924 -7.5857029
168.55046 -206.57147 -7.6673002
166.42395 -206.55844 -8.4616804
164.40338 -206.34822 -2.7939661
162.94173 -206.22054 -2.837466
165.13966 -206.26611 -3.700788
166.7235 -206.39981 -5.8144379
167.50546 -206.33362 -5.8316522
167.50827 -206.34946 -6.1633072
167.47104 -206.25473 -6.7049479
165.84442 -206.2063 -7.6484389
166.0257 -206.2075 -7.619916
166.98225 -206.25081 -7.7402802
167.63646 -206.39053 -8.5906487
164.89149 -206.13168 -2.939394
165.1226 -206.07288 -3.5711291
165.27162 -206.16655 -3.4581399
165.119 -206.18423 -4.058322
167.48846 -206.13815 -6.9315548
165.76045 -206.07323 -7.5233722
167.53625 -206.12079 -7.5608459
160.15732 -206.14636 -7.7785869
167.34042 -206.14026 -8.5868425
164.93207 -205.80717 -3.504854
164.74434 -205.81569 -3.7126141
167.53178 -205.97272 -6.7744522
167.68654 -205.98247 -6.785532
167.52745 -205.91422 -6.9805241
165.67569 -205.99382 -7.481431
166.08722 -205.97112 -7.6145768
167.13452 -205.91763 -8.5879364
167.38847 -205.86078 -8.5362959
169.44427 -205.76242 -6.7970042
166.53247 -205.78107 -7.5175252
166.7121 -205.75705 -7.6832762
167.15166 -205.79767 -7.767653
167.28867 -205.60927 -7.6063528
167.7141 -205.66682 -7.7817531
169.00688 -205.69223 -7.9062591
169.24168 -205.79756 -7.8387599
164.60602 -205.42511 -3.478528
167.64987 -205.4976 -5.9119191
160.13617 -205.42059 -6.9645419
167.12216 -205.59225 -6.9417992
164.30734 -205.25131 -2.9391091
164.49362 -205.28232 -2.989079
164.38116 -205.39749 -3.7235899
167.25514 -205.29662 -4.0757928
167.04709 -205.33759 -6.721704
167.6857 -205.36972 -6.7052898
167.74866 -205.36241 -7.59483
168.42589 -205.23515 -8.014926
161.68419 -205.19077 -2.905158
164.32352 -205.0889 -3.487675
167.16606 -205.09747 -6.5808902
160.14893 -205.11292 -6.9218798
167.25021 -205.08408 -6.8536839
164.09628 -204.94891 -2.9997439
163.93745 -204.9894 -3.372123
164.05136 -204.9953 -3.734118
166.17758 -204.9689 -4.2042208
179.18678 -204.88094 -4.5930238
160.83353 -204.90646 -7.7446742
160.19133 -204.61145 -2.714901
163.86658 -204.65936 -3.675987
166.62108 -204.69809 -4.0722041
160.97383 -204.78349 -7.7949181
161.51814 -204.51984 -3.002393
163.87144 -204.5825 -3.013597
165.69887 -204.47379 -4.1834049
173.30939 -204.57664 -4.1279602
176.76939 -204.58102 -4.3270712
161.55682 -204.2847 -2.934381
163.6566 -204.28662 -3.6189799
165.77657 -204.2469 -4.2390208
160.53943 -204.12387 -2.7239859
161.90759 -204.11699 -3.0777521
163.41823 -204.13168 -3.0776651
163.30959 -204.19983 -3.388541
163.44243 -204.15642 -3.711534
163.44191 -204.14687 -4.0492182
166.15829 -204.0722 -4.3342619
177.61012 -204.12515 -4.3441272
172.96716 -204.05101 -4.5117168
178.15297 -204.0554 -5.006721
178.97943 -204.01535 -5.2134209
160.91243 -203.8829 -2.723289
161.40462 -203.84081 -3.029377
161.63666 -203.80675 -3.0484099
163.31628 -203.85324 -3.0421901
163.37456 -203.96725 -3.2765801
163.26991 -203.84618 -3.7524481
178.75861 -203.82907 -4.5623498
179.02248 -203.84567 -4.6738009
179.45462 -203.80136 -4.6402011
176.70354 -203.85538 -4.920526
177.46649 -203.85297 -5.0091758
178.49529 -203.81351 -5.1049719
179.28723 -203.82574 -5.1214089
178.28198 -203.84546 -5.2410049
171.66582 -203.82001 -5.6833358
160.2341 -203.81134 -8.9527702
163.07474 -203.63635 -3.069468
163.09622 -203.70131 -3.2929029
163.04836 -203.71266 -3.715951
163.15176 -203.73109 -4.0477648
179.88786 -203.68575 -4.909389
178.90182 -203.79315 -5.0663171
170.30028 -203.77066 -5.5463691
171.47136 -203.67917 -5.537848
170.28293 -203.66406 -5.752038
160.80518 -203.43375 -2.742173
162.99933 -203.44302 -3.060384
162.98468 -203.40514 -3.2898741
171.01472 -203.55124 -4.1161728
166.58087 -203.57642 -4.4337802
170.60797 -203.40503 -4.529634
176.96957 -203.55933 -4.7276492
179.90778 -203.54202 -4.6038232
176.95091 -203.49542 -5.0260491
171.1041 -203.54547 -5.523551
171.32217 -203.43936 -5.5242672
161.01044 -203.52654 -9.4097633
161.33044 -203.3847 -2.977643
162.9057 -203.39674 -3.7661581
172.58057 -203.37704 -3.994324
162.87959 -203.32715 -4.0464358
170.27106 -203.29752 -4.2981582
170.56531 -203.33841 -4.2710142
176.17038 -203.27676 -4.674819
170.69739 -203.29218 -4.977684
171.17365 -203.38571 -5.199564
171.67003 -203.26938 -5.370831
170.50128 -203.37546 -5.8838201
162.16446 -203.23412 -6.5957708
162.0793 -203.35785 -6.8328629
161.88765 -203.27655 -7.1133661
161.93977 -203.26819 -7.3383169
162.85425 -203.25737 -7.928525
162.85976 -203.37416 -8.0093632
161.06061 -203.07344 -2.9951389
162.69229 -203.01723 -3.0542979
162.83424 -203.01706 -3.050415
162.80161 -203.03702 -3.4330549
170.62701 -203.00183 -4.338635
172.58109 -203.15363 -4.4701071
170.7733 -203.10219 -4.7279072
176.2011 -203.13193 -4.642673
162.20474 -203.10179 -4.9112949
176.18427 -203.1877 -4.9252691
176.25876 -203.08301 -4.926507
171.05019 -203.1106 -5.0783601
170.97131 -203.01721 -5.5501938
162.88475 -203.01114 -5.6266012
171.22141 -203.05569 -5.6882038
171.81949 -203.10138 -5.7142181
170.72186 -203.17317 -5.9082909
170.93886 -203.03268 -5.8260102
163.43536 -203.02516 -7.1417742
164.84346 -203.05266 -7.1874971
163.05971 -203.03915 -7.2349758
163.1797 -203.08507 -8.3016491
161.25369 -202.99756 -2.9930291
162.68492 -202.90637 -3.3876901
170.23282 -202.9959 -3.758677
173.38104 -202.88608 -3.7605219
162.55429 -202.88707 -3.869375
174.56595 -202.85252 -3.9319611
175.13254 -202.97356 -3.857686
162.64557 -202.9325 -4.0502481
163.08521 -202.82564 -4.3205838
170.98311 -202.92818 -4.2029881
170.67645 -202.92813 -4.5797472
170.87001 -202.93414 -4.511333
175.95139 -202.97256 -4.5659232
162.20348 -202.9558 -4.7615619
162.45262 -202.99287 -4.7911768
162.51894 -202.86313 -4.8844051
170.92517 -202.93094 -6.0679412
163.18759 -202.81227 -6.255322
163.38858 -202.9135 -6.2004061
170.71945 -202.9368 -6.2407441
170.94414 -202.98544 -6.7396512
162.18895 -202.92142 -7.0835872
162.97272 -202.91896 -7.789135
163.66248 -202.88139 -7.9788122
163.70352 -202.8468 -8.0954542
163.44159 -202.91638 -8.3198833
162.52325 -202.64221 -3.0625069
162.50055 -202.61017 -3.3821859
170.40523 -202.66679 -3.4035571
170.29947 -202.76196 -3.812093
174.95807 -202.65457 -3.9389701
175.65576 -202.63335 -3.9901061
162.45233 -202.63387 -4.049758
163.15894 -202.72702 -4.1955371
163.44513 -202.69814 -4.1526089
171.30515 -202.73886 -4.124866
175.73204 -202.66965 -4.566679
161.98959 -202.64709 -4.7519751
170.96637 -202.60002 -5.1262879
162.66049 -202.60559 -5.4017448
171.40076 -202.76686 -5.512598
170.68123 -202.66464 -6.23703
170.64069 -202.7298 -6.5454741
171.05713 -202.67392 -6.6795201
163.76015 -202.77481 -7.1677928
163.2354 -202.61508 -7.2123728
161.52254 -202.53427 -2.7664471
161.75623 -202.45682 -2.767941
162.29572 -202.4942 -2.9577899
162.18837 -202.53943 -3.4218831
162.21176 -202.40704 -3.404748
162.27271 -202.54898 -3.7430949
170.4397 -202.55498 -3.7715011
174.15387 -202.59412 -3.7759881
174.63785 -202.59546 -3.859509
175.08353 -202.5856 -3.9141829
175.42705 -202.57925 -3.9464929
162.23822 -202.4798 -4.1763272
175.47795 -202.43286 -4.1897421
170.57495 -202.53546 -4.3247142
170.53537 -202.49574 -4.4571528
171.06921 -202.56766 -4.5735021
171.39935 -202.50621 -4.5239992
162.09077 -202.5163 -4.7745781
162.1647 -202.47551 -4.8912201
162.77435 -202.47729 -5.0447969
172.46472 -202.52634 -5.3221889
170.93048 -202.55385 -5.4926882
171.8251 -202.52248 -5.458859
162.79753 -202.49924 -5.744791
170.9402 -202.4657 -5.6933751
171.8849 -202.59294 -5.703805
170.27048 -202.51167 -5.8561029
170.69955 -202.43579 -5.8045988
162.3197 -202.48814 -6.153224
162.57027 -202.44774 -6.28968
163.47885 -202.56026 -6.3110862
162.54797 -202.5199 -7.080658
162.34445 -202.55365 -7.8071318
162.2337 -202.48552 -8.1353779
163.82849 -202.51663 -8.2750158
161.86032 -202.2986 -2.7721801
170.65179 -202.34595 -3.726723
170.92168 -202.25592 -3.8242569
171.49789 -202.22585 -3.8741901
175.32675 -202.24066 -3.948935
170.74463 -202.28427 -4.4493322
171.38519 -202.31271 -5.0660439
162.76363 -202.23203 -5.2174168
171.08911 -202.27881 -5.4512219
171.40472 -202.22067 -5.423533
162.74094 -202.23553 -5.6283832
162.93768 -202.25101 -5.7409191
170.2709 -202.30919 -5.8272471
171.43512 -202.28568 -5.8923759
170.21608 -202.3492 -6.0240741
162.63141 -202.25713 -6.299612
170.49815 -202.29724 -6.2160592
170.09845 -202.35585 -6.46876
162.53918 -202.36885 -7.084147
164.07097 -202.36487 -7.0898852
162.62956 -202.20981 -7.748446
162.35794 -202.33354 -8.1218548
163.76794 -202.25119 -8.639431
164.04431 -202.26115 -8.8365116
162.17505 -202.1481 -3.026644
161.92651 -202.08786 -3.4306941
162.23724 -202.19537 -3.423116
161.95967 -202.11108 -3.6195841
162.1498 -202.13309 -3.7716551
171.15076 -202.19797 -3.8181801
171.69513 -202.19302 -3.831157
175.27695 -202.05817 -4.1910429
161.91893 -202.08762 -4.3080368
162.22104 -202.08601 -4.2726021
171.29018 -202.16711 -4.349627
170.92171 -202.19647 -4.4607902
171.49417 -202.19662 -4.566958
161.81973 -202.18845 -4.7527761
162.21176 -202.18716 -4.7688179
161.88034 -202.14978 -4.8953471
162.27661 -202.1088 -5.018373
162.7308 -202.05594 -5.0622482
161.9594 -202.1759 -5.2356348
162.83647 -202.07596 -5.2710352
162.17924 -202.08362 -5.4834032
170.19205 -202.1062 -5.493402
171.83531 -202.09674 -5.7637172
170.4552 -202.14252 -5.8706779
170.99646 -202.12746 -5.8933721
170.92468 -202.14679 -6.13623
165.39815 -202.06982 -6.3682761
171.29243 -202.18539 -6.3082671
162.68808 -202.18098 -6.4361691
161.81224 -202.10072 -7.17694
164.83783 -202.08362 -7.1428981
162.37338 -202.13538 -7.7672091
162.96196 -202.1172 -7.831902
163.83696 -202.16739 -8.1182728
164.21078 -202.18269 -8.7241488
161.91206 -201.83469 -2.9979961
162.07007 -201.87801 -3.0111001
162.07465 -201.88867 -3.4630971
172.32523 -201.97011 -3.4412019
173.01736 -201.99933 -3.571769
162.03426 -201.87238 -3.6817219
175.29709 -201.9687 -3.9936221
162.89322 -201.8846 -4.4014711
162.04669 -201.82047 -4.7438331
162.59918 -201.85025 -5.4104581
162.9906 -201.83051 -5.4270148
163.23558 -201.81773 -5.6475029
170.44812 -201.9491 -5.8871422
162.3943 -201.93457 -6.0693612
163.32922 -201.82773 -7.0396619
162.30725 -201.82944 -7.7809992
162.66281 -201.81566 -8.283639
162.69391 -201.81464 -8.509716
164.06845 -201.85059 -8.6358929
160.27032 -201.90015 -10.538362
166.97157 -201.68365 -2.8804281
161.91359 -201.76938 -3.361335
166.43779 -201.68176 -3.2031169
161.86073 -201.66946 -3.7784431
165.88283 -201.62537 -3.673321
166.16885 -201.77393 -3.6752219
175.02536 -201.79248 -3.907934
162.27036 -201.73019 -4.1871152
161.88918 -201.68417 -4.2466149
162.7821 -201.72449 -4.3460479
162.94672 -201.69243 -4.259716
164.79321 -201.71222 -4.2498922
161.8877 -201.76392 -4.7422161
161.83917 -201.74429 -4.956831
162.19508 -201.7354 -5.0063648
162.67517 -201.78929 -5.0252838
161.79413 -201.74677 -5.2541728
162.04729 -201.77367 -5.4828601
162.33963 -201.6519 -5.7078581
163.06573 -201.61223 -5.6601272
162.53497 -201.71729 -5.802083
171.1329 -201.70078 -5.8065419
171.20404 -201.60443 -5.9097371
162.55481 -201.76933 -6.299953
162.89369 -201.78963 -6.2008319
163.49011 -201.6682 -6.3694358
162.58279 -201.73743 -6.4320159
163.08972 -201.68799 -6.5577059
161.72803 -201.72353 -7.005609
162.04036 -201.78654 -7.052999
162.66348 -201.7861 -7.0535011
163.82571 -201.7231 -7.1063972
164.46584 -201.67964 -7.2830892
162.69464 -201.60747 -7.511765
162.60809 -201.73685 -7.7869959
163.07681 -201.79239 -7.75316
163.74728 -201.69041 -7.8987212
163.88087 -201.77115 -8.0463448
163.90097 -201.75974 -8.6080284
160.84911 -201.73447 -11.153546
160.0719 -201.76845 -11.279669
161.79414 -201.46075 -3.041537
166.14185 -201.50801 -3.2345409
161.78856 -201.47972 -3.419045
161.57306 -201.48167 -3.6219981
174.90169 -201.44795 -3.836251
175.05931 -201.56094 -3.921191
162.70508 -201.44235 -4.1677742
163.10844 -201.41151 -4.168879
175.06604 -201.57045 -4.1934299
162.22629 -201.50432 -4.323514
162.99438 -201.45093 -4.6014581
162.97247 -201.42322 -4.9967999
161.81104 -201.40967 -5.53824
162.61185 -201.43951 -5.4862719
163.47171 -201.45363 -5.5401769
171.21863 -201.49371 -5.5466709
162.69533 -201.59027 -5.9643998
162.916 -201.46431 -6.2952399
163.51282 -201.57787 -6.3688231
162.65558 -201.52394 -6.4088178
163.4511 -201.41589 -6.4816532
161.76724 -201.56129 -6.8958368
161.82204 -201.44719 -7.0021272
163.05086 -201.44061 -7.1236582
162.96432 -201.45424 -7.311594
162.31985 -201.5719 -7.681076
162.57419 -201.51907 -7.771399
163.34558 -201.42896 -8.1726255
163.87389 -201.5184 -8.1921997
164.35928 -201.43187 -8.210537
163.62088 -201.42792 -8.8241882
161.3197 -201.37109 -2.740381
161.78845 -201.37364 -2.789216
167.79977 -201.34764 -3.0408721
161.4821 -201.27567 -3.4463899
174.76596 -201.33458 -3.5917699
161.69504 -201.38712 -3.7810481
165.77074 -201.34625 -3.8332119
174.85281 -201.26549 -3.867903
174.92844 -201.21942 -4.1954188
163.32607 -201.25919 -4.299129
163.34578 -201.30566 -4.4520931
164.85822 -201.21584 -4.418951
162.17583 -201.39082 -4.7482762
162.66577 -201.20935 -4.7754321
175.14859 -201.39326 -4.9961138
161.92825 -201.28107 -5.0172148
162.61966 -201.24284 -5.0093679
175.31287 -201.29745 -5.0456219
162.17873 -201.28772 -5.4467978
163.04909 -201.35095 -5.4927912
162.09808 -201.33351 -5.6939182
162.21591 -201.31174 -5.6823869
163.02347 -201.34091 -5.717329
162.16809 -201.36798 -6.0314422
162.65581 -201.36206 -6.2239928
162.89911 -201.39517 -6.4463611
163.64685 -201.32555 -6.4760742
162.0612 -201.34082 -6.9900579
163.2403 -201.36807 -7.085475
174.14867 -201.26912 -7.1663318
162.06569 -201.32129 -7.3435268
175.94914 -201.39685 -7.302145
176.22581 -201.22256 -7.3281322
163.2346 -201.27708 -7.5268221
162.86191 -201.38345 -7.7778988
163.71785 -201.37724 -7.8964348
162.75732 -201.38681 -8.0676336
162.80826 -201.36136 -8.1341553
163.72955 -201.26062 -8.6152773
163.87204 -201.39838 -8.6253757
161.32504 -201.03976 -2.7120769
161.53033 -201.10696 -3.074475
165.2547 -201.15372 -3.1269219
161.5065 -201.0484 -3.370286
161.642 -201.1384 -3.4824359
161.48239 -201.09888 -3.7463651
161.61473 -201.1389 -3.700455
174.84981 -201.00104 -3.8863571
161.91965 -201.07642 -4.1304131
162.2153 -201.05276 -4.3495941
163.09579 -201.02353 -4.3089118
174.92137 -201.09116 -4.214592
175.0752 -201.17696 -4.3944139
162.56111 -201.0152 -4.772326
161.93433 -201.12537 -5.047894
162.2381 -201.06181 -5.0907202
162.22995 -201.12213 -5.3727808
163.24915 -201.04005 -5.3609452
175.11684 -201.01953 -5.3377442
161.70282 -201.11737 -5.524199
162.71875 -201.02954 -5.4463902
162.06073 -201.05266 -5.6858058
163.22116 -201.07658 -5.7503929
162.23378 -201.15329 -6.13762
163.23039 -201.063 -6.2296062
164.1059 -201.05589 -6.5512452
163.37445 -201.03197 -6.969882
162.1599 -201.13658 -7.0382719
162.61392 -201.02254 -7.0187821
174.23653 -201.10916 -7.1630082
175.15918 -201.19421 -7.0751781
162.12762 -201.10257 -7.3451362
174.08565 -201.06807 -7.429389
163.22592 -201.048 -7.760788
174.58754 -201.06433 -7.9352112
162.9391 -201.17082 -8.1411104
164.94754 -201.14456 -8.1040096
174.71867 -201.06354 -8.1585932
163.40765 -201.10722 -8.5389004
167.74814 -200.93826 -2.9551411
171.43971 -200.94019 -3.3919699
164.29694 -200.90959 -3.708241
163.34354 -200.99806 -4.1932478
163.6236 -200.98001 -4.1586008
174.81877 -200.84819 -4.0511231
162.68948 -200.88181 -4.3696251
162.01831 -200.94846 -4.4617128
175.07605 -200.95016 -4.9634662
163.12555 -200.98067 -5.459208
164.70349 -200.93777 -5.5694871
163.05981 -200.9413 -5.6341639
175.57321 -200.97964 -5.7176428
162.66264 -200.94452 -6.0332751
163.04141 -200.96404 -6.2795501
164.1727 -200.84964 -6.2330542
175.099 -200.86018 -6.28545
164.6683 -200.87091 -6.4121971
175.06567 -200.85492 -6.6340599
163.07292 -200.9742 -7.1059322
164.85609 -200.87317 -7.3702569
176.30319 -200.99875 -7.3281369
174.57028 -200.91656 -7.423615
163.13971 -200.93124 -7.727633
163.3929 -200.98836 -8.1291084
174.93771 -200.98387 -8.1147184
165.18089 -200.67505 -2.79985
161.4478 -200.63672 -3.066813
169.19585 -200.77817 -3.075557
161.4761 -200.71094 -3.3796179
164.47543 -200.78264 -3.2055991
171.96558 -200.62823 -3.3586781
161.45122 -200.64833 -3.728682
