# .PCD v0.7 - Point Cloud Data file format
VERSION 0.7
FIELDS x y z
SIZE 4 4 4
TYPE F F F
COUNT 1 1 1
WIDTH 681
HEIGHT 1
VIEWPOINT 0 0 0 1 0 0 0
POINTS 681
DATA ascii
169.18721 -296.26077 -8.1573467
162.02554 -292.5773 -9.6379118
160.57544 -292.09644 -9.639287
160.12634 -291.83142 -8.5562859
160.89847 -291.90015 -8.6384554
160.01947 -291.42801 -7.4813838
160.21521 -291.24741 -7.9615331
160.15724 -291.30295 -8.0684261
166.52304 -291.19608 -7.6978869
160.2374 -291.06598 -8.5322323
160.23245 -290.92114 -8.8889751
171.6673 -290.56512 -7.843082
171.81194 -290.50345 -8.0642586
160.93626 -290.53229 -10.252932
160.91504 -290.56302 -10.633683
171.80034 -290.3949 -6.7338982
171.81879 -290.29633 -7.843936
171.87161 -290.30182 -8.0975733
161.15039 -290.35315 -10.738232
167.16208 -290.11505 -6.7206669
166.07834 -290.10614 -7.8321271
166.13354 -289.91379 -8.2297401
166.94711 -289.92694 -9.1790676
166.1286 -289.78522 -8.4728241
165.85249 -289.5058 -7.937675
166.01691 -289.46469 -7.9273038
166.68254 -289.48889 -8.6628418
167.05603 -289.41406 -9.1608381
167.45047 -289.45673 -9.1197758
171.87695 -289.49008 -9.9831638
171.83479 -289.37665 -8.0452499
167.84164 -289.30298 -8.7190905
165.94908 -289.11603 -7.6498861
166.31613 -289.02411 -7.7996249
166.35721 -289.12857 -8.2213211
168.07968 -289.00967 -8.237896
168.09792 -289.13873 -8.669281
171.72929 -288.81577 -7.5390859
166.75954 -288.84348 -7.9893398
171.90028 -288.80267 -8.0372772
167.02466 -288.95886 -8.6551037
167.4366 -288.80832 -8.6368217
167.74243 -288.95502 -8.6516085
171.95056 -288.7803 -7.5091519
166.61084 -288.61801 -7.7526841
166.98779 -288.71234 -8.2331181
167.34509 -288.60648 -8.2023191
171.82735 -288.60004 -8.3319492
167.18506 -288.73886 -8.6264391
167.38771 -288.25388 -7.7713032
166.92923 -288.34827 -7.8042331
168.12936 -287.7366 -6.2256112
171.8985 -287.72653 -9.5260983
168.41516 -287.4624 -6.4657001
171.84816 -287.43393 -6.5242481
171.82549 -287.30914 -7.4786878
172.03801 -287.26392 -7.4522638
171.91222 -287.28299 -7.74687
171.87413 -287.39221 -9.5129585
171.87105 -287.01642 -6.5252719
170.25204 -286.91757 -6.2674189
170.19984 -286.97314 -6.5175419
171.67133 -286.21188 -7.4840212
171.74384 -286.23752 -7.8555388
171.87326 -285.86481 -7.7199888
171.92259 -285.72659 -7.0188041
171.9397 -285.78214 -7.4534488
168.18112 -285.3931 -6.6376009
168.64827 -284.65649 -6.5826831
168.33966 -284.57339 -6.4687858
171.81664 -284.40833 -7.45051
171.91199 -284.26779 -6.9995632
171.97725 -284.27063 -7.42662
171.84354 -284.37427 -7.763226
168.36043 -283.49545 -6.6937528
171.82101 -283.28006 -7.4276881
171.87418 -283.02603 -6.5556889
171.77873 -282.93311 -6.3147941
171.94299 -282.82599 -7.399632
171.98553 -282.8089 -7.7388458
171.98962 -282.75635 -6.5337901
171.80789 -281.82416 -6.320962
168.03055 -281.78741 -6.711246
167.95312 -281.51114 -6.6643
168.24612 -281.28134 -6.8773508
168.06696 -281.12259 -6.6635742
168.51128 -280.95398 -6.8482909
171.85794 -280.37228 -6.329246
171.98065 -280.07617 -6.5377498
177.76639 -298.70547 -13.727017
169.70253 -297.82578 -10.708452
169.89386 -297.51007 -10.605234
169.14502 -296.66766 -8.1240025
169.11958 -296.21381 -8.1054783
173.00107 -293.96185 -11.481316
162.17566 -293.0325 -10.662757
160.98267 -292.41699 -12.071603
161.02472 -292.36035 -11.432297
160.98473 -292.31293 -11.860657
160.58426 -292.10168 -10.574839
160.10335 -291.87842 -8.1908951
161.09528 -291.95825 -8.9811649
160.05957 -291.74539 -8.9337425
160.61841 -291.76196 -12.290195
161.65874 -291.72211 -18.634159
160.22388 -291.48184 -7.1772032
160.09557 -291.27094 -8.1187468
163.4866 -291.20743 -16.153706
166.53067 -291.09247 -7.7981572
160.15414 -290.94586 -8.8970337
171.68758 -290.77347 -7.4188752
166.82071 -290.61703 -8.9386511
160.21756 -290.70135 -9.0819626
160.67407 -290.60083 -10.278828
160.50519 -290.77747 -21.928112
160.90289 -290.54147 -10.221447
160.72508 -290.56305 -10.52459
160.88852 -290.47546 -10.539497
160.6935 -290.47876 -10.833015
171.75854 -290.37811 -7.4174681
171.75169 -290.2261 -9.330142
167.15985 -290.19269 -6.7160339
166.57376 -290.1275 -8.7512856
165.96442 -289.91553 -8.1817398
166.65315 -289.60284 -8.7505102
160.98747 -289.79037 -11.727783
171.79068 -289.46741 -7.4366398
166.13446 -289.45224 -8.4010067
166.55107 -289.47449 -8.6999989
160.55847 -289.49304 -11.684095
167.01733 -289.33972 -8.974041
167.36505 -289.37958 -8.9852428
171.60068 -289.33054 -8.8340492
168.59979 -289.12772 -7.9434061
166.42711 -289.14874 -8.406868
167.87605 -289.00226 -8.5832844
168.17871 -289.14313 -8.5725422
171.64761 -289.0249 -9.0000744
171.80267 -289.1452 -10.015497
160.3327 -289.02487 -12.116928
171.81252 -288.89423 -7.4555721
166.52849 -288.86404 -7.740634
166.92432 -288.91168 -8.5671806
167.43832 -288.84979 -8.7241669
161.36992 -288.91064 -12.633705
160.23163 -288.89838 -15.745232
166.55717 -288.6395 -7.7296319
167.61266 -288.71487 -8.174325
171.7618 -288.72644 -8.2394953
166.5282 -288.73456 -8.4036293
167.13715 -288.69327 -8.5248528
160.14307 -288.73926 -16.892506
166.61465 -288.43976 -7.9384732
171.88705 -288.58533 -9.9958858
167.70833 -288.31552 -7.959826
171.72754 -287.85312 -7.3893161
171.77298 -287.7998 -6.8933678
171.6732 -287.63885 -8.7830477
171.70575 -287.43707 -6.8501592
171.8336 -287.36047 -7.3200402
171.75262 -287.36832 -8.6951609
171.75482 -287.13156 -8.7278662
171.8064 -286.94702 -8.8425484
171.76035 -286.97977 -10.270756
162.1451 -286.92297 -17.241524
171.71344 -286.67172 -8.711957
171.55005 -286.2941 -7.1692472
171.70267 -286.20432 -7.351882
171.76422 -286.28577 -7.8700151
171.61314 -286.27893 -8.6550446
171.64146 -286.09671 -6.399405
171.64743 -286.01855 -7.1712222
171.84038 -285.86017 -7.336957
171.87587 -285.88263 -7.8021979
171.84848 -285.75439 -7.0963092
171.83508 -285.76819 -8.7895746
171.86618 -285.52573 -7.1756229
171.871 -285.54544 -8.1866236
171.70633 -284.87756 -7.4244452
171.73155 -284.82996 -8.695529
168.30495 -284.60223 -6.6057601
171.74707 -284.67322 -8.1884155
171.73514 -284.46011 -7.4213409
160.05139 -284.55188 -11.651122
171.77234 -284.37384 -6.307333
171.84003 -284.30609 -7.0861459
171.88974 -284.32288 -7.404933
171.89929 -284.32397 -7.76932
171.87399 -284.24109 -8.1605072
171.84589 -284.20126 -8.6361752
171.98352 -284.30286 -8.8377314
171.77493 -283.66479 -7.0069451
171.78404 -283.67572 -8.6935406
171.7092 -283.51685 -7.8388681
171.79909 -283.3588 -7.1855168
160.62384 -283.3891 -10.701763
166.7323 -283.02911 -5.9905109
171.83093 -283.14636 -8.5500174
171.80859 -282.93323 -7.1770291
172.04861 -282.75659 -7.4298091
171.85736 -282.14911 -6.8565249
168.09019 -281.78357 -6.5098639
167.98135 -281.29495 -6.393826
171.77354 -281.39786 -6.431942
171.86949 -281.38007 -7.1467919
171.86969 -281.17911 -6.4144621
172.22784 -281.19308 -7.42695
168.28342 -280.86908 -5.9754982
168.17708 -280.96143 -6.687778
166.62289 -280.60147 -5.925694
160.68225 -280.41159 -15.106899
166.61719 -280.25574 -5.906703
172.00061 -280.18973 -6.0971241
171.92828 -280.08667 -6.5333781
177.3876 -299.86279 -28.192053
179.02794 -299.18402 -28.336981
169.10141 -297.91266 -9.783102
169.54221 -297.37097 -11.783903
168.9967 -296.60333 -9.0142403
175.77748 -295.84143 -10.929351
177.7291 -295.43829 -25.726921
170.91634 -295.11984 -12.957827
172.04492 -294.51291 -12.044806
173.09534 -294.32764 -12.041832
172.64197 -293.95505 -11.010248
172.54575 -293.55859 -9.5655251
173.52914 -292.88092 -12.512356
160.00372 -292.7395 -22.372671
160.65945 -292.23102 -10.547649
160.43051 -291.88867 -8.735096
161.30009 -291.52319 -9.585043
163.50595 -291.3219 -15.84323
171.71878 -290.85934 -8.9526863
160.58968 -290.85495 -10.214983
160.3726 -290.72321 -10.826551
171.77193 -290.40585 -6.5184479
171.65308 -290.52158 -7.8396459
160.1402 -290.51947 -11.345766
160.8349 -290.41513 -11.477478
171.73848 -290.35406 -7.4637508
171.77928 -290.28503 -8.1909113
167.25798 -290.10965 -6.4322858
160.95757 -290.14969 -11.381856
160.78381 -290.03448 -21.805416
166.09787 -289.63892 -7.8239551
171.66385 -289.62164 -9.1471605
171.55846 -289.53952 -9.6876783
166.05457 -289.39334 -7.900466
171.65475 -289.32568 -8.1875458
168.12671 -289.20282 -8.5744228
161.83562 -289.29224 -18.471201
171.7227 -289.02267 -7.4927778
166.46909 -289.05963 -8.2203035
166.55814 -289.13031 -8.4882336
168.2428 -289.13397 -8.5716219
171.72333 -288.80457 -7.8200588
166.91948 -288.94238 -8.5651712
167.06769 -288.99725 -8.8260832
171.67996 -288.90704 -8.8996868
168.02718 -288.6785 -7.196907
171.84016 -288.77951 -7.057313
167.0363 -288.71268 -8.1399908
166.96626 -288.50861 -7.9874749
167.76408 -288.50269 -7.8834062
171.7019 -288.42801 -8.8084412
171.70229 -288.34778 -8.215971
171.61362 -288.1489 -9.1302176
160.39322 -288.01956 -11.513779
171.6922 -287.87903 -7.3359871
171.74036 -287.82544 -7.9850278
161.80876 -287.84735 -14.403345
162.99115 -287.47272 -17.923698
171.7984 -287.37354 -7.277771
172.03381 -287.2572 -7.4536109
171.82413 -287.32346 -7.8623219
171.80074 -286.91507 -10.266914
160.64404 -286.92221 -17.099922
171.74091 -286.73022 -8.7085342
171.70499 -286.54556 -7.3059049
171.59679 -286.27762 -6.7691889
171.56564 -286.23331 -7.3273172
171.57199 -286.2226 -9.4440746
171.64072 -285.96127 -6.7679448
171.85168 -285.83533 -7.328938
172.05273 -285.7677 -7.2324629
171.77841 -285.73096 -8.1633377
171.81598 -285.75189 -8.7089005
167.98376 -285.50531 -6.7441378
172.06058 -285.54507 -7.3875809
171.85812 -285.32135 -8.5955372
162.57312 -285.10504 -16.650562
168.30057 -284.96021 -6.635304
171.73355 -284.91986 -7.3956008
171.78659 -284.77841 -7.7668409
171.76411 -283.6861 -7.0327048
171.85101 -283.79248 -8.6484928
168.33847 -283.47028 -6.574245
171.72296 -283.44449 -7.4346151
171.68823 -283.31372 -6.464663
162.67628 -283.21634 -16.921246
160.74295 -283.05945 -10.702103
171.77155 -282.98468 -6.5302682
171.79031 -282.90964 -7.0298548
171.80859 -282.97043 -7.4304519
171.81531 -282.9675 -7.843224
161.16774 -282.91824 -10.15241
166.74963 -282.76318 -5.9939628
171.68967 -282.12073 -6.0813141
171.75597 -281.87451 -6.1985202
172.00381 -281.83209 -7.4236441
168.08313 -281.60654 -6.8161621
171.87723 -281.7854 -6.9037871
166.66817 -281.30734 -6.0190182
171.85088 -281.35266 -6.671474
168.30264 -281.39554 -6.9881539
171.87601 -281.34998 -6.9076438
166.6188 -281.09012 -5.9403672
171.85033 -280.92691 -6.0489202
168.20294 -280.97318 -6.3971062
171.92358 -280.91992 -6.8224449
171.88623 -280.41855 -7.3484249
177.95755 -299.72791 -28.263708
169.78699 -297.75497 -10.650758
169.9436 -297.5112 -10.5948
170.02312 -297.37299 -10.604021
174.85374 -296.7038 -6.56145
173.32291 -296.73065 -10.708792
173.61247 -296.06012 -9.5635204
174.08563 -295.75476 -9.2102537
164.28517 -294.91138 -16.39776
171.46573 -294.63446 -12.282823
172.51276 -294.02631 -9.4462357
172.0952 -293.87286 -9.8648596
162.48602 -292.70532 -12.206482
160.07545 -292.03619 -8.0689735
160.07858 -291.86835 -7.896595
160.24739 -291.14651 -14.613386
171.80592 -290.84085 -8.0700073
171.5563 -290.97769 -9.7744865
160.01187 -290.90936 -15.176096
160.12372 -290.75967 -14.5588
171.70969 -290.5152 -7.1515899
171.73987 -290.55844 -8.9453688
160.69638 -290.56421 -9.8899412
160.97952 -290.47107 -10.575093
171.67203 -290.3324 -6.7378478
171.83871 -290.28467 -7.3835111
161.05225 -290.35199 -10.639386
160.94817 -290.24149 -10.964779
160.72668 -290.34937 -11.198203
166.06062 -290.10672 -7.8536959
166.5022 -290.07141 -8.6815672
171.74522 -289.98981 -7.1031561
163.69055 -289.87863 -17.526985
163.35515 -289.83246 -17.841217
166.11156 -289.73718 -8.2195625
166.5782 -289.64648 -8.6735954
166.7417 -289.78818 -8.8212013
161.10062 -289.79465 -11.803326
161.25443 -289.63889 -11.857641
161.10599 -289.69806 -13.015942
161.39378 -289.78516 -15.170004
168.46146 -289.34271 -8.5402632
167.79526 -289.02399 -8.5750809
171.952 -288.81381 -6.995297
171.62561 -288.96863 -9.5957079
168.09238 -288.60333 -7.9833241
165.90794 -288.70093 -17.543423
171.74435 -288.55511 -6.4994111
167.45573 -288.22672 -7.7271061
171.69856 -287.88666 -7.9366069
162.44577 -287.94617 -14.879207
171.64832 -287.65851 -6.2883701
162.30246 -287.6134 -14.839042
168.35147 -287.54349 -6.4796109
171.78564 -287.44702 -7.3090749
171.74748 -287.40881 -10.161333
162.24359 -287.54373 -14.819314
171.77405 -287.17062 -8.1933117
162.76944 -286.87695 -17.797968
171.72293 -286.49078 -7.2956452
171.67514 -286.21735 -9.4664392
171.69534 -286.18311 -7.3218732
171.86082 -285.87048 -7.452405
171.81461 -285.53949 -8.2182522
168.55145 -284.64685 -6.6129179
171.84053 -284.49057 -6.5533872
171.75702 -284.47931 -8.6400347
171.66548 -284.36359 -9.5133696
171.79346 -283.66 -6.412395
171.78935 -283.7301 -7.3108878
171.80423 -283.5159 -7.369369
171.78275 -283.48022 -8.6296558
171.67754 -283.30234 -6.11024
168.51723 -283.39639 -6.387342
171.84016 -282.92145 -7.0652852
171.87062 -282.93756 -7.7518239
160.72191 -282.54083 -10.397057
171.8147 -282.0553 -7.8220639
171.7439 -281.80133 -6.4832501
166.60284 -281.44287 -5.9411101
171.89464 -281.41718 -6.9987268
168.10184 -281.32794 -6.4399118
167.93658 -281.34283 -6.6162071
172.05319 -281.27747 -7.1376572
172.03992 -281.31277 -7.7292399
168.53233 -280.85736 -6.5458951
168.9704 -280.95154 -6.8279152
171.95976 -280.96497 -8.5700808
166.61488 -280.62415 -5.9206238
172.01202 -280.47098 -7.4170108
160.8719 -280.35083 -11.013391
168.74907 -298.44797 -9.7982225
170.08351 -298.379 -11.537354
170.04883 -297.65991 -10.252279
173.39 -296.22845 -10.015654
169.08055 -296.10074 -8.4800682
174.10162 -295.85391 -8.3352556
173.91081 -295.68793 -8.799758
171.7267 -294.91547 -11.79528
171.76242 -294.65222 -11.498631
165.22581 -294.65717 -17.223743
171.95155 -294.5712 -12.100847
161.04977 -292.41296 -12.101074
160.4549 -292.03012 -9.0118799
160.43477 -292.0657 -11.296633
160.40234 -291.98569 -9.0185928
160.08966 -291.05637 -21.928068
160.20305 -290.86194 -8.9508572
160.29773 -290.96808 -9.5756025
171.67346 -290.65271 -7.434226
171.67749 -290.66016 -9.2975245
160.74751 -290.60938 -10.628675
160.27692 -290.71362 -13.846209
161.05678 -290.65155 -21.983536
171.7099 -290.46588 -8.1601582
160.46829 -290.5585 -9.0970478
160.91321 -290.52661 -10.279449
171.83548 -290.31116 -7.389605
166.31741 -290.32315 -7.428875
166.65288 -290.04016 -8.9112158
166.91403 -290.05521 -9.0191088
163.74471 -290.09598 -17.427954
167.24295 -289.9021 -6.6689968
166.90298 -289.84967 -9.0671768
160.94891 -289.94516 -11.183533
171.74333 -289.44415 -7.3901672
166.25418 -289.52737 -8.2109938
171.72917 -289.59122 -10.106004
161.17883 -289.57431 -11.877065
168.45312 -289.23761 -8.2564201
167.38904 -289.35016 -8.9175014
167.83614 -289.30386 -8.8058395
171.64142 -289.32874 -8.9806862
166.24927 -289.0416 -8.1544008
171.67371 -289.03546 -8.1796694
171.71217 -289.11188 -10.498589
171.78006 -288.91376 -7.4826298
166.55917 -288.62381 -7.7007728
172.00421 -288.75073 -8.2571297
167.48344 -288.7327 -8.4395456
161.39664 -288.73749 -12.833792
167.32919 -288.4252 -7.9496341
167.18161 -288.29898 -7.5483599
166.64487 -288.37656 -7.6843419
167.05 -288.30899 -7.9384608
171.68771 -288.07172 -8.1872139
171.74084 -287.79065 -7.365963
171.69641 -287.7659 -10.248547
171.69493 -287.41226 -8.8691626
171.82983 -287.43066 -9.4922686
171.77942 -287.30182 -8.2190723
171.75117 -287.39621 -8.7216415
171.75154 -287.11615 -8.7378101
171.72925 -286.74069 -6.6337752
171.76947 -286.6665 -8.8294296
171.55237 -286.26703 -7.1346259
171.59991 -286.28119 -8.1709013
171.75439 -286.05109 -7.0794711
171.71349 -286.14655 -8.8666077
162.20929 -285.93457 -16.60737
171.83328 -285.76682 -7.0567579
168.09348 -285.27045 -6.8114481
171.8383 -284.94693 -10.397207
171.74089 -284.51398 -7.092226
171.83275 -283.46771 -7.2905951
160.49136 -283.24469 -9.9592915
164.39992 -283.3425 -17.690252
160.16359 -282.83997 -11.849132
171.72409 -282.62634 -6.0927382
166.62213 -282.23187 -5.9748192
166.78539 -282.01913 -6.003449
166.60825 -281.91434 -5.932013
166.73267 -281.63214 -6.015729
167.97943 -281.7276 -6.3916712
160.29932 -281.62918 -15.40435
167.81657 -281.59348 -5.9971819
168.25757 -281.25827 -6.1522698
171.92245 -281.34259 -7.3554082
172.07893 -281.28342 -7.3974271
171.87885 -280.44235 -7.1547041
160.87587 -280.41296 -10.91445
166.61658 -280.2998 -5.9061551
160.71225 -280.35446 -11.174014
170.72681 -298.95349 -12.921395
171.33176 -298.71494 -6.4120002
169.55142 -298.18808 -7.7325821
169.54889 -298.11588 -8.2439013
169.87172 -298.16702 -11.002436
169.63287 -297.27237 -7.7377191
171.66977 -295.92163 -13.736614
160.51981 -294.6998 -6.5261769
172.68207 -294.02802 -10.727465
161.18703 -292.21249 -12.704771
163.74553 -292.12411 -11.603422
161.22459 -291.91791 -8.9498253
161.55309 -291.99115 -15.869427
160.11807 -291.48001 -7.4101982
166.6084 -291.3627 -7.6171699
160.42236 -291.26407 -7.969111
160.15422 -291.04517 -8.220727
160.1835 -290.88782 -10.148563
160.32025 -290.83139 -10.524801
166.52316 -290.67242 -8.2047482
160.27921 -290.71378 -9.1175213
171.49428 -290.43478 -6.7298951
171.59158 -290.5015 -7.560154
160.72452 -290.58054 -10.338473
171.64287 -290.2789 -6.8083901
160.55908 -290.24335 -9.2757072
161.66179 -290.21609 -11.221926
167.08351 -290.0769 -6.3885398
161.02475 -290.19641 -11.905737
171.76266 -289.94492 -9.3177099
171.70596 -289.47562 -7.8273401
171.75723 -289.47729 -9.3306351
171.69023 -289.42996 -9.6909533
167.12746 -289.22995 -8.7979488
167.00027 -289.34863 -8.8884859
168.1503 -289.09473 -8.1411467
166.22034 -288.97763 -7.731832
171.72673 -288.81131 -7.839128
171.92758 -288.73511 -7.8254251
167.41937 -288.63257 -8.10641
171.99048 -288.69214 -8.4080944
166.87933 -288.37708 -7.6905541
171.70396 -288.07309 -7.3777542
168.12592 -287.68542 -6.2908502
168.15952 -287.66092 -6.5635681
171.689 -287.36453 -6.2905922
171.68562 -287.3591 -6.6789179
171.79221 -287.36011 -7.845048
162.05508 -287.30014 -17.789207
171.65794 -286.25613 -6.4692941
171.724 -286.22156 -7.8304172
161.40634 -286.29056 -17.884153
168.0713 -285.41354 -6.6977582
168.33917 -285.13007 -6.2426572
171.79442 -285.04907 -7.0491629
171.78363 -284.70154 -7.733254
171.74855 -284.47784 -7.3834219
171.91493 -284.30426 -7.3687329
171.84355 -284.34344 -7.69842
168.37512 -283.47061 -6.2517738
168.46181 -283.38342 -6.4773102
171.78944 -283.39453 -7.1202641
171.84131 -283.03067 -8.4905624
171.74008 -282.95816 -6.2083859
171.97296 -282.78809 -7.280683
171.89536 -282.61584 -8.4489689
171.93024 -282.65552 -9.974884
160.10323 -282.77829 -11.811087
171.78311 -282.57669 -6.471972
171.90411 -282.57294 -6.9275122
171.74556 -282.11758 -6.4911609
171.87869 -282.1246 -6.912128
167.86971 -281.6882 -6.7273178
160.41312 -281.65805 -14.543247
171.76619 -281.37955 -6.0432792
166.74629 -281.08362 -6.014143
168.55254 -281.09543 -6.1407499
168.19705 -281.05975 -6.306314
171.92197 -281.03186 -6.6939821
166.59082 -280.80087 -5.980773
160.21417 -280.88916 -15.540344
172.03389 -280.4588 -6.0943141
172.04285 -280.27072 -7.4169412
171.88979 -280.09399 -7.157196
169.65271 -298.2019 -7.7168179
169.10747 -298.09134 -8.0338345
168.92474 -298.07419 -9.8369951
169.14322 -297.85144 -9.0273361
169.74338 -297.65891 -10.971726
171.12764 -297.68781 -11.848186
170.13788 -297.54327 -9.6021404
170.78372 -297.41223 -11.01786
169.56561 -297.36899 -7.8797808
172.19849 -294.58731 -11.4993
172.2851 -294.4086 -12.517406
171.90099 -294.43469 -13.606576
172.59511 -294.13141 -11.518913
162.21532 -293.00745 -10.636454
173.80197 -293.08002 -10.634624
160.12418 -292.81036 -22.327248
160.67264 -292.21619 -10.256496
160.69664 -292.27783 -11.014955
160.59219 -292.14957 -9.8819389
160.13194 -291.83981 -8.6420679
160.95758 -291.90027 -8.7013092
171.4933 -291.89664 -11.355525
160.43877 -291.53845 -7.1828771
160.13445 -291.3447 -7.9743242
160.06683 -291.24255 -8.1430464
170.20374 -291.1069 -6.2946868
160.21707 -291.01205 -8.6172047
166.26572 -290.75113 -8.2604275
165.03865 -290.76514 -15.006828
160.42116 -290.50638 -9.2750092
171.7914 -290.31079 -7.8408809
172.08353 -290.24509 -8.067976
171.77361 -290.27728 -8.9390926
171.5733 -290.3652 -9.2459116
161.22621 -290.00122 -11.607988
166.07018 -289.82013 -8.4380274
171.71944 -289.68906 -7.3534422
171.76828 -289.63071 -8.3119659
165.85619 -289.53174 -7.901567
166.54373 -289.41559 -8.6405191
160.51221 -289.46051 -11.798078
167.91945 -289.25507 -8.7561178
160.6786 -289.35086 -14.431172
165.96335 -289.13892 -7.803617
160.48703 -289.07278 -11.985052
160.30148 -289.0271 -15.569834
160.76242 -289.07581 -17.019928
168.35933 -288.80548 -7.717206
166.47256 -288.79733 -7.5850081
171.95108 -288.77261 -7.4856548
167.1218 -288.74234 -8.5397358
166.73775 -288.32751 -7.5578289
167.03618 -288.33264 -7.7505779
171.56989 -288.02036 -6.758513
171.71301 -288.06726 -8.7578487
171.74362 -288.06088 -10.268516
171.65799 -287.75534 -8.2160187
161.79282 -287.7923 -14.455275
162.43011 -287.45001 -15.217852
172.06573 -287.24274 -7.385582
172.00262 -287.29993 -7.9003901
171.76233 -287.0553 -6.6342731
162.62219 -287.01248 -16.438786
162.43839 -287.04053 -16.806263
163.8315 -287.04715 -17.947392
170.17679 -286.9798 -6.4968219
171.68652 -286.53519 -7.9007049
171.86127 -285.83508 -7.755846
172.05681 -285.63391 -7.189065
171.72958 -285.02271 -8.6463919
171.81277 -284.86447 -7.7125282
172.02553 -284.25827 -6.9393282
171.89056 -284.30823 -7.082912
171.854 -284.15948 -8.6256285
171.87958 -283.86444 -8.6893768
160.83054 -283.28098 -11.158411
171.89285 -283.02609 -9.9989376
171.86871 -282.89032 -7.1234221
172.03943 -282.50836 -6.9658599
171.91122 -282.32599 -8.4279518
171.78424 -282.19989 -7.262763
171.81444 -281.98764 -7.2566891
171.90549 -281.9549 -8.3816757
171.90347 -281.74731 -8.6125517
171.89508 -281.3233 -6.6334858
168.44635 -281.2381 -7.0328431
168.24524 -281.00525 -6.81215
171.79309 -280.96835 -5.919836
168.46899 -280.93817 -6.8635788
171.84906 -280.25281 -5.8572831
166.86806 -280.35611 -6.000741
171.86238 -280.36829 -6.172708
171.91881 -280.07562 -7.3470979
