# .PCD v0.7 - Point Cloud Data file format
VERSION 0.7
FIELDS x y z
SIZE 4 4 4
TYPE F F F
COUNT 1 1 1
WIDTH 1513
HEIGHT 1
VIEWPOINT 0 0 0 1 0 0 0
POINTS 1513
DATA ascii
165.70871 -240.21317 -4.403986
167.70834 -240.31758 -8.0923719
175.22452 -240.30185 -8.1307259
175.03027 -240.28323 -8.2770977
171.89603 -240.25479 -8.5365391
176.26277 -240.39279 -8.8644695
179.40802 -240.38467 -9.8357868
164.4548 -240.26927 -10.521551
177.10532 -240.32967 -10.530436
171.6183 -240.39645 -11.024906
174.84239 -240.21341 -11.181572
163.70898 -240.27614 -11.301126
178.44737 -240.3851 -11.310338
168.96243 -240.25471 -13.336972
170.97221 -240.31328 -14.053774
170.5641 -240.27937 -14.426294
172.88333 -240.38206 -14.441499
176.53323 -240.11108 -4.310585
172.66971 -240.10699 -6.781487
172.29507 -240.11932 -6.9271832
171.31975 -240.09521 -7.517024
171.84348 -240.14932 -7.4360199
172.067 -240.1535 -8.0771313
172.77658 -240.01407 -8.601943
178.08282 -240.0679 -8.6778326
172.85251 -240.08755 -9.028532
179.56512 -240.19055 -9.0496082
167.81345 -240.07751 -9.3397322
170.51312 -240.18117 -9.5046892
174.2462 -240.08978 -9.8186417
173.85086 -240.03375 -10.701858
163.51726 -240.11737 -11.321187
166.01944 -240.01979 -11.533752
171.31229 -240.09103 -11.45432
165.2085 -240.03723 -11.764196
176.50154 -240.12317 -11.775548
175.07327 -240.11452 -12.095304
179.91267 -240.09288 -12.10413
170.48782 -240.07523 -12.261133
170.60219 -240.09338 -13.024659
169.61984 -240.11465 -14.108874
169.01288 -240.02275 -15.74673
162.19397 -259.90576 -5.2815881
165.55086 -259.83041 -5.2656422
165.89905 -259.86865 -5.3475709
161.72939 -259.94891 -11.696591
160.53426 -259.96259 -12.48526
161.47517 -259.94504 -12.475546
174.88223 -259.89197 -13.433851
167.75313 -259.78323 -7.6865168
166.23576 -259.60492 -12.063986
171.71088 -259.7164 -12.665325
173.32703 -259.6853 -18.649651
166.43318 -259.43353 -5.5663471
162.4399 -259.47858 -12.675726
160.27174 -259.56012 -14.043543
161.01105 -259.33569 -5.2436962
165.9024 -259.32556 -5.3295379
166.42116 -259.25867 -5.5868521
167.60211 -259.21634 -7.03866
160.28014 -259.39066 -10.040998
164.08186 -259.38855 -11.852146
164.2749 -259.26407 -12.214636
165.05118 -259.26541 -12.244352
165.90018 -259.38898 -12.317402
166.35776 -259.03207 -5.7280931
167.6037 -259.15799 -7.070765
165.478 -259.09424 -11.796989
162.83798 -259.16522 -14.617535
172.77719 -259.05646 -17.069286
166.32619 -258.95184 -5.4909458
160.74377 -258.96442 -11.456657
161.71936 -258.94113 -11.402328
165.57243 -258.95938 -12.18931
164.56372 -258.94843 -12.205723
162.88194 -258.88025 -14.284294
163.18242 -258.66357 -13.134609
162.71751 -258.71869 -13.713635
167.42288 -258.48679 -7.0790601
163.62201 -258.48035 -11.520594
164.64668 -258.41385 -13.196951
162.87051 -258.51044 -13.388203
162.37329 -258.302 -9.3235722
161.28654 -258.30048 -10.215006
161.94945 -258.38043 -10.262899
165.66806 -258.34476 -11.919649
165.86255 -258.15796 -5.260097
167.68864 -258.05405 -5.973125
167.66051 -258.11539 -6.824831
162.83037 -258.091 -8.4279003
162.76439 -258.08856 -8.6497707
162.69487 -258.08185 -9.074522
174.32956 -258.0174 -9.8425922
174.11108 -258.14771 -10.018816
160.09958 -258.01334 -11.509243
162.98364 -258.03204 -13.401749
163.79907 -258.10834 -13.715418
172.85283 -258.10199 -17.047516
166.43628 -257.81006 -5.6387691
167.78325 -257.81067 -6.1477399
162.98615 -257.83603 -7.6877589
162.83815 -257.83148 -9.3148994
165.84052 -257.77536 -5.1252022
167.48192 -257.78259 -6.5640588
167.83163 -257.77798 -6.9563088
163.32379 -257.71344 -7.053524
165.8931 -257.53708 -5.2259822
167.84285 -257.46597 -5.9300842
163.72975 -257.54791 -6.6241689
174.14073 -257.43481 -9.5358582
161.84792 -257.2258 -5.2183371
168.0181 -257.20886 -6.1685281
163.91434 -257.36325 -6.2737641
168.02707 -257.21329 -6.758357
167.42828 -257.23575 -6.9807429
174.366 -257.25949 -10.858656
164.20435 -257.34842 -12.149452
164.37326 -257.12119 -5.526299
164.34747 -257.08609 -5.7030182
167.85695 -257.14194 -6.647418
167.05003 -257.10898 -7.3309369
162.57808 -257.07495 -10.086205
173.50722 -257.12439 -10.081465
162.27744 -256.93515 -5.2161121
164.54877 -256.89722 -5.5004301
167.78038 -256.95895 -6.090229
168.22885 -256.87555 -6.6272502
162.21599 -256.88391 -11.095294
163.58432 -256.84583 -11.059639
162.24979 -256.91858 -11.249462
162.99541 -256.61942 -5.1917038
163.59186 -256.62573 -5.1788001
174.94934 -256.71817 -6.536262
174.2963 -256.63446 -8.4823055
174.3678 -256.65939 -10.722115
162.98441 -256.57465 -5.2588439
164.91611 -256.42307 -5.4419088
166.23987 -256.56018 -5.5420008
166.41563 -256.53162 -5.5352788
160.09093 -256.41449 -8.0411434
174.50517 -256.57083 -8.5166941
160.45935 -256.42303 -8.8414965
174.26068 -256.59622 -10.32687
166.15002 -256.20929 -5.6190648
160.58318 -256.24805 -8.7081518
174.11792 -256.27185 -10.20603
161.54485 -256.23904 -11.045921
161.63593 -256.26917 -11.29183
174.61133 -256.21271 -11.756012
160.37576 -256.18854 -8.950737
173.94461 -256.13831 -10.916197
174.00089 -256.17883 -15.398144
164.57124 -256.02637 -15.760259
162.47162 -255.97641 -5.193068
164.90886 -255.99232 -5.131495
160.5303 -255.80392 -8.3031778
174.34604 -255.94333 -10.508845
161.33438 -255.89943 -11.094995
174.84341 -255.80028 -11.027153
174.25282 -255.9707 -11.791426
167.77205 -255.83273 -12.445091
171.47104 -255.95399 -15.657321
160.35364 -255.66714 -8.7745667
160.64856 -255.6826 -10.75019
174.3472 -255.77155 -10.871538
174.46445 -255.6246 -10.946499
160.957 -255.67184 -11.35321
160.11009 -255.78296 -11.740883
160.25919 -255.73993 -12.296869
164.54445 -255.6236 -15.51767
174.20662 -255.75702 -15.5051
163.9019 -255.50235 -5.1671481
166.09424 -255.44427 -5.816267
167.3987 -255.51863 -6.9203529
161.53442 -255.46817 -8.5112782
160.32898 -255.46973 -8.8720217
166.09407 -255.46021 -9.8392191
169.92424 -255.40244 -14.738834
172.80179 -255.57347 -15.179541
173.564 -255.49449 -15.252115
165.80859 -255.3898 -5.3290691
172.81992 -255.30307 -6.2003932
167.67578 -255.39497 -7.0485711
172.52777 -255.33163 -8.0861988
174.29523 -255.24385 -9.5279703
171.62625 -255.24637 -10.323136
165.6944 -255.35616 -10.73814
174.56496 -255.36911 -10.852331
160.75912 -255.33084 -11.785396
163.19577 -255.34055 -12.568017
170.65599 -255.3884 -14.737112
166.45502 -255.15271 -6.4231491
172.60924 -255.18353 -6.4641161
172.50278 -255.15085 -8.2466183
172.45619 -255.07811 -8.6105194
166.23956 -255.13835 -9.0040302
174.30269 -255.06052 -9.4835072
171.65973 -255.11209 -10.530729
166.59799 -255.03851 -11.022474
163.75516 -255.18123 -13.674232
167.45505 -255.05063 -14.241963
169.46506 -255.12393 -15.469235
165.99475 -254.92015 -5.771421
165.98047 -254.82562 -6.7351332
166.03018 -254.91397 -6.8588772
168.09631 -254.98019 -7.093679
166.03345 -254.92435 -7.2033658
160.54987 -254.89288 -10.254975
161.05533 -254.99557 -10.957704
174.40419 -254.96124 -11.526663
168.15691 -254.86052 -12.478865
166.87265 -254.8912 -12.726665
162.8559 -254.82942 -13.181372
167.64291 -254.81825 -13.525408
168.96175 -254.91791 -14.47962
166.04817 -254.65631 -6.5336142
174.38203 -254.73993 -6.538681
165.98915 -254.72189 -6.7407351
174.56885 -254.75352 -6.6510968
167.69518 -254.60086 -6.8639908
166.08694 -254.6664 -7.326344
166.66138 -254.75433 -9.6575489
167.59135 -254.64484 -11.231682
167.06284 -254.73311 -12.723791
166.48744 -254.74844 -13.048532
163.55823 -254.6591 -13.537256
169.05983 -254.66727 -14.432861
166.2431 -254.50818 -5.4720831
166.10109 -254.55006 -5.7369819
166.16295 -254.52386 -6.1829691
166.8904 -254.4086 -6.0137129
166.2292 -254.48402 -6.232666
161.21667 -254.55109 -7.7799811
167.62285 -254.47629 -8.0895653
161.41403 -254.51147 -8.5184822
160.27333 -254.43948 -8.8444958
160.23312 -254.49443 -9.7929955
167.32236 -254.54201 -12.790144
162.6933 -254.59744 -12.911791
168.16931 -254.50111 -13.156401
169.40695 -254.42145 -14.117771
170.21355 -254.48293 -14.949223
173.77818 -254.25153 -5.3413358
171.92032 -254.20355 -5.51403
174.15912 -254.24298 -5.4280992
166.23869 -254.34419 -5.6242838
167.83545 -254.35875 -6.7407432
165.82133 -254.36021 -9.1520176
168.18951 -254.28897 -10.1766
168.80322 -254.29677 -10.413763
161.12067 -254.22743 -10.701096
172.92117 -254.31128 -11.554462
162.84755 -254.29922 -12.789589
163.65062 -254.21982 -13.233456
167.9511 -254.26886 -13.53528
173.09293 -254.24042 -14.632135
166.19638 -254.15973 -5.4906821
170.94623 -254.03439 -5.491765
173.4753 -254.16899 -5.6518388
160.18979 -254.0571 -8.7218342
167.45175 -254.10519 -9.7432528
168.89195 -254.05991 -9.9188137
167.10437 -254.15048 -10.168152
167.64732 -254.05304 -10.140065
167.93359 -254.11301 -10.512058
166.61011 -254.03255 -10.869572
163.41791 -254.05106 -12.9434
161.52769 -254.03516 -13.246319
162.3174 -254.03268 -13.781532
165.71648 -253.85159 -5.2947659
171.84125 -253.8526 -5.2603002
165.99359 -253.94705 -5.5019131
166.08383 -253.91531 -5.4759049
169.00046 -253.8736 -5.4172878
165.9512 -253.88367 -5.7276831
169.60094 -253.823 -5.8528829
160.53021 -253.85724 -8.0291805
161.00249 -253.81754 -8.1554613
167.43109 -253.95969 -9.93223
160.18315 -253.83279 -10.233376
169.4415 -253.80981 -10.525894
173.38715 -253.83844 -10.639287
163.5358 -253.88516 -13.503281
174.74779 -253.87819 -13.992117
167.58821 -253.9397 -14.156107
174.50262 -253.88063 -14.274208
163.37866 -253.8847 -14.902884
163.27901 -253.84303 -15.240238
162.92931 -253.86906 -15.708919
165.71577 -253.76505 -5.1287441
166.10149 -253.70685 -5.391531
166.11185 -253.71341 -5.668653
166.49179 -253.67572 -5.7460089
167.27728 -253.6834 -8.9799576
165.56012 -253.63559 -10.06563
167.1248 -253.65903 -10.248755
167.3317 -253.62143 -10.8914
162.99699 -253.73984 -13.961669
165.76166 -253.47218 -5.1059351
165.73747 -253.44409 -5.2671142
166.21992 -253.47607 -5.2781911
166.3221 -253.56747 -5.723619
160.12434 -253.42339 -8.2732468
169.00238 -253.56802 -10.240577
173.60574 -253.58241 -10.677784
168.92941 -253.56392 -12.201414
160.53596 -253.48849 -13.29038
161.55037 -253.56015 -13.963453
166.18123 -253.31876 -5.1123261
167.54742 -253.34439 -5.1496501
166.94525 -253.36258 -5.2392392
168.0222 -253.33676 -5.2488971
167.0658 -253.33417 -8.8479366
168.4377 -253.39786 -8.9211788
162.2683 -253.3054 -9.5519638
167.38177 -253.35765 -9.8578606
160.13235 -253.25037 -10.477119
167.44618 -253.12469 -5.1413622
167.01418 -253.0408 -9.0459366
167.90329 -253.0631 -9.2245598
162.68073 -253.09088 -9.5368042
162.53075 -253.05707 -9.6607056
161.10947 -253.05511 -9.9972229
174.85855 -253.02504 -11.95458
164.82452 -253.03735 -13.672121
169.24271 -252.97078 -5.2395048
160.53813 -252.97305 -9.2977018
174.40265 -252.85002 -9.7891579
162.60693 -252.86537 -15.254129
174.63986 -252.66832 -4.917995
169.76134 -252.7617 -5.3027802
163.86026 -252.75601 -13.389898
162.633 -252.57231 -5.0902252
160.29892 -252.51227 -8.1236773
161.41406 -252.56116 -9.1567268
160.44269 -252.57814 -9.4409695
161.94299 -252.47943 -9.526577
161.51653 -252.41731 -9.6142721
174.11777 -252.53894 -10.478133
174.52954 -252.55653 -10.606371
174.64212 -252.59628 -10.912591
168.06363 -252.46294 -11.806435
169.43361 -252.55396 -13.000734
160.11453 -252.25774 -5.0309238
162.37024 -252.35219 -5.0714359
166.35806 -252.31412 -5.0060692
160.45694 -252.26599 -8.6302929
160.53319 -252.28877 -8.8720617
161.17685 -252.35396 -9.3544836
161.27844 -252.37352 -9.3035631
161.90079 -252.35231 -9.5889387
174.62357 -252.24132 -10.652055
161.9801 -252.39816 -12.0837
160.116 -252.33975 -14.21965
160.08612 -252.04413 -7.7451191
165.38687 -252.1181 -11.473589
174.42534 -251.80055 -9.8907957
174.46729 -251.98221 -10.195335
168.05028 -251.91425 -11.71114
161.17429 -251.8822 -12.980427
161.77927 -251.82373 -12.897993
162.10724 -251.80508 -13.716513
160.43225 -251.60431 -6.0790792
161.02069 -251.65765 -9.5777149
160.64798 -251.66794 -9.8814144
174.86136 -251.66548 -10.493063
165.67114 -251.78952 -11.48353
165.02402 -251.60936 -11.713554
161.05325 -251.4747 -5.1484671
160.11803 -251.42464 -5.3679538
160.76819 -251.51276 -9.9927874
160.53816 -251.58821 -10.445757
168.11334 -251.22717 -5.0594959
160.686 -251.39992 -5.3879228
160.46275 -251.30139 -6.2960539
160.42261 -251.27533 -7.0213661
170.02991 -251.38387 -14.445127
160.48761 -251.12161 -6.8517141
174.10855 -251.13266 -7.7601452
161.2494 -251.11086 -8.3488445
160.81746 -251.15147 -10.03499
160.70605 -251.08765 -10.75195
166.6747 -251.0202 -11.559889
165.49783 -251.04233 -11.960974
165.46295 -251.07135 -12.145363
173.95389 -250.94736 -7.7131329
160.10553 -250.89049 -8.5954981
166.1777 -250.93845 -11.385363
165.63324 -250.86157 -12.192677
174.4136 -250.73401 -7.7095852
160.04477 -250.65396 -8.5941086
167.02016 -250.65297 -10.674679
171.0961 -250.45895 -4.9361892
167.41116 -250.51819 -11.158245
166.83456 -250.45126 -11.346632
166.53668 -250.5838 -11.767879
166.31628 -250.26749 -4.827764
161.25529 -250.21921 -11.375614
162.3073 -250.17915 -4.9578328
171.49341 -250.12021 -4.978652
167.38858 -250.0986 -11.709036
166.7356 -249.88383 -4.830935
173.35188 -249.98665 -7.77282
174.8288 -249.87865 -7.6421289
173.66882 -249.83142 -8.3287554
160.59195 -249.85191 -10.18857
173.54382 -249.83644 -11.327972
165.80072 -249.90541 -12.539444
160.2002 -249.82845 -13.048134
173.96577 -249.72603 -6.1446171
174.05716 -249.62604 -6.207098
173.19954 -249.66393 -6.9813199
174.59915 -249.7394 -8.9524899
168.20401 -249.70236 -11.280727
161.10278 -249.65372 -11.752382
160.1131 -249.70996 -11.994743
168.21777 -249.67403 -12.38324
160.44841 -249.65681 -12.566153
167.64449 -249.40472 -4.8980241
173.7458 -249.41679 -9.3531103
173.84198 -249.43083 -10.729451
166.85155 -249.53485 -10.857819
161.37962 -249.5011 -11.081704
160.3868 -249.59062 -12.532696
166.56018 -249.42538 -12.526087
161.03922 -249.2596 -4.9493861
163.5554 -249.26411 -4.9685688
174.97188 -249.25772 -6.4678812
174.2496 -249.38895 -7.730566
174.5152 -249.27528 -7.6805992
173.1644 -249.33469 -8.4387589
161.5184 -249.35486 -11.444202
160.17538 -249.29271 -11.857259
166.20753 -249.38959 -11.99949
167.89813 -249.24985 -12.656715
167.40506 -249.11432 -4.8595238
174.58188 -249.13498 -7.5701742
173.51343 -249.17365 -8.5027323
173.28981 -249.02493 -9.5224876
160.10895 -249.18364 -11.01979
173.93808 -249.04642 -11.697079
160.63507 -249.03146 -11.945662
166.36357 -249.06339 -12.279995
174.74487 -249.05371 -12.241254
167.88156 -249.04691 -12.688324
167.50864 -248.87759 -9.4449511
174.46735 -248.93958 -10.704065
166.90263 -248.99933 -10.975809
167.48666 -248.94724 -11.343533
166.53268 -248.96936 -11.498774
174.09312 -248.8353 -11.64572
166.84619 -248.83572 -12.413898
173.02606 -248.60161 -4.776423
174.1105 -248.60074 -4.7443891
167.43918 -248.67883 -4.861033
174.95695 -248.6709 -6.6575561
173.27997 -248.74844 -9.0583372
166.71225 -248.65549 -10.516891
168.20859 -248.60585 -11.789543
169.16037 -248.76921 -11.655541
160.68341 -248.76292 -12.067625
161.57541 -248.71989 -12.169673
166.9205 -248.68501 -12.46489
167.90811 -248.71243 -12.698605
168.01105 -248.77188 -12.852134
163.4408 -248.7616 -15.156841
167.82056 -248.5401 -4.918077
172.8766 -248.53276 -6.235642
173.74875 -248.57498 -6.8847518
167.35629 -248.41745 -9.7461748
167.039 -248.58435 -11.658929
167.3196 -248.50723 -11.738781
174.29811 -248.57327 -11.681038
169.67816 -248.47791 -12.000994
173.70503 -248.50522 -12.105257
174.65581 -248.51265 -12.241683
167.93333 -248.53197 -12.719428
162.79485 -248.3571 -4.8858709
174.0612 -248.35034 -8.8126078
166.25723 -248.26352 -10.70109
166.35846 -248.3324 -11.345767
168.92822 -248.38728 -11.587175
166.99532 -248.22246 -11.878586
168.64487 -248.26778 -11.895391
174.39883 -248.34842 -11.857632
166.59737 -248.278 -12.267563
162.27301 -248.00861 -4.7697458
173.03374 -248.0789 -4.7438221
163.037 -248.11369 -4.914988
166.19415 -248.06711 -4.857985
166.06905 -248.01924 -10.225874
167.84686 -248.19772 -11.747934
168.99786 -248.08763 -13.841644
168.1436 -248.13007 -14.239031
173.76723 -247.96956 -7.244091
162.00488 -247.81021 -12.736414
166.55246 -247.73955 -4.8337388
166.10341 -247.79126 -10.649492
167.54608 -247.41919 -4.8576331
174.69879 -247.57832 -7.8144732
174.89499 -247.51422 -7.90944
166.72371 -247.44101 -9.6718512
166.38438 -247.4727 -10.825258
162.21631 -247.56758 -12.927683
160.33215 -247.38124 -9.8705759
167.25534 -247.26395 -10.478367
166.45004 -247.28015 -10.737791
171.73862 -247.2843 -11.36114
161.84026 -247.33047 -13.361334
169.75798 -247.37607 -14.146276
165.08383 -247.18246 -4.7688341
165.81488 -247.0479 -4.7636042
169.0309 -247.03438 -4.8406701
169.41911 -247.02516 -4.8329449
167.47096 -247.11113 -9.728878
172.83682 -247.19038 -13.557957
160.45135 -246.97627 -9.3480511
166.42383 -246.93985 -9.5291538
173.87737 -246.81296 -10.109479
171.71326 -246.98303 -10.746472
171.77411 -246.97485 -10.98086
171.18918 -246.89264 -11.105465
160.5336 -246.85078 -11.25905
172.32419 -246.96442 -13.429338
173.50125 -246.91922 -13.662611
160.11136 -246.63483 -9.676425
166.35539 -246.6972 -9.6387339
171.81802 -246.70007 -10.664049
173.25713 -246.65971 -14.616116
162.39796 -246.54947 -4.6731672
169.38696 -246.56503 -4.771708
168.85982 -246.47107 -4.8222651
172.20612 -246.50613 -10.3638
172.144 -246.51604 -13.010451
173.42198 -246.43689 -14.304668
160.67787 -246.23125 -4.7112288
167.78505 -246.2036 -4.761055
167.17798 -246.30403 -4.810708
174.93051 -246.26834 -6.7820592
171.98163 -246.29936 -10.562257
174.04129 -246.24202 -10.562132
171.9366 -246.34294 -10.966618
163.51822 -246.2287 -11.931574
165.78433 -246.34811 -11.990963
171.60266 -246.33336 -12.329811
164.23424 -246.3842 -13.023786
173.32123 -246.04929 -6.4983568
172.99533 -246.0726 -7.4690471
173.70901 -246.09497 -7.7320499
161.97897 -246.02853 -7.9965339
172.13422 -246.16699 -8.66152
160.11998 -246.08054 -11.105118
164.12994 -246.15855 -11.34431
173.0704 -246.05615 -12.363123
174.48816 -246.03883 -12.307503
164.89551 -246.12715 -12.6382
173.05305 -245.92 -7.297184
161.94223 -245.82808 -7.9998789
174.54573 -245.91125 -8.4809055
171.92229 -245.83522 -8.9452457
172.07544 -245.83217 -9.1440983
172.37094 -245.96918 -10.235016
164.43707 -245.93689 -10.903971
168.6086 -245.90683 -12.729568
161.37373 -245.98134 -14.724327
162.48245 -245.76517 -4.7160292
173.60243 -245.74097 -6.5350828
174.79659 -245.64325 -7.104239
173.30386 -245.79436 -7.2957101
174.13892 -245.61044 -7.5948048
160.50421 -245.74957 -9.0242901
171.92773 -245.72388 -9.3104086
172.26973 -245.75119 -9.5220699
173.35429 -245.71042 -12.338643
172.77042 -245.62013 -12.60631
174.56775 -245.72711 -13.443477
169.18712 -245.74449 -14.665616
166.93401 -245.53934 -4.674336
173.41736 -245.44141 -6.5674062
173.98526 -245.45752 -6.614656
174.66995 -245.45456 -6.6777639
173.92236 -245.45021 -7.545424
160.92714 -245.42723 -8.7182684
170.96893 -245.4794 -11.040873
171.29951 -245.4157 -11.054556
172.58958 -245.43059 -11.468859
163.8786 -245.52831 -12.324735
168.44574 -245.55263 -13.03075
160.4249 -245.36658 -4.6801119
174.8562 -245.31146 -6.9803371
174.06042 -245.27475 -7.5328889
162.06976 -245.2691 -8.2015591
161.76059 -245.27695 -8.4436684
171.5369 -245.26663 -9.084692
171.08154 -245.30209 -10.735793
171.26195 -245.2626 -11.253801
168.81656 -245.22527 -12.22579
170.98721 -245.28223 -12.929445
168.66397 -245.26459 -13.338426
173.18443 -245.3119 -14.338382
167.07384 -245.05307 -4.662765
174.39526 -245.01671 -6.0021892
173.44434 -245.03253 -6.5362082
161.89273 -245.09335 -8.5055265
161.06268 -245.09991 -9.1354342
172.18947 -245.04633 -9.9115524
170.90335 -245.11604 -10.379208
170.71014 -245.05452 -10.695179
171.82779 -245.07932 -11.021869
168.63794 -245.16724 -12.708369
174.42371 -245.15695 -12.818155
171.82611 -245.00276 -13.752693
174.17517 -244.92577 -7.1559172
172.5688 -244.90857 -7.3529
172.45395 -244.92213 -7.7333512
172.06976 -244.96802 -7.8859701
172.73419 -244.86121 -8.4437656
173.19772 -244.94391 -9.2013073
174.47787 -244.93494 -10.213919
174.20145 -244.91611 -10.571726
171.00633 -244.93762 -10.67271
171.37375 -244.90738 -10.962183
171.26982 -244.9702 -12.03348
169.32968 -244.86197 -16.201057
173.17804 -244.71043 -6.1306911
174.44684 -244.74606 -6.0511651
172.92604 -244.66965 -7.3064609
173.75584 -244.63763 -9.4026937
173.25934 -244.6788 -9.798975
172.9173 -244.63612 -11.096861
174.15204 -244.70636 -13.10388
174.6424 -244.60287 -13.059583
170.00485 -244.71188 -14.31183
167.49463 -244.56885 -4.5930662
166.18071 -244.52197 -4.6013541
167.83165 -244.48817 -4.6116662
173.58992 -244.46066 -6.8969688
173.2377 -244.51575 -7.9987488
171.73965 -244.51033 -8.6335964
173.76459 -244.56065 -8.7075062
173.74161 -244.48987 -9.1672983
171.78348 -244.49817 -9.6870651
171.09331 -244.50763 -10.016738
171.08568 -244.43166 -11.163881
171.38571 -244.56688 -11.031541
172.83324 -244.56271 -11.285909
172.28433 -244.55804 -12.459096
167.85822 -244.22592 -4.5592489
174.14186 -244.31564 -7.0723448
173.04373 -244.33896 -7.4633932
172.03867 -244.27628 -7.8344421
173.28555 -244.39462 -7.877811
172.50917 -244.31339 -8.3384132
172.13426 -244.27692 -8.7311163
171.33549 -244.34937 -9.127615
171.52748 -244.23198 -10.169615
173.58075 -244.30876 -10.228863
171.89345 -244.29929 -11.96559
168.82065 -244.34474 -13.019508
174.81285 -244.2943 -15.524233
168.16867 -244.0744 -4.595396
173.73106 -244.16161 -6.5259199
173.11002 -244.03683 -6.6492538
173.77242 -244.07486 -7.2412038
171.88298 -244.19418 -7.967073
171.52017 -244.04437 -8.2838106
171.94159 -244.13437 -8.8471508
172.95006 -244.07286 -9.0881176
164.79984 -244.09641 -9.6254435
171.85547 -244.12552 -10.591115
174.86076 -244.00128 -10.492626
173.82623 -244.16467 -10.676909
170.96967 -244.15456 -10.869659
172.05066 -244.12958 -12.282571
171.05045 -244.09338 -12.928635
172.04103 -244.01628 -12.967634
165.88358 -243.99715 -4.5521569
173.30876 -243.88507 -4.5306602
161.75739 -243.89485 -4.6137471
173.44846 -243.92035 -7.244802
173.38152 -243.90576 -8.5913429
172.05437 -243.83008 -8.718257
171.0217 -243.97116 -9.4725351
174.87106 -243.93138 -10.124128
165.21602 -243.8558 -10.275788
174.74089 -243.8577 -10.930684
170.6156 -243.87517 -11.497382
171.28062 -243.80472 -11.837685
171.56668 -243.99553 -12.229886
172.01959 -243.98399 -12.636798
172.51534 -243.96661 -13.202209
174.65125 -243.75963 -7.0325098
167.45767 -243.78708 -9.0939693
171.55679 -243.69308 -9.3612814
173.54166 -243.72513 -11.082716
166.34532 -243.63463 -11.849692
168.27844 -243.67171 -12.308123
173.43094 -243.76035 -12.232594
172.82645 -243.67754 -12.455854
172.246 -243.72427 -12.963438
172.51633 -243.43668 -6.2755241
172.08282 -243.44495 -9.4187336
164.63794 -243.40182 -10.317369
173.48718 -243.42261 -10.617992
173.73956 -243.52002 -11.093269
172.3419 -243.42151 -11.286091
168.09529 -243.52928 -11.84301
165.31012 -243.58974 -16.39588
167.44046 -243.31906 -4.5384812
173.54712 -243.32227 -4.5593429
167.94 -243.36264 -4.6073942
172.35283 -243.29982 -6.2226782
172.33362 -243.271 -6.5444641
174.94366 -243.33902 -8.3142729
173.27509 -243.34892 -8.5980682
174.18173 -243.37459 -9.2657671
173.72972 -243.21066 -10.102004
174.48264 -243.26375 -10.285775
164.36836 -243.24492 -10.479625
165.3279 -243.35641 -10.463593
166.55344 -243.24249 -10.45798
166.37169 -243.39488 -11.281216
166.40916 -243.36087 -11.311289
171.15112 -243.36496 -11.770558
166.32663 -243.37859 -12.246103
168.28241 -243.36031 -12.984301
168.23439 -243.33286 -13.250297
167.85828 -243.21997 -13.696293
174.63193 -243.36852 -15.8542
172.36043 -243.104 -6.2662611
173.46976 -243.05675 -7.2896352
167.52271 -243.18135 -9.3589087
173.79202 -243.02005 -9.9238453
165.40579 -243.16724 -10.387252
164.60977 -243.11017 -10.569734
166.55695 -243.0451 -10.456484
166.46211 -243.15065 -10.968039
174.03081 -243.18916 -12.090788
167.47882 -243.11996 -12.896577
172.46469 -243.10837 -15.81723
173.42574 -242.83037 -5.3885512
172.48476 -242.95612 -6.5301051
174.10074 -242.92651 -7.4502468
172.95007 -242.95828 -8.5436192
174.22089 -242.89752 -8.6917171
166.84053 -242.88022 -9.1055603
166.82541 -242.8718 -9.6842585
164.87753 -242.98776 -10.164827
166.15965 -242.86844 -10.199548
166.94249 -242.88095 -10.025604
170.98988 -242.99016 -10.179874
174.33064 -242.81808 -10.709173
174.27528 -242.93579 -10.888624
164.61841 -242.97922 -11.035465
170.65009 -242.8853 -11.043489
173.76904 -242.85495 -11.309317
170.88794 -242.96729 -11.774992
174.41455 -242.81688 -11.730487
169.35216 -242.97418 -12.235461
170.28175 -242.93153 -13.507441
167.96794 -242.99374 -13.665867
174.17816 -242.69922 -7.1394229
174.22635 -242.70876 -7.2602868
173.52214 -242.63573 -7.833302
174.31 -242.63838 -8.5729713
172.62021 -242.74808 -9.0221958
171.76633 -242.7359 -9.3871632
171.58862 -242.73473 -9.4923487
166.0439 -242.61679 -10.133451
167.45551 -242.63211 -10.035614
170.27698 -242.73662 -10.090292
170.85883 -242.67242 -10.658608
170.95798 -242.79095 -12.149821
168.14996 -242.7121 -13.528105
169.07031 -242.76468 -14.740696
165.33069 -242.66554 -15.281974
173.18767 -242.5508 -4.504519
173.54723 -242.51083 -6.1571469
167.93231 -242.56152 -6.8860078
172.24017 -242.43448 -6.825552
167.29562 -242.47337 -7.070168
173.46695 -242.58072 -7.2416921
167.74829 -242.55569 -8.7012806
170.70677 -242.44849 -8.9277697
167.56523 -242.48769 -9.2356071
167.64532 -242.42245 -9.4069595
164.17461 -242.54012 -10.064315
170.88959 -242.5778 -11.056189
169.93536 -242.51334 -11.548058
174.97412 -242.50372 -11.508667
173.86652 -242.56668 -12.499434
170.7493 -242.46588 -12.874353
168.45676 -242.56737 -13.190023
171.11469 -242.57181 -13.155375
166.70047 -242.21239 -4.3669758
162.82886 -242.2823 -4.500247
173.02429 -242.22983 -4.4779878
167.72629 -242.23233 -7.1856232
174.68022 -242.26964 -8.7220716
172.47369 -242.37784 -9.6193676
171.40245 -242.30426 -9.8897238
172.97044 -242.20401 -10.94445
163.92007 -242.22777 -11.326525
173.21384 -242.3098 -11.269014
173.45102 -242.37872 -11.752637
173.15227 -242.39328 -12.396912
173.75797 -242.25555 -12.468754
168.61736 -242.27411 -13.071113
172.79015 -242.24673 -13.047752
167.30386 -242.26175 -13.311138
165.67088 -242.37892 -13.806511
167.23767 -242.15274 -4.5491328
172.54088 -242.07465 -4.4220428
167.35785 -242.04553 -5.9105282
172.31062 -242.17654 -6.74857
174.15677 -242.12061 -7.8392892
174.59995 -242.15823 -8.1638184
173.30356 -242.06947 -8.5506325
171.51068 -242.15942 -9.3340054
171.17351 -242.04242 -9.4280224
167.6366 -242.15736 -10.042915
169.06384 -242.0959 -10.364223
166.96036 -242.17142 -10.628622
163.98987 -242.05 -10.851147
167.05264 -242.15887 -10.815786
172.74915 -242.00929 -11.363433
169.60114 -242.13733 -12.203897
169.53659 -242.11516 -13.161313
170.94666 -242.18628 -13.749489
173.71796 -242.14853 -14.087339
164.65472 -241.83557 -4.4968238
164.94359 -241.8457 -4.5132771
172.55786 -241.84549 -4.5446062
173.63579 -241.99754 -6.3135142
167.47427 -241.82907 -6.576642
173.47832 -241.9295 -6.6395969
167.40382 -241.95743 -6.9291458
172.98389 -241.88622 -7.5001421
170.87845 -241.93813 -8.8499012
171.3633 -241.84769 -9.1016817
171.27615 -241.85199 -9.4111423
169.11313 -241.97562 -10.548887
163.15923 -241.84686 -10.854876
167.70898 -241.86694 -10.845589
169.32703 -241.90233 -11.650416
174.85759 -241.9975 -12.46482
173.48062 -241.89745 -13.369589
172.93993 -241.83371 -13.469521
167.39536 -241.84903 -13.637943
161.37949 -241.70119 -4.4929671
173.55444 -241.77634 -6.3133521
171.49179 -241.78204 -7.0227032
172.25238 -241.75156 -7.038116
171.65472 -241.74773 -8.1077442
172.07062 -241.63647 -9.1000051
168.04094 -241.60352 -10.102335
167.31218 -241.69455 -10.264251
163.34653 -241.73273 -10.647228
163.85336 -241.74652 -11.038631
166.31621 -241.73074 -11.205399
169.40915 -241.78723 -11.558756
165.15982 -241.60712 -12.450161
171.5999 -241.79256 -12.469261
160.17952 -241.59863 -4.5215588
162.05173 -241.46164 -4.485332
167.08755 -241.54213 -4.5836992
167.24673 -241.59201 -5.2144389
171.43286 -241.53207 -6.5893831
173.7942 -241.54295 -6.7615442
171.06955 -241.45921 -8.7246819
172.20953 -241.40187 -8.6731243
166.62016 -241.52515 -10.337065
163.34216 -241.41298 -10.554815
172.59872 -241.42233 -10.61763
165.12106 -241.57854 -10.912352
166.27034 -241.43665 -11.023254
164.55896 -241.4122 -11.506382
172.53247 -241.55978 -11.748606
169.68892 -241.43257 -12.658084
168.19257 -241.53745 -13.489574
168.59459 -241.4288 -13.489206
167.18018 -241.54399 -14.406242
174.95959 -241.59883 -16.595848
161.44641 -241.33191 -4.4801641
167.48531 -241.30006 -5.7577238
172.29242 -241.30824 -6.9936309
172.14355 -241.33656 -7.3715591
172.10295 -241.22519 -7.8796172
171.64651 -241.2222 -8.5291834
172.47031 -241.38577 -8.7681713
167.45862 -241.30106 -9.5654316
174.83331 -241.25858 -9.7428904
168.03181 -241.39346 -9.8230133
172.96347 -241.30582 -10.085697
173.37286 -241.30762 -10.305248
168.87 -241.24783 -10.6035
163.44328 -241.31952 -10.852153
164.14125 -241.20688 -10.832361
173.79295 -241.28113 -11.120144
172.99805 -241.33481 -11.272194
164.83009 -241.24043 -11.684833
165.34103 -241.33389 -11.979797
165.71959 -241.2955 -12.581917
169.39374 -241.35037 -12.918824
167.48889 -241.03079 -6.0686622
172.24673 -241.14824 -7.3619342
172.207 -241.06244 -8.5490646
172.24829 -241.00113 -8.9181471
170.99768 -241.01456 -9.333107
172.54919 -241.05727 -10.143117
173.28174 -241.01418 -10.189726
164.99838 -241.18967 -10.213894
163.4368 -241.12149 -10.666424
164.26947 -241.0352 -11.369226
165.53851 -241.10129 -11.445589
164.18327 -241.0493 -11.639549
165.04991 -241.01035 -11.882881
165.49498 -241.07266 -12.526516
169.65402 -241.00708 -12.55352
169.83983 -241.04189 -15.219428
167.61076 -240.92551 -6.5749202
167.69118 -240.80568 -7.6006541
171.87161 -240.92209 -8.4934721
173.73164 -240.86887 -8.6428719
174.29463 -240.99518 -8.7070065
170.8613 -240.91858 -9.0970469
172.86166 -240.95139 -10.696363
174.27602 -240.99437 -10.703126
172.92313 -240.95984 -10.801201
169.44257 -240.80215 -13.022892
167.00201 -240.9093 -14.745886
162.62914 -240.62489 -4.4512939
167.62831 -240.74625 -6.7577839
167.63469 -240.7049 -6.914278
172.40649 -240.78876 -8.2303171
167.40782 -240.61118 -8.6554632
174.80518 -240.72604 -10.505253
172.84467 -240.69348 -10.600411
172.18289 -240.64844 -10.968659
173.86087 -240.61237 -11.313438
172.89815 -240.63931 -12.043661
164.58038 -240.7468 -12.239189
170.67526 -240.67877 -12.533085
172.08595 -240.63274 -12.942204
168.20685 -240.68265 -13.18353
172.06665 -240.58641 -7.4542751
171.76768 -240.48813 -8.4659405
173.67642 -240.50346 -8.6503143
167.77342 -240.56879 -9.1595163
174.297 -240.58453 -9.3436279
164.36215 -240.4888 -10.711918
164.81023 -240.56244 -10.699995
172.25435 -240.55579 -10.703426
166.33456 -240.54517 -11.264952
170.59106 -240.55234 -11.403942
172.16533 -240.54272 -11.805217
170.97134 -240.4894 -12.324239
165.34393 -240.46736 -12.56993
168.33289 -240.58481 -13.303817
170.87817 -240.59683 -13.472499
169.30371 -240.59547 -13.736408
169.22731 -240.56686 -13.959551
171.82236 -240.24652 -7.8755059
174.8457 -240.29523 -8.1066895
167.67685 -240.3334 -8.2890282
167.73877 -240.25751 -8.6180573
174.87466 -240.31619 -11.299622
170.34239 -240.28494 -11.448072
172.38855 -240.26303 -11.594667
165.063 -240.2218 -11.937385
172.11256 -240.14838 -7.2781811
172.71832 -240.03935 -8.1830645
167.81917 -240.09857 -9.1804295
170.31534 -240.12198 -9.4657869
174.32903 -240.11426 -10.441695
172.9758 -240.11392 -10.716158
172.90654 -240.19879 -10.811222
172.43105 -240.15947 -11.526259
174.30014 -240.17824 -11.732378
170.2627 -240.1747 -12.084863
171.97232 -240.09869 -14.102861
169.78448 -240.04388 -14.425007
165.06949 -259.83875 -5.3163691
166.38342 -259.93317 -5.53262
163.20982 -259.8251 -10.197527
163.0961 -259.89789 -10.302547
174.78383 -259.96777 -13.241152
164.61459 -259.66498 -11.747639
165.49854 -259.70892 -11.84008
160.17407 -259.45868 -10.060544
161.07806 -259.59152 -11.793755
164.8094 -259.57721 -11.861757
160.63193 -259.49631 -12.29523
160.38989 -259.5871 -12.569023
174.1925 -259.40649 -18.275063
163.83824 -259.2439 -11.250937
166.41135 -259.18811 -5.5634871
163.68149 -259.1897 -11.106155
170.50339 -259.16428 -15.230017
173.02176 -259.00452 -18.46413
165.87128 -258.96707 -5.2788382
161.05157 -258.81528 -10.184635
171.71036 -258.88815 -10.681801
162.77177 -258.83972 -13.767391
162.72618 -258.65784 -13.374608
167.33691 -258.45856 -6.687871
162.08672 -258.41766 -10.19593
161.89969 -258.44354 -10.211821
162.14658 -258.31857 -5.1999049
162.14954 -258.32846 -9.8342514
162.73564 -258.07962 -8.5088482
160.9073 -258.0542 -10.578231
160.6505 -258.08304 -10.75683
164.26587 -258.12183 -13.18756
164.08261 -257.84625 -11.356007
163.73079 -257.83752 -11.941265
164.48325 -257.80298 -13.064238
173.06766 -257.95929 -17.064939
163.79984 -257.62103 -6.3436122
168.91718 -257.64047 -7.4111481
162.45898 -257.60068 -11.207438
163.54211 -257.64163 -12.016685
163.43185 -257.72845 -12.990211
167.87817 -257.49481 -6.1603308
163.90675 -257.43726 -6.5827522
167.82137 -257.50854 -7.0340099
168.22046 -257.4303 -7.0109062
162.54651 -257.54584 -11.129484
162.53072 -257.45551 -11.348607
160.09106 -257.56946 -11.567402
162.36029 -257.45038 -11.51115
163.63803 -257.45102 -11.935389
163.29782 -257.58051 -12.90894
167.6445 -257.29492 -5.9665742
164.07445 -257.26404 -6.0995612
167.62149 -257.33536 -6.0460792
167.13382 -257.29105 -6.747478
168.71432 -257.35901 -7.3178692
173.90997 -257.38162 -10.590869
164.48907 -257.01022 -5.608882
164.1777 -257.03522 -6.0869298
167.48589 -257.02167 -6.5210028
168.55084 -257.03818 -7.078876
173.76157 -257.06775 -10.22149
160.46263 -257.09131 -11.826174
164.39586 -256.83148 -5.1567779
162.17709 -256.92349 -5.2244129
166.2164 -256.90561 -5.734271
174.92909 -256.88806 -5.7699518
164.37241 -256.90677 -6.2764859
166.9845 -256.94159 -6.3448071
168.25638 -256.94055 -6.2159739
174.31505 -256.84631 -8.4592724
173.86342 -256.96173 -10.605249
161.85922 -256.94556 -11.040498
162.57361 -256.88589 -11.625294
162.69978 -256.71933 -5.195612
164.73785 -256.63257 -5.755311
174.9236 -256.63815 -5.7008438
164.44751 -256.7858 -6.1147642
162.68906 -256.70367 -11.705289
162.29651 -256.4884 -5.236968
167.79309 -256.55228 -5.9389448
168.0578 -256.45135 -6.227777
168.31056 -256.55112 -6.6468959
168.32916 -256.52664 -7.3163919
173.56583 -256.55521 -9.5126753
165.01456 -256.25659 -5.1557989
164.93608 -256.33398 -5.3134961
166.21149 -256.21564 -5.7103729
168.33768 -256.33881 -5.9759722
168.10226 -256.33649 -6.3178
174.09555 -256.23898 -9.361805
166.84091 -256.34393 -10.337276
174.40166 -256.29086 -10.323331
161.71086 -256.20386 -11.133084
165.022 -256.13437 -5.2046351
165.87244 -256.09705 -5.3134432
166.12639 -256.16687 -5.3975949
166.35493 -256.17834 -5.7465539
161.71892 -256.08405 -10.665388
161.47699 -256.12231 -11.481377
160.00496 -256.0148 -12.188328
168.09297 -256.04443 -14.961426
161.91772 -255.98668 -5.0814519
165.55914 -255.85406 -5.190814
166.18565 -255.91141 -5.6317248
174.43073 -255.80142 -9.8336868
174.58356 -255.99847 -10.549536
161.32599 -255.92236 -11.351812
167.05499 -255.83884 -11.396079
167.32495 -255.80876 -11.420778
160.61801 -255.94418 -11.820665
170.36147 -255.82877 -12.873621
160.22058 -255.66647 -8.8439217
161.91034 -255.71877 -10.441911
160.91547 -255.60271 -10.602668
169.04883 -255.77806 -13.800987
166.52261 -255.62161 -14.139688
172.86696 -255.66084 -15.161028
172.82388 -255.62086 -15.255098
166.03976 -255.54245 -5.6933141
160.58694 -255.40195 -8.4799156
161.10193 -255.53387 -8.5136642
161.66098 -255.57184 -8.4801245
174.29355 -255.44701 -9.7608128
160.32561 -255.55879 -9.875411
166.88152 -255.47098 -9.9520502
160.75491 -255.44687 -11.445742
160.88167 -255.50119 -11.418412
163.80554 -255.52438 -12.326673
167.39726 -255.48691 -12.345613
166.39407 -255.59691 -14.149778
165.20128 -255.53682 -14.730883
165.50253 -255.40805 -15.003577
164.44208 -255.53452 -15.560817
172.60159 -255.28726 -6.9805741
172.60269 -255.30455 -7.3795662
172.53738 -255.29713 -7.8790498
166.17313 -255.30023 -8.7089128
172.34406 -255.33287 -8.7217922
172.46498 -255.25299 -8.6309071
172.36047 -255.29305 -8.8960552
172.43332 -255.25934 -8.8966475
167.05235 -255.26413 -10.12421
167.31964 -255.29327 -10.049284
160.30313 -255.35208 -10.31288
171.42702 -255.20728 -10.858595
174.26855 -255.36826 -12.002437
163.12251 -255.29839 -12.207502
167.62141 -255.32422 -14.33359
170.89122 -255.23697 -14.770346
174.15817 -255.31776 -14.889786
173.72032 -255.34505 -15.176807
172.54282 -255.13992 -7.9681821
161.01291 -255.01234 -8.5285091
171.28821 -255.14943 -11.24243
166.13022 -254.93024 -5.4737248
166.29266 -254.84911 -5.4222322
166.04562 -254.87604 -6.7172661
167.72527 -254.91029 -6.9360852
165.95306 -254.91238 -7.807497
165.95926 -254.98029 -9.4589787
166.02832 -254.85637 -9.920599
160.32178 -254.89958 -10.179193
174.45692 -254.82156 -10.810493
164.58716 -254.83746 -12.077471
166.37985 -254.84843 -12.665785
169.84296 -254.95462 -13.539993
170.69711 -254.99744 -14.733459
165.8364 -254.70244 -8.5372133
161.13559 -254.60184 -9.4011726
162.50581 -254.76785 -9.9267483
164.65561 -254.7001 -12.67408
170.70856 -254.63684 -14.643614
165.70944 -254.56778 -5.274816
167.36218 -254.52969 -6.086906
166.20776 -254.50119 -6.5904942
161.12991 -254.44684 -7.7672291
166.10605 -254.52426 -8.3765202
160.8848 -254.51942 -8.6264753
160.45828 -254.5885 -8.9997244
166.51744 -254.558 -9.124773
168.47758 -254.46913 -9.5003843
162.14252 -254.5929 -9.9098482
167.86221 -254.53909 -10.247715
161.0719 -254.57623 -10.919355
162.17271 -254.21295 -5.0487981
166.17328 -254.23706 -5.6855688
166.35281 -254.37375 -6.1990008
168.12137 -254.30774 -8.5468922
162.72418 -254.38603 -9.3903656
165.70731 -254.2706 -9.3967133
160.77425 -254.26729 -9.4807358
167.08141 -254.24339 -9.9257355
160.06044 -254.39548 -10.358635
160.67267 -254.30852 -10.875555
173.19177 -254.21535 -11.128222
162.18463 -254.2352 -12.72514
162.99802 -254.20703 -12.8887
172.36578 -254.39018 -14.093239
164.1481 -254.24283 -15.063325
170.27351 -254.33926 -15.074378
165.77489 -254.17575 -5.308445
169.72946 -254.00952 -5.3434448
171.8848 -254.14331 -5.6966681
171.0856 -254.19153 -5.8981509
163.45776 -254.14908 -12.47753
164.39285 -254.03081 -12.627453
173.59805 -254.04875 -12.763673
164.85869 -254.1785 -14.295626
170.22389 -253.85976 -5.3000031
160.55473 -253.91495 -8.5847988
168.02652 -253.81873 -9.1176758
167.10393 -253.85818 -9.2855101
165.59419 -253.94608 -9.5802174
161.7213 -253.98883 -10.060986
166.56343 -253.93933 -10.972437
163.28973 -253.85233 -12.459003
172.40968 -253.95415 -12.488291
173.49934 -253.81073 -12.981613
166.93027 -253.8717 -15.972836
166.90193 -253.92363 -16.065742
160.35626 -253.63306 -5.1155829
166.45222 -253.68298 -5.4464712
166.99492 -253.65112 -5.5506778
167.83273 -253.75223 -5.5123549
169.37144 -253.79697 -5.544425
173.28149 -253.63467 -11.549101
167.00722 -253.70303 -11.762355
161.80356 -253.75606 -13.405639
166.28957 -253.6098 -14.425241
166.4465 -253.55988 -5.3996191
160.70901 -253.5352 -8.9172134
161.48706 -253.47958 -9.7903576
167.50197 -253.44487 -10.699475
167.46347 -253.41901 -10.963374
173.30228 -253.51544 -10.983904
160.27522 -253.59938 -11.103266
162.0168 -253.45593 -14.404308
173.00938 -253.52609 -14.533196
167.82556 -253.37979 -5.2507491
167.30884 -253.24722 -8.9276257
165.69862 -253.28096 -10.057617
165.51004 -253.3931 -10.273939
165.30434 -253.28365 -10.873304
169.75848 -253.32751 -11.147876
168.63031 -253.35767 -11.275506
174.33476 -253.30417 -12.026857
160.22168 -253.08461 -5.0535202
168.55042 -253.00806 -5.1106162
168.47221 -253.13087 -8.6603622
161.47821 -253.06369 -9.7322664
169.13965 -253.00752 -10.453321
174.11569 -253.02553 -11.025014
162.15773 -253.06929 -15.990578
167.38153 -252.93919 -9.3522053
160.03387 -252.92908 -10.341739
164.63309 -252.93192 -11.559308
163.95291 -252.87196 -12.681265
161.45764 -252.88705 -13.982102
174.93829 -252.72095 -10.487947
161.15216 -252.72108 -12.899378
163.3912 -252.60048 -13.30878
161.84193 -252.59738 -8.7505779
173.78979 -252.56461 -10.129035
160.34778 -252.30664 -8.6278286
161.97018 -252.25284 -9.149704
162.28806 -252.20953 -9.4930086
160.41136 -252.37726 -9.6044216
173.73395 -252.28914 -9.7790699
174.19223 -252.37695 -10.426283
167.38091 -252.3909 -11.238976
169.05066 -252.27422 -11.429456
167.30394 -252.30377 -11.743135
167.15767 -252.38991 -11.830395
160.01294 -252.32455 -14.646319
167.8129 -252.00217 -5.0475221
173.67212 -252.0043 -9.1032429
173.41968 -252.16194 -9.719717
167.53371 -252.14352 -13.188129
161.42969 -252.17915 -13.283772
160.08154 -251.95114 -7.6787128
173.89334 -251.9191 -9.3137398
173.41873 -251.81969 -9.6535435
165.40054 -251.84482 -11.57074
166.10474 -251.90167 -11.923939
160.38336 -251.69527 -5.3430591
160.63135 -251.6329 -5.4052081
160.57149 -251.71049 -5.6378908
174.36261 -251.78516 -9.8424397
160.44362 -251.64346 -10.286808
160.23135 -251.66241 -10.432259
160.56148 -251.60858 -10.41403
170.18475 -251.73396 -14.146761
170.10612 -251.73688 -14.46804
169.67619 -251.65909 -15.622719
160.07977 -251.48424 -5.1368308
163.30699 -251.42432 -5.0936828
161.179 -251.57321 -7.8930631
161.60298 -251.55841 -13.706236
170.52507 -251.52991 -14.282768
160.8732 -251.3887 -5.4923992
160.44084 -251.21806 -6.5572848
160.85687 -251.25089 -8.3073139
160.4655 -251.27847 -8.6439238
160.54683 -251.28386 -10.244137
166.03946 -251.36902 -12.698677
161.6123 -251.21436 -12.903902
160.479 -251.12973 -6.3424339
160.44722 -251.13841 -6.575882
160.38635 -251.13327 -6.9024601
166.98697 -251.04857 -10.815836
162.74771 -251.1864 -12.783304
161.55705 -251.19614 -12.970918
160.24057 -250.90933 -7.7023592
160.15215 -250.92126 -8.1751719
160.94363 -250.97861 -8.542614
166.56346 -250.94714 -11.87664
166.56573 -250.88651 -12.91923
166.44046 -250.97639 -13.265429
174.2562 -250.60443 -8.0245714
160.08896 -250.75845 -8.2539482
160.67581 -250.73599 -10.478124
160.28354 -250.73509 -10.782398
166.47763 -250.74829 -13.097799
162.21992 -250.62347 -13.430005
174.87488 -250.52353 -7.4042401
173.45584 -250.43289 -7.6411018
160.08176 -250.56906 -14.142697
168.75989 -250.26286 -4.950561
173.33331 -250.37143 -7.503809
166.70694 -250.35394 -10.887871
161.26318 -250.11627 -4.9289098
174.06461 -250.18311 -5.6520748
173.54739 -250.15248 -6.9125438
174.17027 -250.11241 -8.331707
166.72289 -250.13135 -11.829072
173.76758 -249.81758 -7.2205348
174.76584 -249.8103 -7.547296
174.78128 -249.98727 -7.6731749
173.44063 -249.81233 -8.2907743
160.17514 -249.96313 -9.9524155
160.30499 -249.92508 -10.064098
161.01929 -249.86157 -10.309823
165.67587 -249.87625 -12.159385
165.59775 -249.88434 -12.475689
166.01895 -249.96896 -12.777972
160.48851 -249.85352 -13.090654
173.67819 -249.74411 -4.94205
174.34999 -249.71175 -9.0455198
174.20508 -249.67439 -9.4146576
161.24405 -249.73407 -10.765547
167.2872 -249.78503 -12.278419
166.50565 -249.74518 -12.460703
168.13989 -249.69727 -13.025012
162.33263 -249.42902 -4.901525
162.41704 -249.5218 -4.9911208
173.91653 -249.52185 -4.9645729
173.28293 -249.40639 -8.3363419
160.03479 -249.57489 -11.004174
168.28432 -249.47737 -11.714042
161.83502 -249.49759 -11.895871
161.54738 -249.57765 -12.409687
161.6438 -249.52419 -12.422438
167.97784 -249.40714 -12.804974
167.11539 -249.2852 -4.83918
173.19189 -249.35382 -4.8631082
174.01961 -249.39767 -5.0853229
172.9789 -249.379 -7.1878939
174.81725 -249.23334 -8.5670738
174.2377 -249.2569 -8.6359873
173.86516 -249.21262 -8.8836908
173.6403 -249.20482 -11.384409
160.63921 -249.37213 -12.457347
160.38126 -249.0697 -4.9643831
173.95866 -249.03 -4.860847
172.91299 -249.06009 -6.649065
174.23802 -249.08533 -10.219793
173.11253 -249.04156 -11.62247
160.32172 -249.0452 -11.830329
168.22668 -249.08664 -12.264513
166.61926 -249.02139 -12.475652
168.13617 -249.12933 -13.061319
172.89651 -248.96423 -7.3224902
166.38235 -248.88129 -11.511105
167.75992 -248.85571 -12.211748
162.1008 -248.8996 -17.624012
171.05026 -248.62968 -4.7932019
168.11401 -248.67068 -4.837842
172.9436 -248.68042 -6.4845209
168.82193 -248.69772 -10.904955
166.99722 -248.6069 -11.400846
160.66151 -248.65919 -11.985424
173.74084 -248.55226 -7.6550169
174.15004 -248.40179 -7.6354709
174.04279 -248.59494 -8.7405539
174.06419 -248.59438 -8.9210606
174.54372 -248.46881 -8.8654327
167.73508 -248.59285 -10.104917
168.52931 -248.58688 -11.45865
160.83487 -248.59404 -12.109819
167.66824 -248.44357 -12.080301
161.73434 -248.51559 -12.564528
174.91263 -248.57146 -12.673416
167.78792 -248.54681 -12.885177
160.46208 -248.58356 -13.435129
165.09827 -248.21837 -4.856369
173.14301 -248.20195 -7.3686171
174.70164 -248.30466 -7.524529
174.69128 -248.21442 -8.887598
166.68164 -248.2471 -10.336008
165.80917 -248.26501 -14.738321
167.29343 -248.15662 -12.012432
161.4631 -248.04233 -13.477524
164.09921 -247.9059 -4.8849282
166.21553 -247.83707 -4.8393831
166.80161 -247.91049 -4.8709841
174.45268 -247.85506 -11.85802
168.9807 -247.99916 -13.986269
168.47298 -247.86537 -14.846539
162.32407 -247.65865 -4.7878671
174.58011 -247.6403 -8.4147587
174.80933 -247.66417 -12.175646
164.28027 -247.72241 -12.67665
167.96643 -247.43825 -4.8575611
173.61891 -247.59877 -6.7674112
174.47057 -247.5414 -6.7898188
173.97247 -247.59218 -7.1139112
163.92001 -247.52081 -12.729361
164.59427 -247.52667 -12.808807
167.49472 -247.43124 -14.560738
160.14546 -247.2709 -10.103439
162.49918 -247.26263 -12.662435
167.63074 -247.29225 -14.510842
169.86365 -247.30119 -14.491171
164.07298 -247.17032 -4.80266
164.66701 -247.16925 -10.339813
166.76904 -247.16092 -14.429303
166.31821 -246.82892 -9.4904604
166.285 -246.97897 -10.598036
167.0777 -246.93109 -10.643774
167.01016 -246.92615 -10.816839
174.9548 -246.8578 -11.45611
163.13913 -246.80241 -12.365185
162.99045 -246.88573 -12.614122
163.62518 -246.89377 -12.747446
172.43391 -246.91301 -13.498158
166.27295 -246.70358 -9.4586239
160.6131 -246.75577 -11.179428
163.10229 -246.78206 -12.490319
173.01163 -246.62122 -14.517862
166.3445 -246.50667 -4.7429538
166.84436 -246.54419 -9.8956575
172.03566 -246.53806 -10.627684
165.77905 -246.45886 -11.970098
174.69128 -246.58714 -13.603274
162.33862 -246.21701 -4.7089009
162.50354 -246.30846 -4.6769218
173.2162 -246.29955 -4.6240668
172.63724 -246.29601 -10.607813
173.97264 -246.30042 -10.68333
174.9565 -246.26828 -12.381235
174.92236 -246.26073 -12.435673
171.93201 -246.37564 -13.073826
173.30728 -246.26314 -13.395377
174.27399 -246.26817 -13.271016
163.05087 -246.17035 -4.6700869
168.48878 -246.03105 -4.745832
172.98309 -246.13531 -7.1500702
173.87572 -246.18141 -7.75985
160.84244 -246.08995 -8.1496296
173.59073 -246.17741 -8.2133837
161.39758 -246.06203 -8.4949131
160.851 -246.10513 -8.7018995
174.59572 -246.04475 -8.7214241
160.49519 -246.08279 -8.9993448
160.05737 -246.16046 -9.0076904
161.81522 -246.00421 -9.0285683
174.55971 -246.14278 -10.560481
171.41858 -246.16377 -11.065944
164.76765 -246.07361 -12.799981
172.16687 -246.18144 -13.07058
172.42635 -246.11554 -14.099648
167.72881 -245.8837 -4.7104182
172.995 -245.9137 -7.1351562
174.83496 -245.97893 -7.4224372
161.91052 -245.8087 -8.0996418
162.04337 -245.91345 -8.0413036
173.67545 -245.87643 -8.1061687
171.92104 -245.88266 -8.554224
172.60144 -245.85651 -10.167133
172.93478 -245.85291 -12.201712
164.86249 -245.91747 -12.873278
173.22322 -245.87466 -13.357138
161.07397 -245.70117 -4.7454329
167.36847 -245.79912 -4.7527719
160.84778 -245.77649 -8.2945204
174.65378 -245.75581 -8.3122673
160.00826 -245.61951 -8.4392786
161.6907 -245.73529 -8.664732
172.6409 -245.72864 -8.6535759
171.61063 -245.70474 -10.917604
170.87424 -245.71634 -11.004106
170.72598 -245.74283 -11.278685
170.91524 -245.71248 -11.356871
172.77716 -245.66708 -11.317032
168.88283 -245.63792 -13.055805
171.44092 -245.66833 -13.398899
163.66058 -245.77437 -15.344765
162.35649 -245.46033 -4.6376262
163.05911 -245.42409 -4.7116189
169.16826 -245.41214 -4.6716852
173.50546 -245.42944 -5.9432459
173.16074 -245.56729 -7.3630939
174.34955 -245.4303 -8.1760635
161.5575 -245.5576 -8.3800354
173.55829 -245.57788 -8.2537546
172.34146 -245.55899 -9.4770994
172.69659 -245.5018 -9.9142609
163.87013 -245.40015 -12.57485
169.01724 -245.47295 -12.648657
171.87354 -245.52602 -13.033028
174.36061 -245.593 -13.034269
173.03853 -245.31458 -6.2365808
173.64363 -245.39192 -8.4569674
174.67937 -245.37848 -8.5106316
160.67787 -245.36426 -8.7262115
161.23959 -245.29822 -8.9580393
171.72855 -245.28944 -9.0887585
171.19426 -245.2608 -10.352871
173.64366 -245.30074 -10.383648
170.8094 -245.30818 -10.423117
