# .PCD v0.7 - Point Cloud Data file format
VERSION 0.7
FIELDS x y z
SIZE 4 4 4
TYPE F F F
COUNT 1 1 1
WIDTH 1549
HEIGHT 1
VIEWPOINT 0 0 0 1 0 0 0
POINTS 1549
DATA ascii
167.17618 -40.596874 2.143434
167.36157 -40.558929 2.1561141
169.25273 -40.580116 2.1578519
179.44073 -40.474892 2.095273
179.45517 -40.418041 1.954796
161.68306 -40.202396 2.1515319
179.42677 -40.250809 2.117584
179.42151 -40.203194 1.954659
160.15851 -40.027634 2.131942
163.10899 -40.19936 2.117496
165.69312 -40.198868 2.121418
161.33522 -59.814484 1.80618
161.82837 -59.835739 1.735659
163.59348 -59.847855 1.625386
165.1911 -59.952686 1.618523
165.84485 -59.842026 1.433717
166.23112 -59.855263 1.5448641
165.80864 -59.869728 1.00392
165.81123 -59.911865 0.68767798
175.63867 -59.807129 -0.268244
175.80116 -59.836189 -0.937379
178.85669 -59.99263 -1.161374
175.64709 -59.886131 -1.498993
175.77718 -59.979485 -1.689918
176.10623 -59.837517 -1.728704
178.43945 -59.823662 -1.877177
178.42175 -59.88488 -2.09547
176.57295 -59.907845 -2.2219191
176.56412 -59.812572 -2.5925989
177.11092 -59.903599 -2.6170759
177.25789 -59.82217 -2.7921381
167.54254 -59.839458 -3.056154
167.88403 -59.895214 -3.0553551
168.03961 -59.994175 -3.1067729
176.53079 -59.826611 -3.001687
176.65628 -59.874199 -3.3930359
167.86713 -59.83773 -3.575362
168.16193 -59.84967 -3.582273
172.74837 -59.873417 -3.718241
173.44423 -59.915543 -3.736084
176.69337 -59.827602 -3.7495279
168.93121 -59.801498 -3.9367831
169.80035 -59.839447 -4.1919541
168.49138 -59.919495 -4.3927932
168.04163 -59.80769 -4.4643998
169.26163 -59.851433 -4.9084282
169.81976 -59.820087 -4.895164
171.41061 -59.96397 -5.7060189
171.02715 -59.80542 -5.890923
171.67352 -59.811844 -6.090342
171.04515 -59.844128 -6.6299171
171.30875 -59.965511 -6.86836
175.54707 -59.851456 -7.3913188
176.51578 -59.96117 -7.338799
173.77104 -59.949856 -7.4154801
169.86804 -59.970158 -7.9198232
160.97661 -59.720234 2.088233
161.11877 -59.740833 1.931533
163.90886 -59.69968 1.633468
165.56253 -59.75317 1.618908
165.34422 -59.65535 1.561702
166.70975 -59.616707 1.546134
167.51715 -59.719448 1.479027
175.67215 -59.791046 1.454674
175.69913 -59.772896 0.89165199
161.72499 -59.691006 0.77868402
163.4072 -59.679741 -0.51398498
175.81403 -59.73241 -0.60174602
163.18169 -59.63707 -1.07313
175.56467 -59.724903 -1.4169641
178.79398 -59.671974 -1.509501
177.37512 -59.749798 -2.226656
172.97055 -59.619743 -3.083544
172.9621 -59.634338 -3.2797101
172.84547 -59.74218 -3.7191329
176.89554 -59.771141 -3.776911
168.15222 -59.725742 -3.905195
168.51431 -59.747795 -3.854768
167.93436 -59.658566 -4.5281429
169.25729 -59.717251 -5.3119411
171.72177 -59.616917 -5.2048979
170.18188 -59.776901 -5.6230931
168.98126 -59.670166 -6.32937
168.99286 -59.718887 -6.4200182
168.30267 -59.646851 -6.7731709
173.38771 -59.603661 -6.6592879
171.08907 -59.74118 -6.9107699
169.95821 -59.673782 -7.4183998
161.44627 -59.497169 1.673563
163.83296 -59.433083 1.6261539
175.66687 -59.505749 1.603565
161.51868 -59.412506 1.475973
165.48236 -59.421764 1.55651
160.97202 -59.525406 1.29099
161.13771 -59.445465 0.86472601
161.42038 -59.414265 0.86573398
161.7758 -59.467628 0.94878101
161.79536 -59.453526 0.77888298
162.7597 -59.43232 0.066959001
162.71092 -59.443611 -0.17310099
163.26505 -59.523369 -0.201702
177.32744 -59.473515 -2.222429
176.58032 -59.507736 -2.5922551
167.43437 -59.512077 -3.0767291
173.02457 -59.520088 -3.114877
168.31865 -59.440174 -3.260164
173.05745 -59.439732 -3.2691259
176.62044 -59.434731 -3.394258
177.42461 -59.415955 -3.300287
170.65843 -59.468796 -3.916898
173.03601 -59.480236 -4.118753
174.01764 -59.569721 -4.1460018
168.22107 -59.530586 -4.3607049
168.27736 -59.415421 -4.5199342
169.78995 -59.44302 -4.9687681
169.55731 -59.43531 -5.3559928
172.08572 -59.428589 -5.5725021
171.75552 -59.451027 -6.2817111
170.26492 -59.420044 -6.5451198
171.20413 -59.417301 -6.9817238
168.96017 -59.504494 -7.1091461
170.70886 -59.594341 -7.037663
170.97998 -59.522991 -7.3010039
170.53432 -59.546612 -7.538404
174.28085 -59.516052 -7.424232
169.15131 -59.540028 -7.7901468
169.43051 -59.408531 -8.0682554
176.10907 -59.566574 -8.3566933
160.6445 -59.280655 1.904916
161.60196 -59.368462 1.5951281
167.10876 -59.207592 1.539342
167.27379 -59.264305 1.501905
173.59753 -59.271629 1.543192
176.85428 -59.262978 1.421222
176.8468 -59.248428 0.970065
161.41388 -59.388474 0.758349
162.84753 -59.249382 0.180471
162.74933 -59.32793 -0.030858999
162.89215 -59.301132 -0.089566998
163.01677 -59.367748 -0.538293
163.02306 -59.35836 -1.090023
163.25447 -59.250462 -1.073774
178.83368 -59.286373 -1.631483
178.22495 -59.369423 -2.2080591
175.98395 -59.217171 -2.4876599
176.98645 -59.353683 -2.474807
176.19742 -59.257 -2.6216159
168.10301 -59.357899 -2.9530821
176.58282 -59.354889 -3.022083
176.39438 -59.384365 -3.236805
168.76979 -59.31377 -3.439872
167.63284 -59.220413 -3.8814731
173.35446 -59.345367 -3.8609331
167.80978 -59.296188 -4.311305
168.61438 -59.307808 -4.6147952
169.33289 -59.353153 -5.0376401
170.22128 -59.255074 -5.5945292
171.81044 -59.334755 -5.6841588
171.42621 -59.369221 -6.03898
169.45392 -59.336838 -6.664783
173.34219 -59.356705 -6.7722831
174.48605 -59.358204 -7.0322971
175.67249 -59.3643 -7.0718679
178.66803 -59.238144 -7.1582508
175.40163 -59.309513 -7.3338141
170.29359 -59.325378 -7.5240412
170.15079 -59.321968 -7.758584
160.52654 -59.100983 1.863372
160.96971 -59.075459 1.629262
160.97165 -59.091785 1.443966
165.46301 -59.031509 1.376037
160.86249 -59.100819 1.073974
178.22363 -59.196327 1.058349
176.87431 -59.193485 0.87145501
161.50232 -59.172424 0.77747101
162.57181 -59.033993 -0.52540398
163.47771 -59.041008 -0.63268
162.42767 -59.098206 -0.80250001
163.55563 -59.127132 -1.0652651
175.76126 -59.005424 -2.2489619
168.24973 -59.047546 -3.057765
176.70131 -59.113735 -3.361769
167.48251 -59.051773 -3.6632681
168.88454 -59.189117 -3.637109
167.69604 -59.11528 -4.2313342
178.5387 -59.140705 -4.5022688
168.60846 -59.084869 -4.665813
169.79889 -59.132156 -5.2827959
171.07364 -59.064674 -5.719244
171.77209 -59.021255 -6.136075
169.79866 -59.050709 -6.38626
175.41685 -59.000778 -6.273273
168.56601 -59.015167 -6.572876
173.67346 -59.006828 -6.4077492
168.48218 -59.104698 -6.8183942
173.21475 -59.019199 -6.9692998
173.60399 -59.187698 -6.940938
169.33824 -59.011761 -7.156642
169.0811 -59.066803 -7.2835078
169.41925 -59.0541 -7.5922098
170.15448 -59.157646 -7.44559
176.26514 -59.132809 -8.4716368
160.22937 -58.849091 1.920277
162.37376 -58.880291 1.622429
165.06436 -58.916115 1.604318
160.38184 -58.879055 1.409301
160.51477 -58.91127 1.430315
163.08218 -58.917137 1.5472749
163.23087 -58.878166 1.4178261
172.49411 -58.865345 1.533336
160.39609 -58.903507 1.081835
160.43013 -58.872864 1.053859
165.38824 -58.981644 1.033388
163.17578 -58.885117 0.89914399
163.22336 -58.874977 0.93438202
177.44539 -58.990246 0.98980498
163.21652 -58.846691 0.63849998
163.06352 -58.979191 0.45975599
162.96742 -58.929588 0.19139799
162.43358 -58.823479 -0.192421
162.59357 -58.952797 -0.205081
162.89941 -58.946518 -0.20904601
162.99979 -58.915997 -0.54291999
162.92857 -58.907364 -1.057444
178.93086 -58.978127 -1.8447109
178.95576 -58.980022 -2.0230711
178.57956 -58.81765 -2.3611951
176.16827 -58.948151 -2.5917439
168.50671 -58.972244 -3.020879
176.44427 -58.931892 -3.036984
170.14236 -58.906502 -3.4296379
168.07584 -58.90274 -3.670347
167.76324 -58.935219 -3.8421531
167.48894 -58.970119 -4.1374969
168.16843 -58.965939 -4.5300341
168.90724 -58.955921 -4.839705
169.64062 -58.991638 -4.953826
169.43265 -58.922531 -5.0444479
171.37292 -58.803253 -5.8247132
171.34233 -58.993416 -6.1579309
173.10974 -58.839558 -7.0214081
160.10872 -58.673325 1.898955
160.57288 -58.648136 1.705555
161.43848 -58.696449 1.679248
160.43132 -58.719086 1.3848341
160.30606 -58.669708 1.073212
177.8931 -58.737698 1.092916
178.29872 -58.608276 0.930677
163.24844 -58.773918 0.497363
162.76712 -58.679192 0.102423
162.99016 -58.671547 -0.156546
163.31088 -58.68177 -0.231021
162.6743 -58.732029 -0.53642899
163.02327 -58.618473 -0.45492399
162.70334 -58.676567 -0.86350101
162.88187 -58.716724 -0.85746598
163.27597 -58.697609 -1.100698
175.53047 -58.643604 -1.957919
175.5164 -58.714485 -2.0804429
176.24335 -58.61306 -2.282495
176.18816 -58.635696 -2.597779
176.47543 -58.623718 -2.553092
178.71587 -58.766071 -2.576293
167.89828 -58.668037 -2.775367
168.17062 -58.767921 -2.7076931
176.25662 -58.654293 -2.99611
168.31543 -58.718513 -3.003849
168.18625 -58.628937 -3.349494
167.36353 -58.737099 -3.6835599
168.22334 -58.633316 -3.9444671
167.79988 -58.659706 -4.2495041
168.17101 -58.684803 -4.5183058
169.23682 -58.723293 -4.868135
168.69495 -58.643902 -6.2854991
173.29015 -58.716171 -6.9018931
168.96255 -58.667698 -7.3332129
171.26338 -58.640141 -7.5303741
168.99352 -58.611919 -8.3761101
176.74899 -58.732002 -8.2722168
161.67377 -58.598434 1.652563
160.32178 -58.590214 1.355396
160.46893 -58.552334 1.0377589
178.63391 -58.450344 0.85952502
163.16423 -58.594284 0.44295201
163.13364 -58.493576 0.187869
162.73932 -58.571026 -0.229279
163.2551 -58.528343 -0.610892
175.80927 -58.525265 -2.291039
178.77977 -58.457329 -2.345891
175.77251 -58.550182 -2.567075
177.43684 -58.562752 -2.4773791
167.91162 -58.549946 -2.848608
176.16989 -58.481125 -3.305505
177.44698 -58.568596 -3.3933649
167.40796 -58.546497 -3.5222459
170.05542 -58.586159 -3.417423
167.68692 -58.585197 -3.8070741
168.71027 -58.579697 -4.282959
172.86171 -58.545006 -4.3475828
171.73242 -58.574993 -5.8773022
179.38217 -58.568985 -6.0738969
175.60625 -58.450333 -6.5193229
168.93454 -58.404045 -6.6053648
169.36897 -58.578175 -6.7046051
174.36249 -58.533157 -6.8257999
174.46469 -58.543663 -7.0274491
177.20076 -58.483952 -7.2926831
161.49818 -58.330635 1.638284
163.02734 -58.248085 1.542384
163.60344 -58.354385 1.464345
167.79065 -58.203556 1.5091209
178.8812 -58.255348 1.492244
178.29279 -58.217625 0.937365
163.18636 -58.348045 0.017736999
162.73514 -58.361435 -0.165003
162.95834 -58.247803 -0.25997901
162.71387 -58.346268 -0.51245201
162.96327 -58.221882 -0.53970599
163.37737 -58.275791 -1.035297
163.22946 -58.220261 -1.268041
175.88242 -58.253475 -1.763304
175.81079 -58.311615 -2.1257801
176.17546 -58.212955 -2.0832191
175.89883 -58.307335 -2.4430521
169.34607 -58.233875 -2.9737649
169.83324 -58.293686 -3.287272
167.48672 -58.365448 -3.53021
167.46057 -58.370449 -3.6478381
168.93683 -58.363953 -4.548769
172.55911 -58.260483 -5.6444201
173.84375 -58.353745 -6.2261872
168.81998 -58.386223 -6.6457772
174.17352 -58.299168 -6.9748688
174.51978 -58.205391 -7.0344701
178.64378 -58.231434 -7.1351662
171.05324 -58.259335 -7.306428
171.39233 -58.258137 -7.6529708
169.5596 -58.2341 -7.8357739
175.11418 -58.26952 -7.9059548
177.02271 -58.20919 -8.2340221
160.80995 -58.03318 1.67575
165.6953 -58.036022 1.641257
178.63248 -58.153522 1.49988
165.07378 -58.160168 0.98908198
178.9664 -58.15567 0.89999199
163.34885 -58.069 -0.52266502
176.08676 -58.116676 -1.876331
176.48914 -58.147339 -2.3604829
167.65405 -58.164719 -2.7061591
169.29889 -58.188484 -2.789181
176.46803 -58.092697 -2.6083281
179.46275 -58.135139 -2.6750751
169.74344 -58.105274 -2.9065731
169.03511 -58.061092 -3.1756141
168.3205 -58.171204 -3.528635
168.51764 -58.046642 -3.488677
170.71591 -58.154564 -3.5165329
168.27621 -58.16288 -3.610703
167.78552 -58.156796 -3.870368
167.95078 -58.146812 -4.2594652
168.32069 -58.063087 -4.303863
168.60107 -58.198002 -4.5352702
172.30945 -58.181709 -5.7294178
172.08255 -58.132908 -6.2089968
169.20598 -58.034267 -6.962379
173.45322 -58.159771 -7.082798
174.94788 -58.087433 -7.1059971
169.14056 -58.078049 -7.7667398
166.77054 -57.867928 1.6459
172.34244 -57.855728 1.626694
163.01508 -57.941944 1.570708
178.60309 -57.897717 1.476217
160.05154 -57.966484 1.010277
178.54791 -57.912384 0.90668499
164.96976 -57.828545 0.76366901
175.89568 -57.951889 -1.669733
178.59987 -57.850876 -1.789977
176.46002 -57.850052 -2.47138
169.56337 -57.932129 -2.917706
167.90157 -57.822083 -3.424896
179.20712 -57.841591 -3.785259
179.66687 -57.990875 -3.7192011
167.66084 -57.951576 -3.894583
168.90251 -57.861523 -4.4563589
172.35048 -57.868359 -5.969276
172.28543 -57.804272 -6.2694278
173.97079 -57.811985 -6.4267058
169.70599 -57.932098 -6.7428389
172.92665 -57.965969 -6.9963779
173.59598 -57.892223 -6.8759699
174.71413 -57.87122 -7.0678868
171.21216 -57.879818 -7.3247242
172.83572 -57.832664 -7.356832
172.66931 -57.808956 -7.7681031
177.59212 -57.835705 -8.2237635
176.56107 -57.903923 -8.5741978
160.71306 -57.705425 1.652127
164.91171 -57.777695 1.419746
164.93123 -57.760971 0.953834
178.26433 -57.728703 0.94956303
178.27133 -57.745182 0.79627299
178.11765 -57.754738 -1.520347
178.19943 -57.767338 -1.616048
177.90488 -57.719688 -2.1547079
176.49933 -57.73 -2.375423
169.05972 -57.741257 -2.4249539
169.69376 -57.74321 -2.883487
169.35327 -57.783844 -3.318805
168.07967 -57.78474 -3.55022
168.32753 -57.702698 -3.813354
172.53668 -57.653519 -4.0627651
168.65059 -57.742779 -4.2715721
168.68158 -57.713486 -4.519814
170.72865 -57.675735 -4.522181
171.75717 -57.628967 -4.7861872
177.46198 -57.631371 -4.6192241
171.70326 -57.658199 -5.6773701
170.23859 -57.620514 -7.0026879
170.62714 -57.722862 -7.2634201
171.08162 -57.769539 -7.2988582
171.20653 -57.780251 -7.9287238
170.68051 -57.728676 -8.1285257
176.82269 -57.734146 -8.9584665
179.20285 -57.628933 -9.9704542
166.87892 -57.544754 1.611752
179.71507 -57.403732 1.533788
178.9817 -57.454796 1.377182
178.18146 -57.404434 -1.500484
169.1692 -57.562763 -2.1160021
177.89722 -57.544415 -2.0275509
178.14264 -57.478119 -2.1292701
178.70863 -57.419212 -2.2460909
176.57172 -57.568481 -2.4376769
179.93752 -57.488998 -3.3855901
167.97311 -57.408463 -3.5621009
168.01797 -57.47641 -3.4335201
168.2614 -57.436554 -3.654067
168.91702 -57.448757 -3.7196701
169.42157 -57.536255 -4.0574932
168.76849 -57.489056 -4.2780662
171.76074 -57.56694 -4.72544
171.78513 -57.402176 -4.8654718
171.61609 -57.567898 -5.210041
175.50024 -57.431221 -5.4853549
171.52641 -57.400501 -5.6537571
173.6964 -57.493851 -5.969039
173.87993 -57.478161 -6.1379671
172.24557 -57.528236 -6.2344642
176.94159 -57.501133 -6.3860478
173.33208 -57.448681 -6.985487
174.12009 -57.428062 -6.940063
176.3194 -57.431152 -6.9820428
170.64815 -57.489845 -7.3331251
170.83904 -57.597103 -7.3323612
171.34673 -57.448711 -7.4977441
176.57652 -57.43396 -7.848691
179.05249 -57.555775 -9.9534912
166.65488 -57.391197 1.651438
171.74176 -57.332146 1.553429
179.35225 -57.258076 1.327341
179.51773 -57.380322 0.98380202
178.29292 -57.326786 -1.169852
177.86229 -57.343456 -1.475184
179.00613 -57.382927 -2.1365881
169.47729 -57.314777 -2.844593
168.47406 -57.391533 -3.5356569
168.53418 -57.253128 -3.726027
179.72705 -57.279884 -3.727874
173.05902 -57.318611 -6.1066079
174.04204 -57.270107 -6.5007758
176.09187 -57.387455 -6.7992668
177.28737 -57.318855 -6.6273961
174.502 -57.274212 -7.0368891
172.49466 -57.300758 -7.6044512
165.26714 -57.146488 1.694749
176.66249 -57.036301 1.681491
176.83871 -57.055904 1.434708
164.91467 -57.005116 1.3938971
179.78485 -57.08931 1.398427
179.73795 -57.190392 1.102944
179.46045 -57.064522 0.97953498
160.51102 -57.043709 0.69190401
161.00691 -57.06126 0.75926101
164.89407 -57.139778 0.66433799
178.59343 -57.027073 -0.66686398
178.58273 -57.13744 -0.91297698
178.14748 -57.018906 -1.018114
178.13983 -57.060692 -1.280691
179.04272 -57.109467 -2.208878
179.40654 -57.02597 -2.3262539
169.46095 -57.025658 -2.579432
170.00658 -57.006363 -2.861769
168.17496 -57.043427 -3.5560009
168.2951 -57.112072 -3.614234
179.81229 -57.100105 -3.7551589
170.88556 -57.033638 -5.400372
173.52556 -57.102127 -6.1390228
173.86165 -57.165665 -6.5352821
175.0527 -57.154716 -6.610291
176.52631 -57.109535 -6.7134771
172.66273 -57.168056 -6.8850198
174.69489 -57.035301 -6.9614291
176.21936 -57.166241 -6.910995
176.65569 -57.026917 -7.774034
176.99725 -57.014236 -7.8524098
164.8949 -56.949574 1.672098
160.59445 -56.984459 1.570397
165.2984 -56.853943 1.518679
164.731 -56.962036 1.38041
160.44189 -56.83992 1.093879
160.32828 -56.8564 0.84797502
164.59048 -56.912178 0.90551603
165.06245 -56.98592 0.972413
165.23909 -56.931599 0.98122603
160.3606 -56.913193 0.77035499
160.1601 -56.883881 0.48583901
160.20717 -56.896469 0.57261699
160.2244 -56.90522 0.25536001
176.32552 -56.976612 -4.0823512
176.1044 -56.840935 -4.4114742
177.36996 -56.841351 -4.5226078
179.77423 -56.846142 -4.5685492
170.29935 -56.932068 -4.635385
170.55141 -56.987396 -4.6603222
177.40718 -56.990082 -5.6836009
177.81335 -56.907837 -5.6965561
178.0733 -56.85009 -5.7388692
173.73419 -56.941578 -6.1825042
174.1414 -56.974003 -6.0386391
175.03813 -56.915581 -7.1313171
176.89038 -56.98632 -8.1608114
164.52022 -56.648266 1.6558959
167.40306 -56.669109 1.623993
162.94086 -56.71167 1.5833631
163.39191 -56.617455 1.561709
163.76898 -56.6311 1.597293
164.47798 -56.725513 1.306432
164.47684 -56.684921 1.0645829
160.17802 -56.685467 0.72821599
160.47437 -56.724819 0.190936
160.28 -56.627373 -0.074859001
178.50081 -56.762199 -0.91646397
171.00613 -56.609703 -4.2224388
176.98036 -56.618488 -4.4581971
170.28426 -56.630577 -4.6957622
178.54794 -56.652966 -5.2648911
174.67436 -56.748169 -7.2301388
178.90863 -56.692196 -7.8772302
179.84166 -56.691444 -8.1959419
171.02065 -56.442833 1.688027
175.23792 -56.434879 1.6824
160.46101 -56.508018 1.410503
163.40446 -56.539497 1.586373
160.2915 -56.535095 1.291196
160.61176 -56.560516 1.010137
160.14352 -56.499023 0.86757803
160.09698 -56.515873 0.73576301
160.26361 -56.455765 0.20218299
160.32788 -56.509384 0.13468599
160.2941 -56.552639 -0.44540501
179.69589 -56.492607 -2.6545811
170.5983 -56.484165 -4.1158252
170.47609 -56.563885 -4.7394352
174.95305 -56.440022 -5.1811342
178.91544 -56.545959 -5.4283061
172.40817 -56.558918 -5.9334741
177.76428 -56.561863 -5.8028202
179.05359 -56.49683 -5.8243198
177.42972 -56.562542 -6.4171462
178.92697 -56.435623 -6.5507631
174.87036 -56.545155 -6.6238518
162.15366 -56.356895 1.681433
162.28903 -56.283382 1.681487
162.56268 -56.22171 1.683962
165.6752 -56.331001 1.725177
171.47626 -56.250595 1.694656
160.3373 -56.296204 1.469069
160.51685 -56.274139 1.365855
164.30362 -56.228069 1.103681
160.35364 -56.231239 0.103539
160.27205 -56.30925 -0.242356
179.80728 -56.237961 -2.6204319
177.00507 -56.236107 -3.060817
175.88205 -56.235153 -3.4594929
177.02426 -56.364006 -3.5128009
175.92221 -56.374725 -4.3156452
170.68872 -56.348488 -4.683732
171.06918 -56.2262 -4.731462
176.63925 -56.251724 -4.9899058
171.07912 -56.231445 -5.1032238
175.89755 -56.259781 -5.0143929
177.31927 -56.258312 -5.235765
178.21124 -56.356522 -5.852654
178.9787 -56.277542 -6.9153752
175.99602 -56.37878 -7.0501542
177.3195 -56.22076 -7.7480588
177.37009 -56.2318 -8.0592775
163.33751 -56.027214 1.69069
164.82803 -56.034077 1.663717
178.00946 -56.154072 1.719913
160.27713 -56.139648 0.85511601
160.13791 -56.144981 0.71796602
160.14995 -56.086403 0.582874
161.2469 -56.046101 0.59125203
160.6459 -56.147636 -0.108938
160.46507 -56.171303 -0.27484101
179.57207 -56.183994 -2.1747341
179.66528 -56.056931 -2.1904089
176.4761 -56.10881 -3.144855
176.17451 -56.167191 -3.4688871
170.52863 -56.194992 -3.8218091
171.05963 -56.167019 -3.874279
171.3322 -56.171906 -4.2775421
171.40834 -56.007889 -4.9423718
171.28979 -56.155106 -5.4740071
179.38127 -56.0751 -6.5539608
177.89908 -56.067627 -7.845048
165.56616 -55.972111 1.702943
165.81439 -55.90934 1.703218
167.84946 -55.954033 1.624251
170.03616 -55.811058 1.672941
176.69778 -55.987144 1.7104779
160.85316 -55.933388 1.590006
160.16959 -55.977921 0.48291701
160.28758 -55.878979 0.461346
160.87561 -55.927025 0.57508498
176.26413 -55.915901 -3.4972
175.92534 -55.923538 -3.700768
170.98264 -55.812809 -4.124866
173.77911 -55.897446 -4.2344742
170.72659 -55.916969 -4.8622808
171.31395 -55.822613 -5.2120552
178.15219 -55.825768 -7.0936599
177.53203 -55.915115 -7.7817912
166.22345 -55.682419 1.698173
166.65176 -55.790211 1.627905
167.04501 -55.675262 1.670653
172.58246 -55.686634 1.719963
173.76419 -55.761383 1.66099
177.4938 -55.76981 1.732977
164.44128 -55.624313 1.57424
164.13887 -55.792419 0.93334198
177.29565 -55.746258 -2.5083539
177.04286 -55.764481 -2.6703341
176.45064 -55.694439 -3.4901061
170.50371 -55.791252 -4.2004209
177.37215 -55.785984 -4.2955618
171.57506 -55.616203 -4.9943538
171.112 -55.74424 -5.3902469
172.74371 -55.703449 -5.3401599
178.18762 -55.742821 -7.885107
162.66986 -55.464516 1.639115
163.97256 -55.526451 1.649616
164.04065 -55.56422 0.96265799
177.2684 -55.595825 -2.4897449
176.26212 -55.458172 -3.1303561
176.66563 -55.599865 -3.475095
177.02968 -55.447308 -3.5305591
171.04311 -55.408451 -4.0127692
170.70995 -55.446995 -4.2253528
170.65958 -55.529011 -4.6592331
171.0965 -55.420631 -4.7806549
172.19653 -55.404427 -5.01297
178.94637 -55.458054 -5.0828152
171.47533 -55.497864 -5.3489461
172.45135 -55.576775 -5.2425642
171.63205 -55.565411 -5.4662151
178.96661 -55.421192 -5.7804909
178.60168 -55.443546 -5.8100162
173.26788 -55.208321 1.729883
178.96542 -55.248867 1.745141
162.70355 -55.306541 1.582002
177.01651 -55.36248 -2.7538879
177.53058 -55.310749 -3.5036719
171.06258 -55.392735 -3.9929581
177.41873 -55.339687 -4.097414
178.41905 -55.367577 -4.526154
178.49304 -55.353313 -5.0484781
179.81583 -55.314323 -5.1675882
169.82651 -55.143669 1.714264
174.22382 -55.040344 1.700052
178.52002 -55.00679 -3.3590341
177.52831 -55.120712 -3.771107
179.35132 -55.050259 -3.7803431
170.83215 -55.185287 -3.983901
179.03049 -55.041901 -3.865402
171.3678 -55.01683 -4.0375218
171.05933 -55.031982 -4.2656212
172.1806 -55.100845 -4.8296041
179.41534 -55.04834 -5.087081
179.04175 -55.048145 -5.7224431
179.10526 -54.956894 1.774007
179.34358 -54.929371 -3.2518401
171.83838 -54.91642 -3.895613
178.67035 -54.866428 -4.355484
163.66946 -54.623585 0.92991298
178.52647 -54.613274 -2.978766
171.72565 -54.695137 -3.9599581
178.98969 -54.749821 -3.824054
172.08841 -54.762131 -4.1192632
173.28429 -54.667759 -4.0363522
179.0701 -54.694626 -4.1714149
178.69345 -54.674835 -5.0529542
179.37442 -54.626564 -5.281424
162.31992 -54.595757 1.613987
162.52586 -54.513321 1.614771
165.88557 -54.506683 1.750692
166.76208 -54.525635 1.7621191
171.86897 -54.523434 1.6415091
163.64929 -54.555656 1.488834
163.58127 -54.483284 0.94242102
179.42627 -54.524506 -3.4792631
174.13322 -54.514606 -3.981524
179.32898 -54.55537 -3.8715391
179.8125 -54.564144 -4.2186689
179.77454 -54.543133 -4.460012
178.89667 -54.540962 -5.403749
160.69519 -54.21035 1.616295
174.67451 -54.259281 1.782975
163.49966 -54.236557 1.401523
172.24907 -54.353931 1.5848171
179.9516 -54.238197 -3.3036771
178.88492 -54.353867 -4.4904962
161.31006 -54.120399 1.650183
165.79564 -54.16156 1.685508
166.75351 -54.115368 1.687899
171.93971 -54.178032 1.692542
172.88681 -54.110092 1.48931
179.8533 -54.172295 -4.1263819
179.94975 -54.131126 -4.5415621
160.24527 -53.899746 1.692549
163.07626 -53.904537 1.734502
168.10269 -53.912163 1.751358
171.39053 -53.93919 1.7940511
179.82466 -53.845352 -3.8199191
162.27258 -53.739044 1.678439
165.41473 -53.766006 1.70981
166.13463 -53.736134 1.715376
166.50854 -53.626717 1.710071
167.03659 -53.793262 1.719476
171.12259 -53.612003 1.726084
164.73271 -53.528168 1.7483
163.25571 -53.510853 1.370284
179.92625 -53.511406 -4.9274111
164.0219 -53.253796 1.71079
166.95819 -53.285599 1.73066
163.06802 -53.271492 1.465454
163.09338 -53.23637 0.95646501
179.83548 -53.293713 -3.870883
163.12662 -53.192513 1.68784
166.27069 -53.116333 1.7278
177.79822 -53.098484 1.798701
163.04062 -53.112785 1.3144
163.0387 -53.042118 0.93618101
161.33864 -52.936668 1.687218
165.48215 -52.942028 1.722796
166.50548 -52.903793 1.657227
176.26697 -52.895378 1.712788
164.67599 -52.660103 1.730163
175.83243 -52.648224 1.7480561
160.79477 -52.490875 1.654454
161.18025 -52.439491 1.694719
162.70737 -52.518208 1.737281
166.76553 -52.568016 1.656831
167.04413 -52.502464 1.738099
174.16278 -52.454895 1.796177
175.50966 -52.431858 1.7336169
162.8459 -52.542225 0.997989
160.58946 -52.22966 1.720304
164.05452 -52.274044 1.7752351
165.03918 -52.270199 1.726299
168.64352 -52.2668 1.783162
162.69022 -52.270885 1.482012
162.67601 -52.226837 0.94346303
165.00288 -52.169563 1.7110749
165.78418 -52.062546 1.765126
167.02742 -52.189896 1.73763
169.06505 -52.182426 1.751523
161.08746 -51.863598 1.72554
163.79185 -51.891228 1.771582
166.83635 -51.901619 1.7447619
168.69009 -51.656441 1.806937
169.17227 -51.639538 1.7375309
170.05133 -51.788254 1.785941
162.43726 -51.651802 0.938959
168.62196 -51.50898 1.877171
169.00301 -51.494953 1.824077
175.17645 -51.480316 1.889202
166.10403 -51.480404 1.771333
169.82562 -51.426628 1.782168
179.06567 -51.573814 1.779238
179.26215 -51.526356 1.698929
176.69894 -51.304497 1.8989379
164.5773 -51.333633 1.770915
166.70444 -51.294868 1.728385
167.76094 -51.326908 1.7628011
160.24854 -51.041183 1.770069
163.30923 -51.192333 1.7452281
160.58948 -50.896133 1.769241
162.17474 -50.938057 1.726521
162.18829 -50.981499 1.429106
162.1644 -50.956848 1.005934
169.03813 -50.66243 1.828426
160.20288 -50.604977 1.764567
166.29312 -50.633606 1.778349
166.75679 -50.662392 1.724237
160.3196 -50.493805 1.817943
165.9014 -50.402504 1.8035409
163.8884 -50.573498 1.799835
168.75272 -50.592224 1.7928571
169.10938 -50.236691 1.8091969
172.31305 -50.296219 1.916731
166.29968 -50.284801 1.788054
165.85397 -50.150665 1.803014
168.57545 -50.123615 1.825099
160.36226 -50.11739 1.754847
160.53738 -50.057571 1.7389801
167.44456 -50.192242 1.7815731
175.61629 -49.862877 1.885186
161.71649 -49.87191 1.721859
166.32379 -49.857391 1.787781
161.73441 -49.87323 1.515403
161.75031 -49.902748 1.001549
162.1003 -49.718868 1.830669
165.91452 -49.790436 1.822217
167.25285 -49.749626 1.8492531
168.64784 -49.78616 1.833223
168.85097 -49.634716 1.819117
160.88522 -49.644398 1.77194
161.68274 -49.737766 1.666555
162.20816 -49.446232 1.800101
162.42903 -49.588573 1.84726
168.74123 -49.539139 1.8087471
161.64987 -49.571846 1.0303071
168.19565 -49.276363 1.8850091
169.30933 -49.386108 1.8648829
170.58853 -49.381493 1.877565
160.6149 -49.38847 1.795568
161.43494 -49.37793 1.726614
161.83969 -49.395157 1.780201
160.87172 -49.201782 -1.015195
160.12395 -49.085957 1.837397
160.95274 -49.024853 1.815254
168.21248 -49.013035 1.9092211
161.45801 -49.111809 0.99954498
166.13564 -48.963348 1.858861
167.04979 -48.916996 1.821854
173.48955 -48.891594 1.858085
178.23921 -48.672256 2.0167389
168.60318 -48.604172 1.884131
176.31334 -48.674507 1.976073
161.16849 -48.663559 1.696173
161.2581 -48.632843 1.678299
161.19089 -48.659252 1.443936
161.26942 -48.697487 1.326648
163.75574 -48.427986 1.820212
164.50336 -48.583023 1.862566
168.06018 -48.582916 1.888152
168.9218 -48.562782 1.882784
170.63693 -48.573631 1.931937
171.04407 -48.47514 1.914995
176.46814 -48.515968 1.952885
161.18637 -48.48423 1.703717
179.0118 -48.324986 2.0182049
164.50877 -48.22995 1.887681
166.66026 -48.221672 1.914809
166.82114 -48.327858 1.854352
168.12 -48.250069 1.915007
170.27403 -48.240253 1.933861
179.25949 -48.371376 1.954658
161.05829 -48.21936 1.501989
167.31615 -48.009541 1.9832751
172.22337 -48.140823 1.950973
161.04155 -48.123676 1.663996
161.0722 -48.170753 1.0460939
160.15509 -48.182068 -0.94761699
160.41426 -48.030869 -1.113039
166.60478 -47.841625 1.904465
170.67627 -47.865898 1.972299
171.52727 -47.828568 1.96883
178.6355 -47.880352 1.923601
160.10748 -47.750465 1.804413
164.57721 -47.775837 1.866773
167.49423 -47.746452 1.955097
171.79718 -47.72522 1.942192
173.82132 -47.6707 1.951856
160.73074 -47.683182 1.716801
160.84416 -47.695053 1.71106
160.78624 -47.72702 1.467783
160.8634 -47.788071 1.514438
162.87894 -47.580589 1.812351
163.2471 -47.417919 1.8318239
164.93419 -47.501915 1.894371
168.24124 -47.437553 1.919695
171.47041 -47.458527 1.9721791
174.40231 -47.345619 2.0117331
173.89656 -47.379791 1.953092
174.51019 -47.269707 1.9767489
175.02991 -47.316849 1.888832
160.85245 -47.271503 1.670465
160.73228 -47.386116 1.384998
179.70284 -47.031433 2.0537391
164.31146 -47.159603 1.865093
169.33664 -47.088654 1.9379489
173.3857 -47.019848 1.939224
160.72652 -47.093849 1.700963
160.8291 -47.097511 1.649163
160.56927 -47.050201 1.517134
160.87186 -47.174164 1.4686919
160.88551 -47.115395 0.93125802
160.92226 -47.1408 0.46057099
160.92947 -47.090118 0.218284
160.92606 -47.134151 -0.238768
160.91458 -47.098488 -0.536668
160.93755 -47.078995 -0.96858501
167.71629 -46.970085 2.0197401
166.20145 -46.964043 1.921321
160.60062 -46.958595 1.763831
160.03592 -46.881691 -1.089941
167.70874 -46.786873 2.024585
171.15874 -46.665218 2.0379281
175.66212 -46.759384 2.055774
171.88927 -46.614731 1.977018
160.49904 -46.683636 1.675256
160.49324 -46.674618 1.498281
160.46446 -46.607742 1.097159
160.0994 -46.737091 -1.103094
167.53226 -46.563622 2.020972
164.88416 -46.584915 1.904917
160.33846 -46.442265 1.62209
160.43678 -46.491135 1.205747
167.03195 -46.240261 2.0113389
166.74435 -46.300774 1.943611
167.94562 -46.387333 1.952736
173.8764 -46.364113 1.990437
174.15677 -46.098648 2.0526221
165.83928 -46.19746 1.943848
160.26451 -46.166588 1.651783
165.61023 -45.985924 1.878221
166.65311 -45.813755 1.984622
167.03778 -45.836861 1.955248
173.03276 -45.847374 1.9599
167.05176 -45.484653 2.0107851
165.66246 -45.405167 1.92625
166.13217 -45.4487 1.976742
166.8927 -45.414444 1.979564
169.1929 -45.423328 1.988387
160.06059 -45.507458 1.787504
160.01947 -45.529808 1.506546
175.1404 -45.355209 2.0358441
179.00436 -45.252312 2.0693121
162.51178 -45.27718 1.930648
167.28818 -45.286552 1.95391
166.84378 -45.128204 2.033402
161.8907 -45.01004 1.8963211
163.96716 -45.031593 1.9765559
165.38644 -45.036869 1.919441
179.03879 -44.919891 2.0747349
170.72357 -44.576653 2.071404
161.82533 -44.555126 1.946329
178.62001 -44.31551 2.1347311
175.41022 -44.120174 2.2128141
164.99203 -44.18689 2.011126
166.8288 -44.111839 2.0329909
168.58324 -44.175087 2.0683019
168.23608 -43.80954 2.1085811
168.65324 -43.83419 2.075886
173.45776 -43.901962 2.1736441
179.80357 -43.83876 2.071188
166.16692 -43.923431 1.981752
166.6384 -43.722588 2.031045
170.97963 -43.64753 2.1047411
172.94957 -43.71109 2.144192
161.28651 -43.673119 1.9938591
168.71242 -43.503258 2.078248
168.9928 -43.418243 2.0785739
176.19757 -43.421692 2.194618
179.71515 -43.423 2.069468
161.36453 -43.439117 1.9887151
166.50745 -43.244064 2.0418451
169.24541 -43.30592 2.0749681
171.33829 -43.308022 2.0432889
171.81259 -43.391949 2.1308081
174.06523 -43.267979 2.128433
163.40434 -43.007042 2.01807
164.52939 -43.067482 2.0425651
169.0419 -43.097992 2.1039381
160.5412 -42.851288 2.0155809
163.67984 -42.985348 2.0169289
166.21654 -42.915298 2.066709
167.00589 -42.899303 2.0548389
169.40375 -42.923538 2.073673
179.26572 -42.976151 2.0353251
163.43491 -42.872734 1.96582
176.12921 -42.706509 2.222214
164.08792 -42.660423 2.021261
178.17203 -42.758301 2.1652491
160.17439 -42.564976 2.031054
166.99748 -42.531792 2.112397
161.70819 -42.46666 1.99823
161.92204 -42.23024 2.0488
164.20361 -42.340729 2.032294
165.79323 -42.177238 2.076921
170.63831 -42.112877 2.098521
178.6189 -42.081627 2.195857
162.83447 -41.820213 2.056201
163.89154 -41.893738 2.069196
167.78128 -41.82362 2.057369
168.93782 -41.949554 2.141726
174.97774 -41.676567 2.281518
175.28027 -41.735481 2.231777
165.07968 -41.643242 2.0738449
166.60559 -41.747665 2.124037
166.87984 -41.797741 2.094604
162.70595 -41.406597 2.058012
163.74098 -41.460789 2.0560961
164.97302 -41.410294 2.084796
166.05301 -41.538719 2.1151879
171.96097 -41.339096 2.2069941
166.55865 -41.34296 2.135273
166.95148 -41.286354 2.143477
167.42996 -41.283585 2.124078
168.2059 -41.362144 2.184113
168.44751 -41.36417 2.1398251
179.9099 -41.271484 2.120827
175.73413 -41.115135 2.228044
166.66418 -41.06472 2.113868
167.3856 -41.065479 2.1290491
167.7769 -41.055401 2.118444
168.23102 -41.08567 2.121568
170.4736 -41.052238 2.16256
172.92651 -41.13575 2.1401069
179.86603 -41.084442 1.933779
174.93355 -40.995502 2.2345369
161.09311 -40.927212 2.1009259
163.4572 -40.913361 2.0686271
165.07825 -40.937759 2.0876441
166.7128 -40.950546 2.1567931
177.83209 -40.834103 2.1474979
179.73621 -40.874283 2.097903
162.51596 -40.74205 2.111696
163.39592 -40.674915 2.0939391
164.99823 -40.693302 2.092901
166.87691 -40.611801 2.161108
168.13168 -40.679955 2.079664
170.9015 -40.670822 2.1957819
179.79175 -40.643093 2.1647699
174.96194 -40.581745 2.2227111
160.48444 -40.594963 2.074266
166.57339 -40.584629 2.1691771
167.32343 -40.487473 2.1283619
177.74991 -40.539314 2.1975701
179.4225 -40.538174 2.0598481
162.18329 -40.27977 2.0919671
163.40204 -40.322689 2.1138289
166.73265 -40.280811 2.19258
168.16786 -40.213974 2.138818
175.03529 -40.295647 2.154309
179.39043 -40.227135 2.0950141
179.39059 -40.220444 1.836776
160.74191 -59.82563 2.411097
164.30371 -59.865356 1.63639
164.42403 -59.883343 1.6390899
161.27478 -59.800621 1.124923
165.89334 -59.965435 1.0608571
178.27794 -59.907482 1.074087
175.87538 -59.84647 -1.7606699
168.16176 -59.898079 -2.997401
169.92856 -59.981468 -3.54442
178.58347 -59.959637 -3.7342179
168.93362 -59.84536 -3.897182
173.38068 -59.952606 -3.839936
168.50357 -59.8592 -4.1527638
168.26207 -59.805229 -4.2715368
168.56781 -59.943661 -4.4044251
173.37001 -59.923347 -4.4420209
169.81992 -59.844849 -4.9653678
169.11383 -59.938583 -5.0977859
169.30112 -59.82296 -5.0198078
171.50632 -59.853333 -5.5770979
170.20776 -59.803841 -5.6131558
171.34512 -59.812355 -5.8604388
171.70937 -59.855736 -6.148602
176.5905 -59.879452 -6.0047598
169.36374 -59.804985 -8.2729168
169.43933 -59.958458 -8.4782305
171.71994 -59.837666 -8.7533255
171.76234 -59.858765 -9.8204432
165.41028 -59.730614 1.613489
165.83871 -59.785583 1.369277
175.70282 -59.784435 1.069141
161.82442 -59.739338 0.84929103
162.69038 -59.61182 -0.186092
163.44731 -59.67569 -0.25135401
162.62604 -59.766495 -0.45001301
175.80957 -59.783054 -0.67852402
176.63162 -59.773582 -2.473022
167.51401 -59.78167 -2.6392391
167.44341 -59.779045 -2.9140201
176.69791 -59.702244 -3.106709
167.8428 -59.736771 -3.3434811
168.11086 -59.751976 -3.4006231
168.20905 -59.721191 -3.857074
168.57077 -59.695599 -3.8356681
172.75774 -59.723232 -3.826107
169.81136 -59.78487 -4.1772389
173.0011 -59.715565 -4.1201029
173.34192 -59.748299 -4.1115789
168.987 -59.700607 -4.7533698
171.03906 -59.67662 -5.9441948
171.79535 -59.658379 -5.8124361
171.48732 -59.76825 -6.1123209
168.99677 -59.623428 -6.346509
170.73921 -59.798656 -6.4924698
173.45206 -59.701401 -6.5613141
178.95399 -59.767265 -6.688621
172.40396 -59.708179 -6.846437
170.99783 -59.726662 -7.065033
171.71066 -59.678864 -7.4810138
169.10893 -59.686127 -7.7646942
175.97861 -59.775299 -8.0098515
169.12045 -59.793598 -8.2367134
160.8692 -59.459267 1.889601
161.49637 -59.451813 1.423732
166.15073 -59.405556 1.5805039
161.03633 -59.451309 1.3266881
161.70952 -59.485561 1.058995
161.85229 -59.402374 0.77552402
165.71283 -59.512196 0.76107502
162.66116 -59.481815 -0.166236
163.4072 -59.498367 -0.15422399
162.71132 -59.500496 -0.203603
175.7971 -59.589783 -0.27548599
163.34647 -59.402691 -0.73072499
178.85771 -59.531914 -1.558004
178.53125 -59.475948 -1.7398109
167.45154 -59.551067 -2.885664
177.04401 -59.562038 -3.078192
167.69176 -59.413311 -3.246022
172.71284 -59.52911 -4.0119171
172.92484 -59.513367 -4.0881219
168.87209 -59.469162 -4.7465811
170.62088 -59.472523 -5.301991
175.13712 -59.599232 -5.4108849
168.60074 -59.451584 -6.30867
171.80661 -59.428726 -6.2717142
169.93121 -59.414394 -6.5907869
170.45793 -59.492538 -6.4801269
168.68484 -59.502831 -6.6367989
173.4283 -59.514671 -6.6742229
169.00267 -59.439011 -7.1394229
170.69003 -59.543488 -7.0830922
170.15366 -59.400551 -7.3844371
170.94125 -59.521587 -7.316555
174.1554 -59.469971 -7.4171519
169.4828 -59.53928 -8.1917105
169.11707 -59.52095 -8.2374344
171.42299 -59.507523 -8.8484755
162.65886 -59.269592 1.638401
162.90906 -59.362911 1.637318
164.20874 -59.372715 1.636968
163.12791 -59.298576 1.587822
176.72682 -59.353909 1.38612
161.32376 -59.358803 0.92843002
161.51567 -59.273804 0.82374901
178.22485 -59.271519 0.96967202
162.9211 -59.342213 0.169384
163.29907 -59.367378 0.098755002
162.9252 -59.255474 -0.26086801
162.75909 -59.3218 -0.47227699
163.07028 -59.267391 -0.72061998
162.73773 -59.309032 -0.81374699
163.30106 -59.39761 -0.87256497
178.54669 -59.375652 -2.0870049
176.60368 -59.357986 -2.530844
176.99585 -59.377144 -2.521934
168.5802 -59.261536 -3.085186
176.64937 -59.321911 -3.0497651
170.40909 -59.294704 -3.585562
167.70166 -59.257812 -3.899503
167.87277 -59.249569 -4.177381
168.25055 -59.3367 -4.1190252
168.5484 -59.343121 -4.224277
169.91049 -59.388905 -4.2133441
178.5401 -59.279888 -4.3379312
168.27037 -59.359741 -4.4913311
168.63687 -59.344543 -4.6235628
169.19379 -59.235031 -5.10991
169.32141 -59.289253 -5.0303869
169.56401 -59.386246 -5.3215499
170.1524 -59.281258 -5.397357
170.21049 -59.384872 -5.7449832
171.83778 -59.342831 -5.7152872
171.44644 -59.337494 -6.0244951
168.34694 -59.364895 -6.495254
175.13025 -59.359982 -7.3567228
176.61577 -59.326771 -11.86333
162.52426 -59.032227 1.626191
164.74712 -59.02977 1.6206861
178.93825 -59.068142 1.651482
160.99448 -59.072624 1.400045
171.5358 -59.067272 1.555859
160.95711 -59.077934 1.065609
165.46532 -59.009102 1.062536
176.9744 -59.146324 1.006055
165.46057 -59.014679 0.76633
163.21196 -59.038208 0.26200399
162.90341 -59.088432 0.181908
162.91333 -59.085617 -0.08715
162.71657 -59.010967 -0.25192699
162.56128 -59.031601 -0.70123303
163.63049 -59.062401 -0.96148598
168.85005 -59.162029 -3.458406
167.57123 -59.06279 -3.842324
169.3414 -59.110714 -3.980032
173.12691 -59.080269 -3.9604321
167.8196 -59.047539 -4.1229138
168.87434 -59.101662 -4.127296
170.21127 -59.192234 -4.0712318
169.02798 -59.027489 -4.5445161
168.58063 -59.034313 -4.702229
169.45042 -59.013405 -5.070497
170.0462 -59.092281 -5.3496952
175.41719 -59.175346 -5.9711089
171.47952 -59.00206 -6.2911768
168.52464 -59.050224 -6.5774021
169.82668 -59.022369 -6.4665389
173.05127 -59.139816 -6.7972751
173.70682 -59.034088 -6.888556
169.48038 -59.015602 -7.1799779
170.28404 -59.176228 -7.395669
168.655 -59.084908 -7.4256239
169.32782 -59.021313 -7.477551
169.8221 -59.10183 -7.51512
168.75769 -59.140217 -7.853888
177.7999 -59.012722 -9.4275684
176.50388 -59.032005 -11.8645
176.42207 -59.083603 -12.017673
160.23941 -58.962219 2.064569
161.06032 -58.970917 1.776535
162.27484 -58.905251 1.65029
163.51308 -58.892776 1.60225
165.0002 -58.959747 1.615435
177.84352 -58.806931 1.611815
160.55983 -58.85614 1.486074
163.13756 -58.91732 1.476653
166.8228 -58.992702 1.470226
177.80563 -58.895218 1.536651
165.43964 -58.974152 1.3737741
160.49475 -58.840408 1.036611
163.17001 -58.907661 1.0287451
163.22061 -58.854446 0.66559601
163.17352 -58.964352 0.59117299
163.55234 -58.902 -0.067581996
162.81706 -58.824787 -0.30060101
163.06931 -58.985226 -0.71356702
163.40729 -58.960686 -0.69540697
163.00595 -58.966698 -0.95121199
175.4418 -58.820915 -1.922074
175.71458 -58.916233 -2.207444
176.08911 -58.952457 -2.495831
176.56303 -58.95969 -2.487782
168.52509 -58.949375 -2.8993161
176.64114 -58.911751 -3.111866
168.21143 -58.969818 -3.7782359
167.69746 -58.973942 -3.8690929
168.72092 -58.932896 -3.900867
169.07452 -58.895237 -3.909627
167.53885 -58.943932 -4.0698962
172.92462 -58.802498 -4.123477
168.18552 -58.904099 -4.2644148
168.18735 -58.968731 -4.4964218
169.64243 -58.939728 -4.9915471
176.55511 -58.816811 -5.5585432
171.3756 -58.819633 -5.749732
169.71135 -58.966789 -6.3830271
168.90784 -58.983257 -6.59442
173.82123 -58.953987 -6.597065
173.44571 -58.865791 -6.650991
168.33511 -58.966732 -6.8708611
169.04044 -58.946198 -7.3532228
177.60207 -58.933815 -7.414247
168.98299 -58.880188 -7.9803901
174.14272 -58.949646 -8.0633812
169.39926 -58.949249 -8.3462057
169.68222 -58.967171 -8.3832827
169.61357 -58.992275 -8.4849052
161.35411 -58.687847 1.7537889
166.20413 -58.601669 1.6303771
166.42957 -58.682781 1.601776
177.83479 -58.750641 1.637962
160.37637 -58.656353 1.337474
178.02148 -58.669106 1.339142
160.511 -58.608932 1.038483
177.90002 -58.715832 1.134805
165.30917 -58.615898 0.95771003
165.31911 -58.708412 0.78600901
163.22507 -58.747307 0.58306998
162.77409 -58.690483 0.085164003
162.91776 -58.644287 0.14896999
163.23918 -58.607265 0.136108
162.58588 -58.715721 -0.073716
162.67081 -58.679153 -0.12928499
162.66473 -58.671486 -0.66534299
163.30437 -58.656487 -0.67303002
162.66209 -58.665073 -0.825755
162.91928 -58.766071 -0.888937
163.32246 -58.634769 -1.011865
175.6377 -58.695152 -1.978922
176.32114 -58.64323 -2.5187681
167.9577 -58.610664 -2.7136869
168.26575 -58.706276 -2.915693
168.45117 -58.734509 -2.8377819
176.63165 -58.651367 -3.0098791
176.87877 -58.780483 -3.050822
167.70111 -58.696312 -4.1299992
168.00671 -58.748665 -4.1983328
168.6853 -58.68219 -4.1858239
172.89894 -58.605591 -4.2369919
168.10352 -58.643082 -4.4853692
169.2002 -58.611973 -4.7928281
169.47134 -58.659195 -4.9420619
171.57968 -58.657845 -5.549758
176.54756 -58.653297 -5.5661569
171.3382 -58.792595 -5.760529
168.71448 -58.622032 -6.3301892
169.22961 -58.726635 -6.3742738
177.42094 -58.712864 -6.7824059
173.8222 -58.645409 -6.9863138
174.29074 -58.622086 -6.9292202
177.17487 -58.696388 -7.1306472
175.69682 -58.788799 -7.214529
168.64452 -58.729492 -7.6361361
169.50069 -58.626827 -7.8248801
169.09103 -58.646385 -8.3435669
169.40503 -58.625481 -8.3725147
177.62071 -58.634346 -9.3813515
179.80289 -58.667976 -12.910179
161.73679 -58.541245 1.657481
162.39331 -58.435616 1.602065
164.97037 -58.582771 1.630536
165.40332 -58.490322 1.623957
160.50604 -58.584705 1.448615
163.18433 -58.456554 1.54845
163.33926 -58.457756 1.528051
167.60602 -58.54335 1.539101
165.27054 -58.583412 1.297583
162.87451 -58.561512 -0.079484001
175.55365 -58.580017 -1.815405
175.83636 -58.556858 -2.5089791
179.01707 -58.551872 -2.5364921
179.30008 -58.412907 -2.464293
168.15517 -58.598621 -2.646292
167.94879 -58.595982 -2.8544049
175.90157 -58.560165 -3.1647789
179.26494 -58.419579 -3.021498
170.0712 -58.472298 -3.327821
167.43526 -58.530266 -3.5164421
167.52237 -58.549183 -3.8592911
167.85153 -58.437965 -3.883466
168.12868 -58.486603 -3.90659
168.40138 -58.562958 -3.936172
171.88443 -58.578297 -5.5300579
171.85196 -58.521614 -5.8615322
173.67331 -58.572243 -6.5109649
174.28908 -58.546978 -6.7356048
168.88257 -58.589642 -6.8681149
178.44479 -58.549492 -7.3420072
168.87767 -58.480278 -7.7197428
175.60187 -58.499268 -7.8956838
174.69995 -58.461639 -8.1717567
177.32123 -58.525784 -12.060788
172.19196 -58.252327 1.62014
167.54553 -58.20813 1.4830379
160.01768 -58.297237 1.01278
165.1487 -58.203201 0.77753103
162.75536 -58.314903 -0.188977
163.29501 -58.225807 -0.736606
175.88699 -58.229568 -1.54098
175.81573 -58.278725 -2.48897
179.40274 -58.220085 -2.587168
167.7186 -58.202301 -2.6034181
168.13496 -58.388275 -2.701576
176.22182 -58.28413 -2.6820829
176.16312 -58.305458 -3.0534091
179.57404 -58.36507 -3.4833479
167.49438 -58.341759 -3.6961091
167.7834 -58.216965 -3.8846669
167.72017 -58.208401 -4.0356059
169.11313 -58.269089 -4.3572559
173.4863 -58.314651 -6.670259
175.4812 -58.372055 -6.6709409
177.08588 -58.297626 -6.9716058
177.22464 -58.370911 -6.9387488
177.26172 -58.352291 -7.366621
169.02744 -58.215347 -7.494092
174.54922 -58.371017 -8.2649918
160.75748 -58.158989 1.7966059
178.56784 -58.053101 1.633965
163.112 -58.175793 1.569213
165.12592 -58.175434 1.280159
178.98978 -58.176079 1.0365241
178.88391 -58.168121 0.68388999
162.98111 -58.118702 -0.25770301
163.32571 -58.166924 -0.95504701
175.86975 -58.182877 -1.8652411
176.04797 -58.156769 -1.8748389
169.34935 -58.075035 -2.7366929
169.08798 -58.139633 -3.025265
169.42609 -58.101574 -3.005908
168.36432 -58.067955 -3.5240481
179.16516 -58.098343 -3.7823589
168.1915 -58.13324 -4.2679949
168.60753 -58.124344 -4.5083728
169.20755 -58.196228 -4.8009491
178.92339 -58.05896 -5.664341
171.88216 -58.179447 -5.804245
172.14526 -58.128712 -6.1705842
175.32697 -58.152534 -6.9904189
174.88057 -58.079437 -7.0509448
179.84132 -58.012924 -10.121807
164.94994 -57.815357 1.619517
166.67822 -57.843941 1.657362
174.51822 -57.932465 1.6638809
174.95605 -57.992237 1.6281511
178.54317 -57.919586 1.618288
178.68039 -57.860153 1.251335
178.50432 -57.928856 1.098721
163.37259 -57.981659 -0.26851699
175.93047 -57.952518 -1.733492
178.28952 -57.851837 -1.760435
179.25529 -57.988239 -2.016088
176.32681 -57.874973 -2.4590709
168.99992 -57.821938 -2.672559
169.33411 -57.826996 -2.6749611
169.77312 -57.836304 -3.031373
169.4008 -57.864117 -3.2967939
179.68719 -57.975803 -3.4706011
168.10242 -57.825542 -3.770658
167.77417 -57.902477 -3.859293
167.62376 -57.979214 -4.0713401
169.02739 -57.808243 -4.1747632
171.81079 -57.823872 -5.585896
173.30487 -57.936703 -5.9212451
173.62051 -57.810665 -6.9507942
172.89432 -57.868851 -7.740963
176.58336 -57.941418 -8.5322237
179.34601 -57.893661 -10.002334
179.80264 -57.886089 -10.114256
160.53207 -57.75016 1.747395
163.87338 -57.794102 1.624734
164.94179 -57.71476 1.491511
164.91057 -57.723534 0.88078701
164.95975 -57.751949 0.763937
178.13046 -57.725983 -1.4369
176.57382 -57.776337 -2.4769671
170.15689 -57.731091 -3.007113
168.25362 -57.693947 -3.372339
172.58357 -57.72319 -4.186017
175.80708 -57.651634 -4.2908711
168.71596 -57.731556 -4.505065
172.56763 -57.78754 -6.0035248
172.26315 -57.6828 -6.2666259
175.32439 -57.786694 -6.966805
172.66229 -57.732468 -7.368763
175.2774 -57.78447 -7.248795
167.22374 -57.410126 1.658868
164.83673 -57.41713 1.3364691
179.71045 -57.476551 0.706294
178.05063 -57.489048 -1.353258
169.81267 -57.4207 -2.7368541
179.88467 -57.447441 -3.4428041
168.23959 -57.506104 -3.7931869
171.05693 -57.446419 -3.729759
170.03032 -57.4063 -4.0862012
175.52095 -57.477863 -4.3867679
168.62926 -57.594543 -4.5315008
168.84196 -57.549515 -4.4523931
171.39903 -57.464489 -4.7777691
171.73013 -57.49176 -5.2720199
172.44498 -57.55455 -6.1697178
174.12851 -57.445335 -6.6055179
173.4007 -57.403824 -6.9845352
175.31918 -57.41991 -6.896349
174.12836 -57.427475 -7.016294
173.05585 -57.418457 -7.371315
170.55559 -57.424068 -7.4182429
170.91412 -57.543938 -7.4524322
177.24371 -57.523067 -8.6884851
160.25735 -57.341286 1.76335
160.85233 -57.288025 1.627719
163.64453 -57.241863 1.6020989
172.60655 -57.338768 1.6599441
163.87291 -57.258865 1.568821
164.70862 -57.294098 1.415635
172.71883 -57.360058 1.599844
178.33777 -57.336807 1.524858
179.44476 -57.258591 1.237969
178.23099 -57.31485 -1.152389
168.1528 -57.305477 -3.260283
168.45956 -57.368729 -3.413034
175.57001 -57.314827 -3.505589
179.75806 -57.292496 -3.686553
168.69821 -57.265572 -3.9683349
169.36792 -57.274769 -3.8821881
168.85683 -57.376892 -4.1152511
177.3983 -57.367043 -4.591126
171.44971 -57.383808 -5.3658748
171.64679 -57.263859 -5.644196
173.93819 -57.364342 -6.5447011
174.49658 -57.298519 -6.9076819
179.58864 -57.244431 -8.0623951
179.62434 -57.293339 -11.199119
176.68054 -57.019001 1.691507
176.85312 -57.076527 1.622721
163.99155 -57.192024 1.569232
176.87221 -57.009239 1.431723
179.42926 -57.121025 1.336141
179.74423 -57.148781 1.118373
178.61499 -57.118965 -0.97350901
177.96718 -57.147236 -1.22893
168.84354 -57.07415 -3.8345981
171.29567 -57.179882 -4.6452599
177.0415 -57.169876 -6.49297
174.332 -57.123497 -6.92874
176.10985 -57.160881 -6.8927188
175.3013 -57.013199 -7.0814562
172.73364 -57.155533 -7.5422711
174.39377 -57.158257 -7.5272799
174.89926 -57.096642 -7.7532792
175.35107 -57.071526 -7.689023
179.21231 -57.009182 -11.15149
160.18163 -56.962555 1.73712
164.62253 -56.800907 1.6252789
164.89148 -56.968456 1.650967
166.57507 -56.849384 1.672568
161.91182 -56.898502 1.569784
162.19971 -56.909794 1.583329
160.57858 -56.885201 1.351712
164.95447 -56.967327 1.368145
160.51682 -56.863518 0.98112899
160.93185 -56.877312 0.89618701
160.51187 -56.960197 0.71477997
160.96588 -56.971512 0.75842398
165.37228 -56.958302 0.632177
160.24127 -56.897057 0.569121
160.56827 -56.906849 0.202278
178.11395 -56.996445 -1.048834
170.55725 -56.947018 -4.531105
