# .PCD v0.7 - Point Cloud Data file format
VERSION 0.7
FIELDS x y z
SIZE 4 4 4
TYPE F F F
COUNT 1 1 1
WIDTH 1519
HEIGHT 1
VIEWPOINT 0 0 0 1 0 0 0
POINTS 1519
DATA ascii
161.39024 -193.03778 -6.6604819
163.04282 -192.92322 -2.5014639
160.94266 -192.88084 -5.754138
163.7695 -192.96494 -5.9075518
162.35287 -192.90233 -6.7183752
161.41357 -192.94016 -6.9092941
161.79211 -192.97847 -7.057466
164.51062 -192.84995 -7.1168132
163.50725 -192.86983 -7.458982
161.49219 -192.70674 -2.4668391
162.13646 -192.77344 -2.4190509
173.02911 -192.66867 -2.6878121
162.54083 -192.60548 -6.1016679
164.37358 -192.74211 -6.2944651
161.13794 -192.7005 -6.539216
160.34944 -192.53503 -5.9968848
164.12613 -192.54861 -5.937274
160.47691 -192.4157 -6.1764598
163.76569 -192.53339 -6.3372879
165.33296 -192.42889 -6.2653809
160.62823 -192.44647 -6.7312498
163.75879 -192.5899 -7.4396868
160.71263 -192.20731 -2.2361951
161.43034 -192.21083 -2.467689
173.44727 -192.21851 -2.6689291
164.84492 -192.20944 -2.89955
174.9996 -192.32004 -3.4931879
161.50143 -192.29489 -5.4089861
163.38538 -192.25562 -5.7189212
164.02345 -192.30499 -5.6729088
161.84785 -192.27527 -6.1797009
166.14148 -192.30908 -6.1540518
160.3092 -192.22202 -6.2780542
162.30887 -192.32462 -6.5082269
165.87509 -192.2207 -6.7477531
166.89186 -192.23785 -6.6351442
161.78342 -192.06804 -2.623337
160.73492 -192.02429 -2.8864779
164.56912 -192.13013 -2.9004641
163.03752 -192.14815 -3.0359731
165.06921 -192.11624 -3.1506779
161.0799 -192.06236 -3.3983409
163.67575 -192.12607 -4.6821508
160.68259 -192.19055 -6.8507309
162.68628 -192.00029 -7.360992
164.59492 -191.98418 -2.954422
160.95578 -191.94507 -3.119611
161.755 -191.92682 -3.0143881
162.17572 -191.89391 -3.033942
163.29854 -191.88168 -4.9937201
162.60472 -191.91464 -5.8216758
165.39862 -191.84471 -6.054996
161.89926 -191.9588 -6.4479089
163.56717 -191.90659 -7.5185761
160.11823 -191.75177 -5.3492088
160.49471 -191.69527 -6.097744
160.75571 -191.68259 -7.3172159
163.86528 -191.6947 -7.8725171
163.37134 -191.73785 -8.1385918
162.42845 -191.67267 -8.2975492
164.09981 -191.7493 -8.2064629
162.59027 -191.66232 -8.494421
162.96812 -191.76683 -9.6776037
163.90932 -191.76425 -9.7908154
166.41103 -191.59174 -2.563566
173.76855 -191.41753 -3.0586481
164.51569 -191.4836 -3.6297851
162.98531 -191.42944 -4.0614839
163.44824 -191.48611 -4.1611109
163.13484 -191.41055 -4.737998
161.59702 -191.44576 -5.0931802
161.29199 -191.42139 -5.8135891
160.30443 -191.42632 -6.0768871
162.26561 -191.51495 -7.1353421
163.0031 -191.47006 -7.241055
164.44185 -191.59981 -7.9744329
162.43512 -191.50206 -8.3053246
164.24988 -191.41977 -8.5880175
164.1703 -191.46249 -9.0417423
164.51933 -191.54263 -9.1042538
164.19633 -191.44704 -9.4594469
162.25006 -191.41156 -9.7443151
160.94574 -191.29855 -2.275687
160.88928 -191.31219 -2.603147
162.4133 -191.20341 -2.732316
162.99463 -191.28207 -3.566993
162.65923 -191.37756 -3.928925
164.14023 -191.30862 -3.8381619
164.20569 -191.35718 -4.4998732
161.70395 -191.34418 -4.9310741
160.05786 -191.27393 -6.4451361
161.86771 -191.25923 -9.3112793
162.39589 -191.38725 -10.408097
163.37776 -191.09856 -3.3805611
162.71809 -191.14232 -3.6022329
162.48192 -191.02902 -3.8647299
166.07878 -191.03696 -6.7539711
163.20726 -191.18733 -7.1989422
164.20642 -191.07333 -8.1952333
161.49258 -191.19067 -8.9490509
163.77365 -191.07996 -8.9575195
164.23116 -191.0737 -8.9477234
162.36104 -191.15646 -9.8913469
169.94211 -190.86458 -2.6532609
161.31471 -190.84685 -6.0731878
161.79169 -190.89493 -10.115211
160.92816 -190.91866 -10.241665
160.54529 -190.88269 -10.523153
161.52165 -190.72095 -3.0761881
162.3537 -190.68687 -3.241472
161.03951 -190.65268 -6.3682461
162.21512 -190.69891 -6.6508312
163.54681 -190.6351 -6.9872708
164.19788 -190.70779 -9.3700361
161.3076 -190.60727 -9.8371296
162.94498 -190.76741 -10.760969
160.69411 -190.5542 -5.790411
161.09509 -190.58565 -6.1666708
162.21114 -190.56691 -7.322927
164.23878 -190.59125 -8.9114237
161.44479 -190.57135 -11.031808
161.13896 -190.26736 -5.37501
161.31326 -190.22824 -6.0547872
162.73596 -190.3262 -7.1019201
162.83127 -190.3699 -7.0172882
163.39395 -190.32933 -8.757268
160.68765 -190.22934 -10.218034
161.73578 -190.21439 -10.249368
160.98721 -190.2825 -10.620713
160.23755 -190.2583 -10.904352
160.7666 -190.16287 -2.4193411
161.42889 -190.10364 -2.4189651
167.60187 -190.06381 -2.6646521
173.32352 -190.13159 -2.739361
163.44299 -190.0894 -3.309442
161.45404 -190.06418 -6.6895561
163.68129 -190.03813 -8.0115108
162.59952 -190.09328 -8.6704512
161.49802 -190.02931 -9.1825123
160.58453 -190.16347 -9.8818665
160.32436 -190.12886 -11.242063
167.52109 -189.83392 -2.656404
160.72301 -189.81825 -5.7931571
161.15424 -189.8912 -6.3463368
162.59772 -189.85944 -9.102457
163.40509 -189.80585 -9.4008398
160.48184 -189.87985 -9.7769041
160.16849 -189.88141 -9.8084469
160.27577 -189.83629 -11.512164
160.04558 -189.70322 -2.2876871
160.74164 -189.68407 -2.4294009
162.83171 -189.69141 -2.638134
162.84653 -189.66933 -2.9749939
161.02264 -189.77878 -6.163765
161.24748 -189.71317 -6.8407221
163.32474 -189.7711 -8.6698418
164.38969 -189.6413 -9.3279228
160.8806 -189.63104 -10.127918
161.71301 -189.54343 -2.486861
162.35561 -189.54428 -6.1932669
163.84682 -189.40543 -9.375536
161.01645 -189.47144 -9.7631178
161.29718 -189.51091 -10.572437
161.40306 -189.34718 -2.4142039
173.13843 -189.33864 -2.7151029
160.38632 -189.31944 -6.595439
162.08531 -189.39165 -7.026526
163.47124 -189.33276 -9.7775936
164.41455 -189.24591 -9.8931036
161.88991 -189.34818 -11.454761
160.91284 -189.1265 -2.391269
162.66673 -189.06177 -2.551563
173.13956 -189.01494 -2.710849
173.21608 -189.03485 -3.2965789
162.01765 -189.08447 -6.6591811
164.4093 -189.15622 -6.7724061
161.97742 -189.05695 -6.9845672
162.19189 -189.06085 -7.0465188
162.03621 -189.16104 -8.983387
163.15857 -189.10353 -8.8296633
160.62755 -189.01567 -9.0994568
161.92087 -189.16074 -10.290894
163.71117 -188.94914 -2.657697
160.13936 -188.80295 -6.47576
160.58939 -188.64087 -6.2895088
160.57655 -188.7417 -6.6462688
162.18486 -188.6955 -7.0791121
161.78276 -188.69774 -8.5682669
161.69882 -188.69659 -9.0643225
164.25595 -188.44475 -2.9603069
161.30331 -188.44138 -7.6621399
160.34819 -188.46576 -8.2761517
160.3465 -188.59088 -9.7036228
162.18645 -188.51939 -10.280438
161.58833 -188.39963 -9.9883118
160.70538 -188.34848 -10.00227
160.2935 -188.33574 -10.723003
160.18707 -188.34111 -11.852581
160.54861 -188.06032 -4.4799461
160.11017 -188.03708 -5.3192902
161.35133 -188.06068 -8.1595821
163.39551 -188.02899 -10.360538
163.64313 -188.08119 -10.280859
162.26366 -188.07487 -10.713492
162.96556 -188.12907 -11.665862
160.26248 -187.86275 -4.2614379
160.31532 -187.85631 -4.9063082
160.44618 -187.86078 -7.8909569
161.11414 -187.90793 -8.0820999
161.0473 -187.93263 -8.9571371
165.27675 -187.84125 -8.9050026
161.10759 -187.96716 -11.247262
162.28798 -187.76999 -2.606173
160.52394 -187.69377 -4.2125349
160.90292 -187.68529 -4.5765729
160.1064 -187.7041 -4.9288449
160.97516 -187.78 -5.3224068
160.94781 -187.71153 -5.930274
161.01007 -187.71503 -6.914248
160.41061 -187.64633 -8.5232563
160.4288 -187.66489 -9.1660967
165.20398 -187.65839 -9.8254004
165.03062 -187.76636 -10.08108
160.60242 -187.52158 -2.8645239
160.91971 -187.55286 -5.3930111
162.29964 -187.52881 -5.6289892
160.93439 -187.51706 -6.4596362
162.86862 -187.54118 -8.5619946
161.95004 -187.25136 -2.5488989
160.83401 -187.30414 -4.063694
160.71533 -187.33774 -6.9681301
163.60809 -187.21164 -11.810272
161.94316 -186.96338 -2.607305
161.48788 -186.96811 -5.46875
163.48805 -186.93561 -7.4791389
163.53442 -186.87234 -8.1164083
161.64879 -186.96991 -9.0628357
163.61084 -186.86705 -9.0660124
173.29248 -186.63759 -3.130816
162.15269 -186.64766 -4.9472141
162.51514 -186.67935 -5.5000248
161.33636 -186.62109 -5.9356298
163.64839 -186.74149 -7.1210051
161.55576 -186.7984 -7.4230032
160.254 -186.67822 -7.9265552
163.50177 -186.60031 -8.307497
163.49736 -186.71439 -8.6291389
163.68198 -186.76686 -10.273415
160.85315 -186.66405 -11.400979
161.9155 -186.60001 -3.958385
161.03925 -186.42398 -4.705925
162.42603 -186.42532 -4.7572069
161.7459 -186.5954 -5.721498
160.16046 -186.55759 -6.1938739
160.15956 -186.47034 -7.0296292
164.37222 -186.51189 -7.1039901
161.40721 -186.55719 -8.4627171
160.29982 -186.40114 -9.3232212
162.49356 -186.59624 -9.7015057
173.35741 -186.3111 -3.1032541
160.15285 -186.26027 -3.2414689
173.31403 -186.20294 -3.2997701
161.2151 -186.21048 -3.947571
161.28525 -186.33292 -4.748992
161.75729 -186.28145 -5.1014962
160.27377 -186.30876 -6.325881
161.31534 -186.37262 -6.4899182
160.93427 -186.28653 -6.6043692
160.15489 -186.35419 -6.9853339
160.65408 -186.27356 -7.0247898
160.54034 -186.35446 -7.2863178
164.48502 -186.21912 -7.2877412
160.04889 -186.25127 -8.0657291
161.8342 -186.11841 -3.044492
160.96887 -186.14798 -4.9854522
163.08806 -186.08371 -5.769063
160.58507 -186.11134 -7.875843
163.99211 -186.07388 -8.1227732
164.90344 -186.17798 -8.3024769
163.66968 -186.04657 -8.7890387
161.91226 -185.93398 -3.2208321
160.97165 -185.89508 -4.5080161
160.4415 -185.81047 -5.808672
163.69455 -185.80202 -7.512208
163.77731 -185.82651 -7.7255902
161.56914 -185.99153 -9.2456446
161.82999 -185.90286 -9.2262211
164.30246 -185.84766 -12.47473
160.00902 -185.62207 -1.9951791
160.01099 -185.66605 -2.9707999
163.05061 -185.7968 -5.5018058
160.39026 -185.76523 -5.8519111
163.07529 -185.64517 -6.5218692
161.0352 -185.73378 -6.6766291
162.72861 -185.6185 -7.3435359
165.61458 -185.68571 -7.9064779
165.38136 -185.74541 -8.0547056
160.25116 -185.72266 -8.2127819
162.62184 -185.74725 -9.7703228
160.04559 -185.49008 -2.6660321
160.13153 -185.5184 -3.1605921
173.53305 -185.45575 -3.0802231
161.40567 -185.45583 -5.4039998
160.02286 -185.47932 -5.6994972
163.078 -185.51303 -8.7234917
164.66861 -185.44666 -8.6849775
165.58276 -185.40524 -8.6887035
162.16145 -185.4839 -11.591299
160.63736 -185.52063 -11.783985
167.1424 -185.28212 -2.543021
161.25827 -185.20389 -4.82021
163.33817 -185.38608 -6.587965
163.34921 -185.3295 -8.3398228
164.85635 -185.34891 -8.6947823
173.62862 -185.0033 -2.9715919
162.88454 -185.10573 -5.1499891
161.11539 -185.15692 -5.3586798
162.64731 -185.08937 -6.2452011
162.96172 -185.0834 -7.5655499
163.45786 -185.15741 -7.406507
160.46725 -184.91138 -2.540364
173.62874 -184.81143 -2.5373371
160.47916 -184.88199 -2.9952509
162.08044 -184.91051 -3.1029019
162.6192 -184.96658 -4.5312529
164.30544 -184.88556 -5.8041191
164.63451 -184.93735 -6.3208652
165.9332 -184.87346 -6.9613528
161.64429 -184.72844 -4.046391
162.34204 -184.66962 -4.4797111
162.46207 -184.60962 -5.326993
164.44243 -184.66873 -7.3358121
160.42981 -184.57124 -6.6589198
161.41678 -184.55176 -9.0632286
162.99292 -184.54251 -11.722103
167.98186 -184.35141 -2.4737239
173.33078 -184.25735 -2.4493811
160.88376 -184.21863 -2.7101409
160.8569 -184.27699 -3.205555
162.2419 -184.39038 -4.3326058
166.87779 -184.27548 -6.5821948
161.1599 -184.20148 -9.4309139
160.90794 -184.11176 -1.9394439
164.9563 -184.03091 -2.514652
160.95703 -184.11743 -3.0776131
162.12686 -184.09644 -3.2691979
161.06721 -184.15202 -4.7701321
162.22606 -184.19962 -5.4572091
162.80063 -184.17444 -5.4290071
162.74036 -184.17209 -7.0023441
162.74594 -184.12262 -7.3167462
166.11194 -184.19467 -7.3709798
164.53053 -184.10373 -7.4779272
163.19263 -184.04367 -12.017303
172.12395 -183.81801 -2.480794
174.10693 -183.82837 -3.2627201
161.72333 -183.88672 -5.3188052
164.47382 -183.83568 -6.3508759
163.09998 -183.88855 -6.5121932
163.62445 -183.81326 -6.558639
161.95457 -183.86494 -6.9314561
162.53278 -183.80269 -7.0912418
166.08713 -183.89734 -7.1428809
161.37611 -183.72943 -2.1283071
164.3002 -183.71001 -4.5607772
163.38867 -183.6521 -5.5608921
160.7901 -183.61447 -5.8430781
162.30316 -183.7785 -5.8465409
165.40744 -183.77747 -5.849813
160.4903 -183.66994 -6.2787151
160.71149 -183.70653 -6.5853648
164.19321 -183.74112 -6.942523
162.08463 -183.75172 -9.8645
161.44427 -183.68127 -10.264708
164.91002 -183.48549 -4.7358208
164.36478 -183.5554 -6.9745841
162.31421 -183.53847 -7.0321512
162.36801 -183.49112 -7.7299538
162.44774 -183.52191 -8.2336407
165.20918 -183.5202 -8.3606491
162.5508 -183.49612 -9.0212994
163.48785 -183.59949 -9.0443802
161.62923 -183.38748 -1.880288
163.74545 -183.34674 -5.942286
160.61893 -183.22112 -6.3871288
163.23007 -183.34117 -6.3107419
160.70976 -183.29861 -6.6661601
163.35811 -183.38477 -6.7536449
162.95517 -183.24416 -7.08775
163.72926 -183.21043 -9.2031221
160.76843 -183.26956 -12.766705
165.05431 -183.00887 -3.4583001
163.33954 -183.06291 -3.7659559
164.5625 -183.08717 -3.627223
164.74614 -183.17639 -4.4818239
163.37495 -183.03827 -5.7679572
161.02184 -183.10736 -6.184926
162.48128 -183.00098 -6.0750632
162.05029 -183.02054 -6.215939
164.21857 -183.07483 -6.234889
164.56174 -183.07387 -6.29352
164.3136 -183.03259 -6.5633121
166.52177 -183.02328 -6.7340269
163.01923 -183.08833 -6.9485149
165.35077 -183.03018 -7.1076641
162.11621 -182.91977 -3.0254021
163.14429 -182.93779 -3.729861
164.12158 -182.97247 -3.796397
163.90582 -182.91687 -4.2511172
163.14624 -182.80475 -5.7222948
160.66005 -182.90157 -5.8662992
166.49019 -182.92059 -6.8559408
166.3472 -182.9151 -7.2296538
165.47919 -182.88531 -8.5654526
162.23317 -182.69171 -2.2864621
174.92026 -182.72252 -2.398644
163.15643 -182.67665 -4.2246141
163.4053 -182.75395 -5.752284
163.89639 -182.74384 -6.283555
163.32501 -182.65233 -6.9966979
163.03596 -182.67877 -7.0349851
164.92822 -182.63557 -7.3822742
165.32553 -182.60907 -7.7874851
165.50006 -182.60291 -9.2187729
160.5426 -182.74603 -11.054785
162.70038 -182.68195 -11.933387
162.88202 -182.57451 -3.780051
163.22014 -182.55362 -3.9904859
163.43628 -182.51967 -4.6211791
162.9537 -182.41852 -5.1736202
165.69096 -182.52512 -5.7177429
161.30667 -182.49078 -6.4159312
162.75632 -182.50343 -7.6836958
162.45288 -182.52509 -8.9576836
163.33057 -182.37189 -3.0606179
160.58762 -182.31317 -5.0377698
163.0598 -182.27336 -6.1261878
164.87122 -182.27083 -6.1789432
161.35399 -182.35497 -6.4162822
165.84061 -182.30289 -7.9453268
161.09976 -182.38354 -10.502052
166.69844 -182.1868 -2.4354191
163.97578 -182.02702 -3.535933
163.24236 -182.14162 -4.2499132
162.74658 -182.19511 -4.6693249
165.08365 -182.07629 -4.9681091
163.5834 -182.04628 -6.3141451
165.12889 -182.17188 -7.3061581
165.54617 -182.14035 -8.81106
161.00031 -182.09784 -9.0403109
163.47232 -182.03456 -9.9339066
161.84979 -182.1463 -10.556414
160.09889 -182.16849 -12.260457
160.65981 -181.97398 -2.0249641
163.10797 -181.82025 -2.988286
162.67221 -181.85773 -3.6810689
163.40396 -181.92966 -4.9147282
162.50812 -181.87645 -10.038754
173.76019 -181.65111 -2.389466
162.77985 -181.62233 -3.568207
163.00008 -181.73462 -3.5639191
163.29971 -181.78439 -4.5339041
163.79703 -181.73111 -4.7006068
165.10074 -181.78854 -5.1755271
161.00154 -181.68478 -10.406884
163.59589 -181.58325 -2.0440381
163.68015 -181.45586 -2.2376101
163.25128 -181.40201 -3.845017
163.77325 -181.59503 -5.6422
165.60146 -181.58134 -5.600822
164.66638 -181.43613 -6.724813
164.02005 -181.54973 -8.454319
165.25687 -181.53198 -9.0634203
160.47209 -181.46046 -9.8933277
160.59781 -181.47391 -10.135099
161.54582 -181.43277 -15.021298
162.37296 -181.51604 -15.859209
162.70312 -181.44168 -15.909952
163.87312 -181.39247 -2.1182981
164.60652 -181.31662 -3.5538011
165.75143 -181.25296 -5.5267782
162.68694 -181.31636 -7.94873
165.1445 -181.30557 -9.3807192
164.21771 -181.12241 -2.6738441
163.8268 -181.08873 -4.8555188
165.13069 -181.06334 -4.9925952
164.97137 -181.06467 -6.9625921
162.23845 -181.02455 -7.2223711
164.81331 -181.04393 -8.090023
161.68669 -181.05244 -9.6678982
161.31522 -180.91501 -1.966594
163.94684 -180.80157 -1.911208
160.00685 -180.92429 -2.0158219
164.57274 -180.90862 -2.6487679
164.51434 -180.86771 -2.9180501
163.26747 -180.90382 -5.2375641
164.93872 -180.93898 -5.4931231
163.59027 -180.88472 -6.3442979
165.70482 -180.95801 -6.6762938
163.27554 -180.91068 -7.3416238
162.45341 -180.81511 -7.8689661
164.94804 -180.95296 -8.7274771
160.52951 -180.94878 -9.9871283
164.6535 -180.74973 -1.838581
161.02031 -180.74794 -2.0137579
162.80013 -180.78574 -6.5102911
161.90907 -180.74762 -7.7047348
162.5975 -180.6096 -7.750124
165.37851 -180.43938 -5.075779
164.79124 -180.47282 -5.9774599
165.41898 -180.58209 -5.8480802
165.34804 -180.53693 -7.221622
162.74785 -180.56454 -8.0737324
164.47827 -180.53693 -8.7151709
164.52824 -180.52608 -9.1697741
162.01309 -180.46895 -9.5746078
161.92664 -180.24161 -1.938082
166.08955 -180.33147 -7.7135429
164.12241 -180.25345 -8.5722771
165.34778 -180.25726 -8.5475826
163.19901 -180.27589 -8.7913733
160.53563 -180.18059 -1.997777
165.76108 -180.15144 -1.932734
162.73213 -199.85249 -2.689018
162.23987 -199.81529 -3.7278099
163.11621 -199.92993 -4.3305378
163.86107 -199.96609 -4.371419
174.80048 -199.98721 -4.4097662
163.45468 -199.84505 -6.1183319
162.92075 -199.96725 -6.5144901
174.52609 -199.93073 -6.6452212
162.37761 -199.99245 -6.9116492
174.47791 -199.97003 -7.0387492
168.5403 -199.64386 -3.0444801
169.98167 -199.78212 -3.094732
172.51358 -199.78333 -3.304085
163.4895 -199.74796 -5.9147472
162.60788 -199.79295 -6.966393
164.17682 -199.73849 -6.8995619
174.6864 -199.77451 -7.7222428
171.45639 -199.40154 -3.1140251
174.61243 -199.40646 -4.7116561
174.49127 -199.51337 -4.9492989
164.22867 -199.50024 -6.155262
163.51567 -199.53508 -6.4451699
162.90512 -199.479 -6.6087489
164.29782 -199.5036 -6.9289379
174.91696 -199.54953 -7.2869039
165.83835 -199.3407 -2.8394041
173.81248 -199.31068 -3.212255
174.25478 -199.27071 -4.7682948
174.74271 -199.27296 -6.7954259
160.05984 -199.3616 -11.755058
174.33372 -199.0878 -4.077333
174.30902 -199.16415 -4.534699
174.45686 -199.12555 -6.224524
174.46019 -199.1933 -7.2423172
173.60959 -198.90572 -3.24507
163.46002 -198.6785 -2.5985799
164.71674 -198.63574 -2.769495
166.79454 -198.62096 -2.912647
174.03993 -198.6869 -3.2349131
167.06868 -198.58789 -2.8042221
164.21013 -198.28568 -2.7151201
160.32745 -198.18085 -2.564985
162.26288 -198.13203 -2.638551
174.15442 -198.17862 -3.2114489
163.57596 -197.8887 -2.5912941
164.38805 -197.98521 -2.802779
164.11568 -197.78743 -2.644603
171.35631 -197.69119 -3.0730481
167.25244 -197.51457 -2.940953
160.69403 -197.22217 -2.5528021
165.46838 -197.39978 -2.7313001
165.52589 -197.09003 -2.729198
168.52657 -197.14444 -2.7996669
162.9451 -196.89445 -2.587353
165.95003 -196.91592 -2.723875
160.6163 -196.62729 -2.5468259
164.98734 -196.73364 -2.8355851
172.99522 -196.79617 -3.0604081
161.3624 -196.19138 -2.5298631
163.35956 -196.17102 -2.529458
164.15921 -196.1241 -2.818578
165.90999 -195.67551 -2.7928629
164.21118 -195.76244 -2.826808
162.6532 -195.56256 -2.5494001
166.46043 -195.44522 -2.80091
165.76685 -195.33829 -2.812335
168.71951 -195.10378 -2.8482139
160.07208 -194.96718 -2.3824019
165.65865 -194.83096 -2.7980521
166.89389 -194.92056 -2.782882
174.78407 -194.83662 -2.7903011
165.51399 -194.87593 -2.8046069
161.0968 -194.65572 -2.499707
161.38242 -194.62405 -2.4548061
168.3541 -194.60866 -2.8195779
161.49997 -194.44528 -2.406662
162.25597 -194.58788 -2.518892
162.99142 -194.50073 -2.5312321
169.28412 -194.48758 -2.7958939
165.68689 -194.3795 -2.6244709
160.66988 -194.12318 -2.373179
164.93695 -194.17076 -2.7810919
170.04794 -194.15456 -2.759908
166.46581 -194.03111 -2.802367
166.487 -193.89259 -2.7708759
168.73091 -193.81734 -2.6567559
163.31915 -193.84189 -5.8669701
164.04208 -193.91727 -6.2791901
162.40843 -193.85735 -6.6157241
163.06166 -193.84761 -6.8913078
161.96216 -193.77608 -2.3871911
163.96771 -193.76929 -6.266336
163.91608 -193.71432 -6.5660439
162.93349 -193.69588 -7.30374
164.21078 -193.61418 -7.3642011
160.37294 -193.4599 -2.376188
162.64664 -193.41974 -2.5190821
162.10138 -193.52203 -5.860992
162.26974 -193.52927 -6.0771489
162.60594 -193.44611 -6.0931692
162.50336 -193.41266 -6.571198
163.03015 -193.24564 -2.4995961
167.00441 -193.24017 -2.7694509
166.54601 -193.33102 -2.802886
161.55234 -193.25836 -5.4524889
161.39621 -193.33586 -5.8263898
162.6077 -193.31508 -5.9290228
161.49481 -193.38596 -6.0525308
162.26447 -193.38562 -6.659935
162.68573 -193.27357 -7.2672129
162.25787 -193.37514 -7.6336498
160.78601 -193.08272 -2.3567309
165.48958 -193.09079 -2.5867851
166.66769 -193.196 -2.604146
160.97873 -193.09418 -6.0762391
164.95866 -193.13246 -6.7158632
163.0206 -193.15503 -7.0134649
161.50107 -192.85719 -2.5245581
161.8568 -192.97473 -2.447197
162.14557 -192.8275 -2.411361
163.42691 -192.93057 -2.5111611
166.30833 -192.94751 -2.599227
170.18495 -192.98137 -2.7867301
163.2784 -192.94026 -5.8074059
160.94043 -192.98564 -6.1995502
162.35522 -192.96667 -7.0759168
162.49417 -192.90842 -7.0474749
161.33199 -192.86807 -7.7554832
161.71465 -192.85956 -7.617558
164.00336 -192.61993 -5.5097132
162.63055 -192.60881 -5.796876
163.32285 -192.6245 -5.8339658
162.86273 -192.73886 -6.1059651
163.11517 -192.65056 -7.1215749
162.37115 -192.67892 -7.2054219
162.42888 -192.65005 -7.23456
161.55168 -192.64517 -7.474267
163.37555 -192.69659 -7.7316561
166.16705 -192.51834 -2.5984271
169.24393 -192.51126 -2.690455
161.49167 -192.47832 -5.5611792
161.33755 -192.58109 -5.82201
162.99794 -192.44496 -6.7625041
164.97363 -192.4949 -6.6106062
165.83868 -192.37473 -2.5848751
165.07513 -192.2215 -2.8868141
163.44737 -192.21158 -3.075104
161.47772 -192.23665 -6.1536899
162.67667 -192.36147 -7.0409088
160.55183 -192.08284 -2.686621
169.44437 -192.17905 -2.6797929
173.97162 -192.04459 -2.754144
164.90454 -192.11115 -2.9293201
165.13457 -192.0643 -2.9207699
164.19656 -192.17398 -3.1290579
161.3924 -192.06015 -3.2169249
162.47868 -192.07729 -3.2682049
162.99358 -192.1073 -3.355128
164.494 -192.13693 -3.21696
162.51697 -192.15744 -5.9048219
163.0264 -192.14195 -5.8565779
160.77815 -192.15099 -6.7754841
161.7737 -192.12856 -7.0470791
164.18277 -192.01497 -8.6998959
174.71144 -191.88872 -2.7128279
163.7285 -191.92654 -3.0761881
160.52332 -191.8902 -3.2815299
163.12367 -191.88104 -3.2824609
173.83034 -191.81192 -3.542136
162.87924 -191.8885 -4.9766421
165.41666 -191.83237 -5.9465728
161.47591 -191.95222 -7.074111
162.97844 -191.86751 -7.4043412
163.88718 -191.84058 -7.5050659
161.1604 -191.85995 -7.6525688
163.27856 -191.89215 -9.1101093
169.62633 -191.74161 -2.6702299
160.52808 -191.66785 -3.335742
163.64635 -191.79903 -4.3364692
162.3093 -191.73958 -4.6607742
166.43573 -191.75806 -5.794342
160.46906 -191.68016 -5.9041438
161.33505 -191.70528 -5.821558
165.98071 -191.74593 -5.8703718
161.16275 -191.66321 -6.160316
160.62807 -191.70297 -7.1080718
163.88809 -191.64212 -8.9794483
162.25085 -191.73026 -9.0436897
163.72943 -191.76239 -9.4854031
163.04216 -191.63715 -10.01076
173.78407 -191.4794 -2.761375
161.63217 -191.43839 -5.3303218
161.11105 -191.545 -5.7375689
161.04605 -191.5479 -6.615252
160.48598 -191.44528 -6.9342489
161.01561 -191.5844 -6.9889889
160.61404 -191.53008 -7.2763309
162.32748 -191.56165 -7.3412399
162.46509 -191.52087 -7.7873912
163.58049 -191.4263 -8.3748846
164.19278 -191.50021 -8.2447882
161.7955 -191.40065 -8.9115753
162.15714 -191.42035 -9.0020733
162.29636 -191.47507 -10.159713
163.02519 -191.48 -10.49251
171.1842 -191.37846 -2.7443211
160.91412 -191.30692 -3.287498
161.65335 -191.21831 -6.6024499
161.40929 -191.24725 -8.7404842
161.94785 -191.35896 -8.6955109
163.45474 -191.3446 -8.6495924
163.61592 -191.36194 -10.054601
160.57071 -191.04947 -2.416857
170.07726 -191.00615 -2.636456
173.69705 -191.14166 -3.055439
163.79092 -191.1134 -3.428967
173.60854 -191.14813 -3.560746
162.08673 -191.14108 -4.441833
162.48431 -191.09384 -5.8438692
163.07977 -191.19698 -7.2079358
164.61424 -191.1183 -9.6176701
160.93835 -191.05988 -10.609177
162.95224 -190.85767 -3.8389921
161.32834 -190.88446 -5.5598378
163.67094 -190.86665 -6.385169
161.00861 -190.82773 -6.5263858
162.70767 -190.82263 -7.174356
162.14362 -190.9025 -7.2840219
163.26416 -190.85437 -7.8254852
161.4958 -190.90143 -9.4364185
162.85616 -190.99481 -10.526567
162.15234 -190.85974 -10.859035
161.51672 -190.70663 -2.550813
173.66057 -190.76152 -3.0218091
161.27295 -190.69949 -5.7611418
163.19402 -190.72835 -9.7697487
162.75986 -190.68054 -10.541792
160.17126 -190.53468 -2.206599
162.65962 -190.5988 -3.340965
162.75586 -190.51511 -4.186214
161.18863 -190.46144 -4.966877
163.1376 -190.47769 -6.6212659
162.73477 -190.44034 -7.137754
164.04974 -190.46284 -7.153594
162.16916 -190.45956 -7.6762948
161.23285 -190.36325 -2.4255869
162.08871 -190.29062 -2.5407691
162.5768 -190.26292 -3.2489021
163.1037 -190.39102 -3.7060699
162.98022 -190.20438 -4.1352339
162.57481 -190.26788 -4.6283622
162.01379 -190.29926 -5.7634139
162.04883 -190.30231 -6.7279549
163.52327 -190.20532 -7.9403429
161.85863 -190.19269 -2.4343021
162.69022 -190.15671 -4.3025599
161.0994 -190.06235 -6.3061609
161.45689 -190.16226 -6.9501939
163.77144 -190.17049 -7.180222
162.31845 -190.15901 -7.7998071
162.03609 -190.1647 -9.7940292
160.57872 -190.16582 -10.590953
160.98592 -190.1875 -10.92382
163.77687 -189.80066 -3.3003161
163.10924 -189.96986 -5.7036438
163.25763 -189.93495 -6.396657
164.06241 -189.80174 -6.3925271
162.27185 -189.84724 -6.9336491
162.48889 -189.97298 -7.198741
163.5578 -189.94534 -7.2617278
160.70641 -189.81497 -10.12631
161.58847 -189.64723 -2.3978419
162.34158 -189.66589 -6.1902409
161.10246 -189.79257 -6.6360049
164.46461 -189.78802 -7.1017628
162.289 -189.70686 -7.66641
160.6304 -189.78993 -9.5063019
161.29623 -189.79501 -9.4237518
161.30859 -189.6899 -9.6571512
173.215 -189.50134 -2.7889049
160.22896 -189.57729 -5.1078
161.24455 -189.58598 -5.9679151
162.2182 -189.58673 -7.6730661
164.25017 -189.45972 -9.3281851
162.02579 -189.41052 -10.362747
173.16241 -189.25893 -3.3637619
160.54784 -189.21521 -6.7503939
161.45734 -189.37846 -9.3087463
162.03671 -189.33337 -9.2911444
161.69568 -189.33633 -9.421174
163.9005 -189.24622 -10.073958
161.80211 -189.32674 -10.272315
161.06432 -189.29373 -11.746625
161.87204 -189.1041 -2.4641211
163.45428 -189.10867 -3.0577409
160.88342 -189.05316 -9.261404
164.68275 -189.04807 -9.2583542
163.17497 -189.15494 -10.30982
160.47845 -189.1832 -11.552795
161.13 -188.87427 -2.4223959
173.22447 -188.85916 -3.150476
162.23706 -188.94618 -7.2374291
164.61351 -188.90845 -8.5921669
162.17609 -188.96562 -8.9937153
164.29248 -188.95537 -11.280874
161.513 -188.61674 -2.452317
160.58636 -188.61374 -7.2483029
162.22894 -188.64363 -8.7163563
161.45377 -188.72751 -9.7540607
161.0518 -188.51251 -2.421977
161.48421 -188.49142 -6.5600162
160.40047 -188.45947 -6.9212909
161.60089 -188.56686 -7.0427108
161.52945 -188.45053 -7.4381418
161.34137 -188.29582 -2.432837
173.14023 -188.24481 -3.0305891
173.22409 -188.23871 -3.1131611
161.51541 -188.33423 -6.5956168
161.69601 -188.22772 -6.5228
160.11499 -188.3472 -6.9118152
160.99464 -188.2095 -7.0957918
161.53896 -188.27873 -7.240047
160.25385 -188.2226 -8.0636206
162.12979 -188.36295 -9.4247293
162.29538 -188.38727 -9.9843111
160.61626 -188.03375 -4.503459
161.3118 -188.17587 -7.7738051
160.50426 -187.8577 -4.2374239
160.18488 -187.95129 -4.7859168
160.9628 -187.8073 -6.5859141
161.01535 -187.90668 -7.7903352
161.24715 -187.96356 -7.7278981
161.62773 -187.99577 -9.420825
160.14854 -187.7296 -5.3197889
160.93477 -187.76178 -6.1773782
162.40042 -187.6035 -9.2600327
160.64142 -187.6572 -9.4202366
160.97977 -187.79355 -11.892597
160.74768 -187.41966 -2.6667089
173.19011 -187.40198 -3.3242829
160.19292 -187.50757 -5.288991
160.23416 -187.41483 -5.6521578
160.90228 -187.51303 -5.8085089
160.19177 -187.53735 -8.6181736
162.57159 -187.47943 -8.6240768
162.69441 -187.46909 -8.9158669
160.12685 -187.52606 -9.1017952
161.04489 -187.54825 -9.9017344
165.05049 -187.4631 -9.9802256
161.07669 -187.26291 -2.9829581
160.15262 -187.27542 -3.450217
160.0433 -187.20618 -4.2511172
160.07047 -187.37083 -5.6385531
160.20667 -187.34395 -7.624186
161.11739 -187.38593 -11.9522
161.00111 -187.08446 -3.4352629
160.18715 -187.01895 -3.7024579
160.15044 -187.03522 -7.1139412
161.04991 -187.16925 -7.4816542
162.31184 -187.08813 -10.546792
162.13657 -187.19852 -11.134034
161.77834 -186.96042 -5.4636812
162.45218 -186.86484 -5.528614
161.41054 -186.94406 -5.9058638
163.69534 -186.84357 -8.2547855
161.91707 -186.66364 -4.1426811
161.42961 -186.7933 -4.362711
161.51785 -186.63493 -4.9439712
161.6951 -186.65417 -5.006866
161.09972 -186.69968 -6.0988531
163.46341 -186.63556 -9.3411732
161.42328 -186.65601 -9.7079649
161.69284 -186.78587 -12.129904
172.60767 -186.46252 -2.587276
160.04449 -186.54691 -4.7070751
161.17633 -186.46797 -4.9485931
161.76495 -186.49573 -5.5220881
161.35905 -186.53508 -6.201715
160.7567 -186.44852 -6.5510068
160.84604 -186.54349 -6.9165621
160.45575 -186.54944 -7.2716951
160.10576 -186.49304 -7.4770942
164.26788 -186.54716 -8.1536531
163.15573 -186.52676 -8.2650003
161.47841 -186.3963 -2.948374
160.57521 -186.22636 -6.32021
160.72308 -186.37366 -6.6133361
160.10832 -186.30342 -7.2896671
162.0863 -186.28667 -7.7154078
161.68231 -186.1745 -6.177702
161.71582 -186.16905 -6.4629889
160.91551 -186.18939 -8.7582684
162.07001 -186.19006 -9.26579
162.73239 -186.06433 -9.6668701
161.14923 -186.12215 -12.236574
162.6752 -185.88333 -2.57038
162.26947 -185.96281 -2.755693
162.14865 -185.8605 -3.0391679
162.16293 -185.84775 -3.2222631
162.552 -185.8347 -5.7697091
164.44928 -185.80685 -6.3077359
164.86546 -185.96716 -8.6842079
161.13019 -185.98013 -9.078599
162.70859 -185.86179 -10.425291
164.07841 -185.93556 -12.291458
173.46477 -185.77202 -3.0485611
160.45506 -185.73587 -4.160738
160.99557 -185.78992 -5.364295
161.36133 -185.60933 -5.5289068
164.23834 -185.7283 -6.5711861
163.29616 -185.78635 -7.1238399
160.16295 -185.71008 -7.7331119
165.67773 -185.67049 -8.2834244
164.62282 -185.795 -8.5981293
161.66681 -185.72382 -8.706028
162.3389 -185.68289 -9.7282219
160.6741 -185.64737 -13.903509
160.50812 -185.51605 -3.944298
160.77869 -185.4198 -5.3384652
160.95569 -185.47171 -5.9527612
163.98775 -185.53891 -6.1559391
164.44479 -185.57228 -6.4681239
160.39624 -185.56688 -6.7400661
160.42906 -185.57439 -6.9899879
163.76567 -185.44772 -7.4709692
164.8717 -185.50183 -7.6541228
163.7032 -185.45969 -7.9009342
164.69357 -185.4144 -7.8081789
163.92728 -185.48483 -8.1415787
162.91104 -185.43054 -8.2212648
160.22922 -185.33716 -2.556149
163.42328 -185.28911 -7.0734329
163.63597 -185.08115 -2.490469
161.52426 -185.05382 -5.3637748
163.28751 -185.05705 -5.9278059
161.42499 -185.04648 -6.0976052
166.12228 -185.00128 -6.358315
162.63586 -185.07967 -6.4988389
161.68436 -185.10309 -7.4225011
164.439 -185.17787 -7.4626369
160.40094 -185.12552 -7.9781728
161.52188 -185.07513 -7.9428282
161.47585 -185.04663 -8.1074142
162.8326 -185.13797 -8.0210123
161.90903 -184.89594 -3.14746
162.42827 -184.81859 -3.825592
162.48314 -184.94421 -5.3261251
160.63904 -184.89824 -5.4127951
163.11601 -184.93484 -6.664494
166.15466 -184.90146 -7.478487
162.11595 -184.95834 -11.495659
160.59108 -184.70062 -2.503437
160.58087 -184.72397 -3.0914831
161.81311 -184.75424 -3.376895
162.08066 -184.60838 -4.2330308
166.23363 -184.62103 -6.9813209
164.26553 -184.64099 -7.7840991
160.63452 -184.63411 -8.1815872
160.64905 -184.58325 -2.32303
173.71513 -184.53497 -2.470587
161.97102 -184.44859 -3.3819809
173.70511 -184.58083 -3.292676
161.68948 -184.48248 -3.7746899
161.79346 -184.492 -3.837286
162.61304 -184.43736 -7.0742502
160.57848 -184.46237 -7.984889
163.72305 -184.54333 -8.3739481
164.82152 -184.44078 -8.2894373
162.17424 -184.42944 -11.907001
160.7514 -184.33487 -2.694572
163.03094 -184.22746 -3.65518
160.92337 -184.27992 -5.6854162
163.80946 -184.26959 -7.7417221
162.06088 -184.31335 -9.2764969
163.10555 -184.29463 -10.428646
162.0009 -184.08559 -3.517067
161.86365 -184.18254 -3.768729
163.32559 -184.08081 -3.8107829
162.16278 -184.13115 -4.0847931
161.74976 -184.05191 -4.5279531
162.55269 -184.18137 -4.485117
162.64539 -184.15321 -5.0764799
162.97635 -184.10962 -6.6384678
162.96671 -184.10149 -7.0839949
162.29495 -184.08595 -7.878253
160.16901 -184.19954 -9.3952379
162.51541 -183.88278 -3.736232
162.17154 -183.84424 -3.85181
164.08002 -183.92595 -3.8378129
161.76144 -183.80566 -4.2824712
165.70848 -183.85495 -6.561861
162.73413 -183.90051 -7.3182788
165.44707 -183.97479 -9.5051098
161.91432 -183.87834 -10.069174
162.12933 -183.91383 -10.100098
172.68643 -183.78966 -2.4524901
161.13164 -183.77226 -3.0595219
162.18222 -183.79305 -3.6178241
163.97971 -183.78342 -4.2089262
165.03917 -183.63232 -4.2140908
163.66565 -183.67212 -5.0901828
160.63919 -183.62775 -5.3822999
162.70348 -183.7525 -5.2748089
163.76059 -183.65967 -5.3620582
160.3528 -183.6026 -5.6270452
160.49901 -183.75716 -5.6162801
161.75043 -183.63802 -5.9355898
161.05554 -183.73674 -6.0772171
160.35721 -183.75424 -6.2519822
161.25136 -183.75414 -6.4765129
162.34081 -183.67844 -6.880641
164.08859 -183.74239 -7.3929839
161.93916 -183.73019 -7.7378602
160.55844 -183.77493 -7.952518
162.65143 -183.79227 -8.0822554
163.03714 -183.71683 -8.1033974
162.54559 -183.79852 -11.866554
164.17801 -183.43735 -4.137619
165.31653 -183.52373 -4.2599082
161.67972 -183.57877 -4.5717192
163.39549 -183.42267 -4.662529
160.83643 -183.44553 -5.5163012
160.99014 -183.45441 -5.7371178
162.58795 -183.41388 -7.0103559
164.06589 -183.55446 -7.3366871
166.19391 -183.51595 -7.2785759
161.9532 -183.46127 -7.40799
162.33716 -183.49998 -8.0402613
161.02451 -183.4579 -9.3347063
161.64273 -183.35136 -2.322562
163.68742 -183.3157 -4.1593089
165.24557 -183.25131 -4.7318692
163.33194 -183.22189 -4.9172182
164.09329 -183.37265 -5.3178949
162.99307 -183.33282 -6.2749658
160.33875 -183.28267 -7.8767009
165.1218 -183.38736 -7.8325419
164.52089 -183.32547 -8.0044241
160.64232 -183.34201 -8.6999846
161.85034 -183.02643 -3.0259039
164.21445 -183.15674 -3.4607439
165.06821 -183.03604 -3.61026
165.23642 -183.04179 -4.922194
161.76035 -183.10655 -6.201025
165.51208 -183.02051 -6.528008
163.4485 -183.06767 -6.7725091
163.83334 -183.05605 -7.7248521
160.17789 -183.05759 -7.8098841
162.98299 -182.93912 -4.233243
163.3819 -182.90964 -5.0803308
163.39706 -182.98509 -5.4095759
163.17409 -182.90694 -6.356833
164.53299 -182.96204 -6.4868279
163.43204 -182.87244 -6.9703259
164.44722 -182.97568 -6.866281
163.14326 -182.83044 -7.22684
164.0349 -182.80998 -8.9720221
160.46724 -182.99628 -9.4009123
164.621 -182.91925 -10.260328
162.32751 -182.62408 -2.740701
164.05951 -182.71347 -3.0337429
163.19003 -182.63756 -4.0513158
164.09874 -182.68515 -5.0758042
161.32913 -182.62453 -6.3518162
164.51505 -182.60748 -6.250731
160.07335 -182.65549 -10.810053
161.32037 -182.49622 -1.9847879
162.48012 -182.47147 -2.261363
160.36974 -182.53265 -5.38164
162.74583 -182.49045 -5.4690299
164.56427 -182.48921 -5.8598642
163.12289 -182.54984 -6.2984591
164.92311 -182.5032 -7.0340819
164.76541 -182.58102 -7.4327569
165.63565 -182.54491 -8.5475559
163.80527 -182.48235 -8.7933645
160.92107 -182.44334 -8.9598703
161.71431 -182.45003 -9.2362032
163.77744 -182.5249 -10.675444
164.06567 -182.47604 -10.768759
160.25998 -182.24078 -2.0067799
166.17484 -182.33633 -2.460876
161.66177 -182.24913 -5.316988
163.0838 -182.36551 -5.6832328
160.67047 -182.32607 -6.461277
162.50395 -182.20755 -6.701858
165.88733 -182.25885 -7.457726
163.36906 -182.1678 -3.55459
163.14642 -182.19785 -3.9191129
164.4194 -182.0088 -3.9342999
162.73367 -182.11523 -4.83464
164.65259 -182.0174 -5.8480258
163.74457 -182.1908 -6.4398208
165.36087 -182.03951 -6.6668682
163.22171 -182.12096 -6.9585519
162.8203 -182.16145 -8.635788
162.30255 -182.07556 -9.6963873
162.54132 -182.12085 -10.549333
162.67035 -182.03735 -15.316732
163.01004 -181.97473 -2.5783
162.99811 -181.95534 -4.514071
163.33762 -181.88474 -5.3729572
163.77341 -181.8878 -5.72014
162.14575 -181.92911 -5.9161181
161.83987 -181.92526 -6.0570788
162.60524 -181.92493 -7.1798468
162.5257 -181.8752 -7.279902
165.62686 -181.96873 -7.5030718
165.71292 -181.82022 -8.0665426
160.72595 -181.83296 -9.0262012
160.57271 -181.96605 -9.5704269
160.4451 -181.90668 -10.298246
162.47729 -181.8334 -10.49793
162.99478 -181.69707 -3.012394
164.02974 -181.60066 -3.1600339
162.88365 -181.78596 -3.746999
164.95674 -181.70715 -3.773798
163.35321 -181.76166 -3.8341269
164.20233 -181.7094 -3.8549609
164.97626 -181.75793 -5.520833
165.27472 -181.71483 -5.7383752
163.29671 -181.76271 -6.1046672
163.1488 -181.68616 -6.3479152
165.30222 -181.75146 -7.4018941
162.86948 -181.75821 -7.8651872
164.07597 -181.61975 -7.9397788
166.61734 -181.78621 -8.1867142
165.69017 -181.70262 -8.7552414
160.33008 -181.70647 -10.166937
163.43555 -181.72418 -15.441326
162.70709 -181.72569 -16.066689
164.10324 -181.49014 -3.3305869
164.1048 -181.44611 -5.3600392
163.14767 -181.53914 -6.596931
163.30423 -181.51831 -6.7644172
165.23386 -181.58601 -7.2056909
161.96895 -181.4675 -10.7423
163.80574 -181.55869 -10.746721
160.88065 -181.24823 -2.0165589
165.15784 -181.37138 -2.98807
164.45189 -181.28685 -3.0378261
163.1116 -181.32904 -3.7447691
163.76553 -181.36905 -4.717402
164.18805 -181.28076 -4.6115022
163.08905 -181.3952 -5.136271
165.35576 -181.3437 -6.4811912
163.63571 -181.28955 -6.9581852
164.83241 -181.33783 -8.128027
165.59676 -181.23976 -8.0782833
160.8414 -181.39932 -9.6605129
160.68257 -181.0549 -2.032779
164.10951 -181.13031 -2.93817
163.88666 -181.15479 -3.0493181
163.87831 -181.09259 -4.7391801
164.00755 -181.11226 -4.8886542
162.86284 -181.02698 -5.89324
165.92636 -181.04655 -7.6637182
161.23012 -181.02536 -9.3022137
161.32704 -181.05794 -10.107026
160.97041 -181.13152 -10.233162
161.77766 -181.02257 -15.870938
164.4894 -180.94608 -2.202435
165.26379 -180.97137 -5.3117232
165.03992 -180.87029 -5.6165199
162.81989 -180.9827 -6.052835
163.6183 -180.91347 -6.5570092
163.49246 -180.96112 -6.717802
162.56674 -180.80038 -9.9510851
164.93657 -180.66844 -2.6779959
163.30124 -180.75906 -5.3296342
162.74203 -180.70187 -6.6742702
162.30518 -180.75461 -6.8946028
163.35524 -180.62688 -7.0547371
165.25439 -180.4707 -2.63082
166.04669 -180.5648 -5.64639
161.73383 -180.57672 -6.3823409
165.32465 -180.4801 -8.6158772
168.68936 -180.45847 -9.4607334
165.48315 -180.30019 -2.6311071
165.72739 -180.31281 -5.662631
163.405 -180.33791 -6.1841488
165.15019 -180.27618 -6.2383342
162.6078 -180.27206 -6.9118271
163.02109 -180.20461 -7.3105421
163.41034 -180.2179 -7.3227429
165.36075 -180.32022 -7.8945241
164.92862 -180.39049 -9.089489
162.60947 -180.07059 -6.122509
162.3483 -180.10614 -6.6105852
165.42653 -180.18588 -6.662416
163.01065 -180.16417 -7.016737
161.13562 -180.03983 -9.3387203
162.06168 -199.87077 -2.852972
164.93164 -199.80679 -2.8343971
161.75339 -199.94861 -3.457778
161.96283 -199.8613 -3.482569
161.73145 -199.97675 -4.0139918
163.29507 -199.83417 -4.5574212
174.28755 -199.84262 -4.670527
163.26031 -199.80315 -6.5218482
173.71756 -199.93712 -7.4300318
172.93724 -199.67139 -3.2172461
174.745 -199.70859 -3.8250539
174.86261 -199.66815 -4.105895
174.93906 -199.73618 -5.002264
162.61713 -199.75034 -6.5834708
174.92667 -199.73015 -6.572144
164.10736 -199.65979 -6.696012
169.10217 -199.48508 -3.0245781
174.84103 -199.43625 -3.7246661
162.70218 -199.43304 -5.9586568
164.44131 -199.54269 -6.1790748
164.61708 -199.35802 -2.8478391
171.53574 -199.39684 -3.027863
171.90578 -199.2639 -3.0515161
173.36005 -199.39857 -3.1796789
174.94873 -199.34164 -3.4706049
162.36374 -199.27129 -5.919054
160.18103 -199.13533 -2.5632429
174.57428 -199.02838 -4.9899611
174.35666 -199.1627 -5.8312521
173.9948 -199.00883 -7.0638108
160.46481 -199.01205 -11.428583
161.47517 -198.98187 -2.6397159
166.1519 -198.98091 -2.838568
174.57977 -198.96693 -4.7022762
160.62653 -198.90988 -11.793076
172.29834 -198.69199 -3.1653421
174.71994 -198.79135 -4.9194469
165.34007 -198.47206 -2.789921
172.57687 -198.51883 -3.162694
174.59859 -198.58807 -4.7097812
167.32568 -198.2459 -2.8060839
170.24899 -198.33344 -3.0715201
173.02116 -198.20779 -3.159266
160.5687 -198.06123 -2.605747
165.34512 -197.90192 -2.727932
162.64798 -197.73193 -2.57884
162.71661 -197.40425 -2.54651
174.25871 -197.55321 -3.144141
161.66621 -197.17036 -2.5511689
166.14941 -196.98575 -2.776314
167.35428 -196.9258 -2.904372
161.60394 -196.71719 -2.597306
173.15276 -196.61482 -3.0619841
164.18921 -196.23981 -2.7236071
165.3793 -196.2337 -2.814393
168.06342 -196.20058 -2.8728039
163.16431 -196.18164 -2.4999659
164.99629 -196.11652 -2.7072401
166.76822 -196.01204 -2.70561
165.37103 -195.85295 -2.8256609
162.57401 -195.66451 -2.53477
166.45184 -195.72557 -2.7694731
173.94615 -195.71477 -2.796488
165.20554 -195.7542 -2.841495
162.88881 -195.43701 -2.5393579
163.55266 -195.42456 -2.5793879
167.56343 -195.23436 -2.7763081
163.46475 -195.0078 -2.5522411
173.71059 -195.16319 -2.758352
170.96854 -194.83928 -2.779865
169.00447 -194.81506 -2.8351469
161.81149 -194.59753 -2.471936
167.71944 -194.57773 -2.741962
166.2748 -194.50978 -2.8102911
169.21831 -194.53632 -2.825985
167.44641 -194.20987 -2.759903
169.41745 -194.23892 -2.817801
162.08151 -194.17535 -2.3804071
162.49069 -193.89258 -2.474082
162.61526 -193.8197 -5.9260521
163.28419 -193.7534 -7.0650468
163.53201 -193.67511 -7.3461781
161.43793 -193.40248 -2.452951
167.79156 -193.4409 -2.748385
161.64508 -193.41449 -5.8772731
164.20523 -193.4874 -6.1711111
163.26384 -193.53549 -6.5372181
162.43254 -193.59424 -6.9544158
162.48416 -193.50537 -7.0444298
162.64969 -193.47868 -7.281064
160.83136 -193.34201 -2.331768
166.72339 -193.27942 -2.747602
168.5209 -193.3519 -2.668637
169.9308 -193.29836 -2.79812
165.01422 -193.31616 -6.1189661
161.53561 -193.34305 -6.578001
164.64447 -193.27502 -6.5597839
163.72832 -193.32001 -6.6104369
161.33797 -193.34932 -6.9315238
163.36455 -193.36351 -7.0099702
166.38052 -193.07701 -2.7370219
168.60881 -193.10393 -2.663913
174.19022 -193.17177 -2.7383511
161.39809 -193.10326 -6.1620359
163.95932 -193.02902 -6.8802762
164.15393 -193.04382 -7.5452671
161.52667 -192.93474 -2.603869
163.60349 -192.89346 -7.8848958
161.35789 -192.7872 -2.2387969
162.72934 -192.7054 -2.510814
167.40051 -192.6106 -2.6184499
161.40201 -192.61227 -6.088459
163.45799 -192.60191 -6.132575
161.09557 -192.78117 -6.6953688
162.20296 -192.65372 -7.0432472
163.06012 -192.64259 -7.4798069
164.77736 -192.55872 -2.6254101
163.17751 -192.44025 -5.3753982
161.69046 -192.49146 -5.4256291
160.55267 -192.46164 -5.7987952
162.31149 -192.5376 -5.7331338
165.17422 -192.52881 -5.903008
160.30212 -192.4935 -6.2926269
160.33813 -192.48935 -6.4353409
161.33278 -192.47212 -6.5737638
163.25716 -192.55908 -6.5065169
166.06812 -192.51462 -6.5090251
162.67766 -192.59187 -6.769341
161.50784 -192.49033 -7.0505519
161.66016 -192.47398 -7.076376
161.66219 -192.51604 -7.4612589
161.69019 -192.38785 -5.5966921
161.54178 -192.29224 -5.6778998
160.47421 -192.21721 -5.8586259
160.99271 -192.2641 -6.5915332
161.41528 -192.26276 -6.8519149
161.73206 -192.22627 -7.7332668
162.72932 -192.09004 -2.7149529
163.30948 -192.10347 -2.6951129
164.9386 -192.147 -2.66189
167.32582 -192.1709 -2.7621
161.08243 -192.10242 -2.996377
162.26688 -192.11853 -3.0732999
161.64464 -192.01865 -3.216367
164.14131 -192.14893 -3.2248721
164.00201 -192.09515 -4.5632591
163.23326 -192.14796 -4.9452281
162.11996 -192.02026 -5.0829802
162.67458 -192.10963 -5.41043
166.44376 -192.01535 -5.6013222
162.98109 -192.12073 -6.1019239
164.25055 -192.08994 -8.7004414
169.5551 -191.884 -2.681102
163.30255 -191.91199 -2.9746799
163.43829 -191.9006 -4.6753831
165.09131 -191.98122 -5.6106138
162.02753 -191.979 -5.8217778
163.29451 -191.80043 -8.0825119
163.10701 -191.83704 -9.5309153
174.06096 -191.64775 -2.994467
161.67551 -191.79924 -3.332485
164.9798 -191.65384 -3.421798
163.4462 -191.70442 -4.12569
164.63147 -191.71951 -4.6815381
164.6658 -191.603 -4.95541
165.09908 -191.67758 -5.3937421
160.53069 -191.74229 -5.487031
162.94107 -191.65485 -5.7025671
161.94279 -191.77026 -7.2624998
162.56151 -191.69937 -7.4836731
163.47987 -191.7583 -7.8495979
164.15582 -191.68256 -7.8817859
163.39801 -191.64062 -8.3293476
163.40137 -191.76045 -9.5493526
163.40558 -191.78436 -9.7792034
163.22993 -191.60657 -10.405269
173.72662 -191.43979 -3.404511
162.28902 -191.58398 -4.8666329
160.29172 -191.52287 -5.5477948
160.13129 -191.52313 -5.8989372
160.05515 -191.46014 -6.1055851
163.91405 -191.47086 -8.1771383
162.28894 -191.46065 -8.7205458
163.00983 -191.42566 -9.7390776
164.20255 -191.47957 -9.6713552
163.02548 -191.42252 -10.299988
163.35028 -191.44012 -10.204548
161.03809 -191.24327 -2.4635389
170.61777 -191.23999 -2.6453359
160.09142 -191.2377 -6.1358538
162.51031 -191.30972 -7.0296421
163.25607 -191.31671 -7.2359648
163.71487 -191.36581 -8.4930134
161.78726 -191.3558 -9.0528231
162.25516 -191.28387 -9.7576313
170.79655 -191.11896 -2.6335261
173.62878 -191.10912 -2.7192941
163.06667 -191.07318 -3.4849949
163.33951 -191.08063 -3.6959989
162.34286 -191.05051 -3.920316
161.97931 -191.12209 -4.5836458
165.61154 -191.09363 -6.338212
161.70732 -191.13493 -8.702652
161.58989 -191.08847 -9.0496883
161.73141 -191.10034 -9.094265
164.71982 -191.07852 -9.5932465
161.92151 -191.02081 -9.6951351
163.47595 -191.0565 -9.6377573
161.76872 -191.17361 -9.8035822
162.40114 -191.07713 -10.510839
173.57457 -190.93495 -2.7721429
161.72296 -190.86182 -3.3440771
162.40849 -190.933 -3.345072
173.5491 -190.88431 -3.3627231
162.1584 -190.9259 -5.5312958
163.62967 -190.90103 -6.5927811
161.42018 -190.89839 -9.7496519
161.91888 -190.93546 -10.541215
162.61404 -190.657 -4.7020001
162.34213 -190.74855 -5.521069
161.27666 -190.7513 -5.9377708
161.91196 -190.65649 -6.5538278
162.1918 -190.66107 -7.0706372
163.606 -190.71875 -7.9773178
162.64478 -190.60973 -10.172331
161.34245 -190.65303 -10.532474
163.01207 -190.69121 -11.000657
160.96912 -190.53658 -2.1805601
161.68515 -190.47537 -2.473346
163.23932 -190.49875 -3.805429
163.09827 -190.42862 -4.6855259
163.64217 -190.59055 -6.5394578
163.61359 -190.4967 -7.069005
163.35278 -190.52216 -7.8265548
163.52069 -190.58115 -9.295435
161.42743 -190.59302 -10.261143
170.95683 -190.20534 -2.597008
163.03278 -190.25116 -3.810432
161.22667 -190.28099 -5.3168602
164.31433 -190.2364 -6.5520091
161.65173 -190.24445 -6.9409518
164.15128 -190.28635 -7.310833
162.6283 -190.25337 -7.4323068
163.50119 -190.26044 -9.0512352
161.2901 -190.38928 -10.034822
162.9462 -190.16199 -3.303313
163.20334 -190.1366 -3.2799661
173.30827 -190.08437 -3.3259881
162.52835 -190.05109 -7.802227
163.02841 -190.18674 -8.4749985
160.50139 -190.04544 -9.3666496
160.31891 -190.01752 -9.45436
163.36603 -189.83539 -3.2982309
163.12608 -189.93437 -5.5731888
161.33704 -189.91574 -6.9190478
162.45052 -189.93553 -7.346837
163.70212 -189.85043 -7.7974858
162.24783 -189.93135 -7.8426251
160.28467 -189.90141 -9.4936504
161.71996 -189.82751 -9.7033091
162.14838 -189.84128 -9.7460327
160.52084 -189.8782 -10.70657
173.2471 -189.75624 -2.7377131
162.40424 -189.71777 -6.273818
163.66693 -189.7312 -8.0223532
161.34444 -189.67381 -9.1937962
163.69415 -189.64429 -9.237298
161.75308 -189.68773 -9.5341282
161.85175 -189.79019 -10.138502
160.58884 -189.77203 -11.401146
160.92987 -189.48239 -2.380486
163.04401 -189.45288 -3.0747211
164.2937 -189.41389 -7.0619349
162.95721 -189.47086 -9.0033302
160.68024 -189.49863 -9.6787796
160.62849 -189.46834 -10.123915
160.10721 -189.22394 -2.2950699
162.71658 -189.35735 -2.578002
173.17645 -189.30655 -3.155956
161.95255 -189.32204 -7.0997772
162.95448 -189.36891 -8.7230959
162.19078 -189.30928 -8.9705973
162.03624 -189.37717 -9.9336014
160.12012 -189.37405 -11.350391
160.60281 -189.08247 -6.6641159
162.17685 -189.08049 -7.3068099
162.63626 -189.17848 -7.3013558
162.50359 -189.02888 -8.6106586
163.73282 -188.90054 -3.1021831
160.60825 -188.92468 -6.5645709
164.49344 -188.9158 -8.913662
160.69713 -188.9357 -9.664402
160.65936 -188.63037 -7.0113711
162.12077 -188.68584 -9.8411217
173.16341 -188.50012 -3.307173
161.46078 -188.41185 -6.2094622
160.15437 -188.51788 -6.942554
160.29182 -188.44641 -7.7622652
160.97067 -188.44952 -10.713209
161.73837 -188.28769 -2.4713459
164.28969 -188.35397 -2.962172
164.496 -188.21747 -2.936578
160.2047 -188.28613 -6.3125982
161.4715 -188.30893 -6.9362459
