# .PCD v0.7 - Point Cloud Data file format
VERSION 0.7
FIELDS x y z
SIZE 4 4 4
TYPE F F F
COUNT 1 1 1
WIDTH 1549
HEIGHT 1
VIEWPOINT 0 0 0 1 0 0 0
POINTS 1549
DATA ascii
162.12544 -17.811155 0.076300003
175.05209 -17.88921 -0.715123
161.91124 -17.982529 -1.12202
174.97147 -17.85146 -1.1131999
174.93462 -17.934753 -1.256681
174.95618 -17.820189 -1.756876
160.30536 -17.904291 -1.9767849
161.89868 -17.907738 -1.886077
160.23631 -17.824677 -2.0254979
175.04898 -17.831999 -2.0811801
160.20012 -17.828938 -2.530432
161.88164 -17.855307 -2.7043991
175.06711 -17.807699 -2.6920061
162.11205 -17.877296 -2.8383961
174.98969 -17.862965 -2.8715799
175.08545 -17.808134 -3.0057189
175.29129 -17.863262 -3.028213
162.19498 -17.918013 -3.367959
175.08128 -17.868778 -3.3938789
162.1869 -17.931026 -3.6462431
175.0661 -17.866211 -3.7004919
175.07747 -17.810045 -4.1333742
162.08311 -17.849838 -4.2358608
175.1609 -17.905369 -4.463511
175.45511 -17.864452 -4.496428
175.61475 -17.805527 -4.588799
161.82281 -17.744766 2.536772
161.90385 -17.771122 2.201061
179.97046 -17.776314 2.213928
160.10052 -17.614792 1.891113
169.04205 -17.742041 1.9656661
162.86313 -17.737049 0.89329797
162.88284 -17.796295 0.74962801
162.1277 -17.713406 -0.135186
160.54424 -17.718082 -0.24986701
162.16266 -17.664042 -0.256762
162.15558 -17.661484 -0.687316
175.32053 -17.671627 -0.63940197
162.15924 -17.674507 -0.89979303
175.94412 -17.647423 -1.325579
162.21939 -17.678492 -1.424282
162.11694 -17.709011 -1.718215
174.93356 -17.661839 -1.966646
174.88712 -17.680391 -2.0912521
160.16898 -17.78627 -2.717551
161.8174 -17.710051 -3.084126
175.78838 -17.676882 -3.0646429
161.9202 -17.667168 -4.6597071
162.08167 -17.758984 -5.3919592
166.2847 -17.482876 2.5080931
166.73938 -17.459127 2.40715
161.99118 -17.532236 2.1746249
169.84406 -17.584118 1.9317811
162.11919 -17.553183 0.80683899
162.2435 -17.51371 0.14327
162.24478 -17.468746 -1.080524
162.24776 -17.504328 -1.262229
162.25183 -17.460304 -2.25055
175.12399 -17.470535 -2.690228
175.22006 -17.494236 -2.8096111
175.23792 -17.423809 -3.5825191
161.81772 -17.404243 -3.8956709
162.3757 -17.397432 2.247324
170.28552 -17.275288 2.3008039
178.46594 -17.391571 2.3001921
178.36139 -17.220596 2.0391181
179.9192 -17.34182 2.10272
176.24567 -17.325577 -2.8648641
175.84489 -17.392076 -4.581183
175.80107 -17.23027 -5.8120608
177.15564 -17.33593 -6.0623751
162.17392 -17.061356 2.6360309
176.052 -17.005436 2.3935161
169.91272 -17.090307 2.0901239
178.26636 -17.139072 2.0238471
179.93271 -17.087629 2.128897
169.92822 -16.817966 2.803354
171.14308 -16.835852 2.440958
177.11444 -16.930977 2.430625
179.72084 -16.954411 2.5276079
176.15002 -16.916218 -3.4504409
176.3223 -16.863533 -5.30584
169.27252 -16.720114 2.5634849
177.31819 -16.698359 2.4315269
175.03674 -16.781504 -4.2973971
169.47374 -16.513187 2.8836789
177.17047 -16.58404 2.2739389
160.25032 -16.422045 1.866047
175.22375 -16.504692 -4.3677702
174.83295 -16.282429 2.518559
178.89252 -16.342896 2.479701
160.13791 -16.342274 1.91034
175.74893 -16.356821 -3.8381231
173.45811 -16.017014 2.640461
166.34052 -15.924803 2.7910571
175.17058 -15.940914 2.710047
174.6694 -15.888109 2.5071759
177.40596 -15.902971 2.4577651
174.6252 -15.934878 2.337126
160.08066 -15.889334 2.128885
175.89999 -15.985457 -4.7586141
163.65489 -15.705452 2.8800061
176.60646 -15.449787 2.606425
162.48323 -15.381498 2.7711279
164.71167 -15.017012 2.7822449
161.85803 -14.974123 2.7781119
166.85178 -14.833875 2.59391
170.48767 -14.620373 2.689575
177.05304 -14.768711 2.5630219
178.92862 -14.742669 2.438297
175.28978 -14.671218 -3.8188629
177.44684 -14.491444 3.076071
160.34123 -14.434725 2.631196
163.02603 -14.554549 2.748687
161.80249 -14.225448 2.6126521
162.92149 -14.272453 2.6990521
163.2507 -14.352546 2.744271
163.83717 -14.251211 2.719276
167.97658 -14.237316 2.7349131
178.57849 -14.241695 2.663491
160.28058 -14.241091 2.5732009
172.5838 -14.229051 2.5468631
174.92575 -14.217114 -3.439014
175.03912 -14.314699 -3.5565419
175.49991 -14.36005 -3.9602709
176.51115 -14.23826 -4.0674152
161.43744 -14.081059 2.6101151
162.24055 -14.147608 2.6829989
163.37109 -14.161789 2.6758471
170.8288 -14.191027 2.6696801
160.09908 -14.088535 2.585474
178.98022 -13.950432 2.5881369
179.48235 -13.970487 2.375196
174.31236 -13.905901 -2.8936191
176.63828 -13.820878 -4.1992359
166.04639 -13.768896 2.8676879
168.56577 -13.750368 2.70578
171.23563 -13.608593 2.2866681
176.6846 -13.786699 -4.6420889
166.55418 -13.596682 3.057235
170.35057 -13.566717 2.8411551
170.93033 -13.426697 2.5931821
174.28674 -13.542975 -2.205832
176.85059 -13.46838 -3.570188
160.15558 -13.321909 2.850549
169.80728 -13.343155 2.8530729
179.96776 -13.305158 2.6631629
172.19298 -13.358287 2.340086
176.3261 -13.302586 -3.3874919
177.04659 -13.396002 -4.1137562
177.91974 -13.362462 -6.2871771
168.62367 -13.149529 2.76933
169.90515 -13.082302 2.7385681
172.60324 -13.15167 2.632199
178.75827 -13.156824 -5.8361902
179.32463 -12.92338 3.176296
171.77866 -12.970976 2.6535289
165.85101 -12.820628 -2.91274
168.26372 -12.864418 -2.985327
169.61853 -12.925997 -2.9935009
174.47182 -12.969539 -2.9793389
163.823 -12.820287 -3.175894
165.79808 -12.813581 -3.152833
166.94972 -12.885975 -3.112942
167.48596 -12.877874 -3.0736129
167.77151 -12.866435 -3.0050199
169.48613 -12.922938 -3.076179
165.9201 -12.826138 -3.383234
168.25633 -12.889846 -3.3332009
167.76184 -12.887325 -3.455714
168.57141 -12.939491 -3.4602411
169.05856 -12.947796 -3.4456439
165.3049 -12.804908 -3.64362
167.4583 -12.832911 -3.7231269
168.26147 -12.877228 -3.7750621
169.29877 -12.918518 -3.774143
168.89822 -12.930906 -3.9001491
169.64011 -12.958366 -3.820967
166.86755 -12.880661 -4.1929111
167.82524 -12.867027 -4.1915169
168.57938 -12.954184 -4.1855321
169.34842 -12.949068 -4.1469302
166.81725 -12.981857 -4.270041
168.28859 -12.823814 -4.5254178
168.93813 -12.876919 -4.457819
166.79475 -12.856761 -4.8867092
166.85394 -12.919455 -5.4813089
166.90332 -12.910015 -5.6937208
164.23065 -12.682476 3.060292
166.58934 -12.682052 3.1432891
170.44244 -12.678729 2.668381
171.87366 -12.792821 2.330807
163.34184 -12.673992 -3.1113031
165.28571 -12.76556 -3.08816
166.23392 -12.757833 -3.3269889
176.11093 -12.713839 -3.304667
161.68929 -12.625422 -3.467782
165.82201 -12.699398 -3.4184589
169.03957 -12.625919 -3.5223091
162.16272 -12.601641 -3.854723
162.9805 -12.62862 -3.8766749
163.26379 -12.681719 -3.816761
163.76628 -12.702189 -3.8166549
162.87923 -12.669651 -4.0794048
163.4194 -12.646477 -4.1490598
165.25168 -12.702148 -4.1447392
163.71361 -12.658018 -4.20118
167.38153 -12.768896 -4.2846699
167.74423 -12.785837 -4.3339581
168.11752 -12.796906 -4.3929081
162.45755 -12.624135 -4.5953288
162.91495 -12.627144 -4.572413
164.23572 -12.652147 -4.6289291
166.87369 -12.701836 -4.752636
166.96222 -12.621045 -4.9390678
167.65205 -12.742853 -4.8928218
167.13564 -12.600831 -5.5623922
177.04272 -12.729668 -6.1808758
170.11415 -12.423368 2.847436
174.17572 -12.445044 2.2685349
160.66747 -12.471474 -2.961422
169.68237 -12.516453 -2.9669161
160.24051 -12.560151 -3.052649
160.65498 -12.582273 -3.089772
161.06841 -12.532803 -3.0198929
161.34137 -12.567636 -3.0852511
161.73607 -12.585562 -3.0766289
162.24014 -12.590835 -3.0681069
160.80682 -12.577099 -3.2266941
160.5303 -12.571089 -3.497499
174.45476 -12.442478 -3.5557699
161.06128 -12.57987 -3.6840651
161.89246 -12.561002 -3.7238309
161.42697 -12.580073 -3.8616979
162.57526 -12.592637 -4.1019821
160.26814 -12.495011 -4.3412118
160.937 -12.543178 -4.2476702
161.44727 -12.523207 -4.2835579
161.81052 -12.567639 -4.2285719
162.21414 -12.577707 -4.5121589
160.59909 -12.485947 -4.64992
161.34192 -12.432608 -4.906219
162.12149 -12.550653 -4.9859152
168.40282 -12.512924 -5.181901
163.47134 -12.573605 -5.4013739
164.75209 -12.546539 -5.4932241
176.73865 -12.578351 -5.881402
164.69781 -12.528887 -6.1255889
178.12009 -12.522044 -6.1425309
164.84218 -12.58816 -6.332448
165.92609 -12.566156 -6.2572169
178.73363 -12.555909 -6.5079751
160.34535 -12.381843 3.047708
173.07718 -12.324799 2.638453
169.58058 -12.215168 -3.521502
174.39352 -12.282182 -3.451004
176.99956 -12.378317 -3.886786
160.56372 -12.258442 -4.998404
163.90485 -12.311541 -4.9426088
163.3607 -12.293131 -5.072679
164.70625 -12.203789 -5.4439969
160.81404 -12.307775 -5.7115412
168.43425 -12.204735 -5.856915
164.65204 -12.11668 3.08003
168.27824 -12.051895 2.7550981
170.47603 -12.066088 2.7227859
168.35588 -12.019331 2.5528419
171.53705 -12.181356 2.274076
168.34163 -12.028453 1.495793
175.67462 -12.079282 -3.1281631
160.28387 -12.146122 -5.1028862
161.3196 -12.167622 -5.100091
163.15729 -12.160494 -5.230969
165.48241 -12.153289 -5.572053
165.44214 -12.143027 -5.6100202
162.04471 -12.066423 -5.8127089
165.62155 -11.866446 3.0727589
166.90269 -11.813964 3.1227789
170.33807 -11.911389 2.607573
172.58951 -11.892789 2.7529669
168.21964 -11.821301 2.484869
168.15083 -11.813462 2.2456751
170.42148 -11.932447 2.215431
173.38013 -11.905917 2.280997
168.45264 -11.953169 2.043993
168.46365 -11.950633 1.901188
168.24376 -11.839259 1.47965
163.46648 -11.867128 1.373614
168.45792 -11.914547 1.362118
168.48975 -11.893115 1.160758
168.26221 -11.816932 0.76968598
168.41431 -11.918578 0.61698997
168.42238 -11.860991 -0.19720501
168.27072 -11.886354 -0.85470402
168.48242 -11.853233 -0.93049097
163.472 -11.811716 -1.12214
168.46564 -11.948111 -1.109547
168.27281 -11.888018 -1.548002
168.48645 -11.838888 -1.529305
168.43655 -11.884094 -1.743731
168.44162 -11.869143 -2.299087
168.43375 -11.916253 -2.9954159
168.45174 -11.844524 -3.057266
164.05121 -11.829931 -3.6138189
160.26048 -11.964635 -5.3515248
161.58084 -11.967516 -5.382442
163.28526 -11.719505 2.868504
168.14993 -11.796396 2.96071
161.16371 -11.622856 2.665503
161.4913 -11.635462 2.6747191
171.79742 -11.756203 2.661895
172.29051 -11.727135 2.6795709
172.93076 -11.788362 2.204735
163.36685 -11.724772 2.1790531
172.69739 -11.687881 2.082278
163.18135 -11.664713 1.819708
163.32675 -11.753685 1.865635
163.44867 -11.735434 1.8094079
163.44547 -11.782823 1.6546479
163.24048 -11.679611 1.515309
163.4483 -11.699166 1.474483
163.34061 -11.695498 1.103647
163.43506 -11.771317 1.07916
168.22472 -11.735545 0.96219599
163.18591 -11.611919 0.63610601
163.44653 -11.708766 0.75623298
163.61081 -11.659036 0.74588102
163.36536 -11.694546 0.51788902
163.47052 -11.657009 0.52229702
168.14037 -11.713726 0.52771997
163.47256 -11.717285 0.33607301
163.37155 -11.727593 0.040762
163.46738 -11.705957 0.103141
168.23297 -11.771568 0.143976
168.23302 -11.767497 -0.098595999
163.47467 -11.700688 -0.34463599
168.23424 -11.718801 -0.59714597
163.30559 -11.660858 -0.65939999
163.48589 -11.709952 -0.66783702
168.25755 -11.729798 -0.92265397
163.46582 -11.704866 -1.083034
163.45294 -11.689289 -1.299942
168.25717 -11.736449 -1.511929
168.22345 -11.700062 -1.751767
168.29276 -11.713144 -2.260778
163.35739 -11.604734 -2.497086
168.29044 -11.773617 -2.7327819
163.485 -11.669151 -2.9223189
169.6418 -11.769809 -2.9018829
163.46461 -11.664999 -3.1193421
168.24344 -11.661835 -3.0285211
169.65991 -11.72057 -3.3103039
168.23132 -11.655899 -3.644026
165.45651 -11.59675 3.0671489
168.18895 -11.563183 3.1172071
160.26709 -11.499577 2.960659
161.01637 -11.512355 2.698097
160.66278 -11.522963 2.546262
161.48361 -11.531442 2.5353229
161.90765 -11.444887 2.547286
162.29395 -11.468445 2.4837921
167.01915 -11.500844 2.439923
162.32755 -11.413807 2.2048039
163.15926 -11.523048 2.273701
163.21231 -11.503057 2.2213709
162.11482 -11.434689 2.1120999
162.36131 -11.41855 2.1046381
172.60905 -11.497043 2.146255
161.56114 -11.421737 1.8387229
162.18878 -11.479279 1.8108211
163.16956 -11.551711 1.834262
163.17435 -11.572399 1.646814
163.21921 -11.507757 1.771324
167.02081 -11.430168 1.740775
163.22397 -11.518557 1.4056751
163.17398 -11.511633 1.385687
163.17061 -11.485785 1.083156
163.23274 -11.566452 1.036428
164.98625 -11.407261 1.144303
163.16595 -11.462797 0.62399697
166.99619 -11.420244 0.74627501
163.22276 -11.462679 0.554977
163.22739 -11.555273 0.351165
163.18782 -11.461369 0.021531999
163.17801 -11.468007 -0.14696801
166.9819 -11.427652 -0.095978998
168.22234 -11.529151 -0.104857
163.29105 -11.499462 -0.288028
168.23056 -11.500616 -0.62212998
163.27322 -11.51412 -0.85213602
168.21159 -11.552932 -1.074265
163.29892 -11.533925 -1.440091
168.23224 -11.471061 -1.501227
163.42249 -11.547762 -1.736356
163.23567 -11.589634 -1.968852
163.28865 -11.496573 -2.349556
168.21701 -11.49507 -2.2900541
163.38652 -11.507802 -2.945296
168.27246 -11.407868 -2.9881439
160.67015 -11.349192 2.680836
172.57304 -11.372795 2.683202
160.26907 -11.37054 2.5992539
160.05927 -11.240402 2.2144611
162.16681 -11.343591 2.2049839
162.4808 -11.375402 2.221153
164.19356 -11.28383 2.235029
164.99014 -11.285695 2.2092941
166.94199 -11.334608 2.323396
160.02121 -11.220437 2.1004159
160.55637 -11.23815 2.1627071
161.07076 -11.273398 2.160872
161.42868 -11.33783 2.1762259
161.80605 -11.278016 2.1877661
162.31549 -11.353006 2.124263
166.53877 -11.211072 2.0198231
160.16832 -11.225367 1.8511111
162.3577 -11.35356 1.805757
165.22633 -11.282471 1.883094
161.13297 -11.243164 1.704945
161.37675 -11.276707 1.751121
161.75531 -11.248724 1.750603
161.86626 -11.331816 1.7194149
162.28159 -11.360668 1.776445
162.492 -11.365865 1.752841
164.20615 -11.265532 1.7487921
165.03394 -11.338574 1.765874
161.33844 -11.24296 1.533288
161.79453 -11.228889 1.4788769
162.32338 -11.297255 1.527643
162.41971 -11.34138 1.4741091
164.20723 -11.254614 1.516216
166.55945 -11.219509 1.443664
166.99686 -11.338276 1.477016
161.86511 -11.228731 1.363773
162.30267 -11.264812 1.362414
162.5867 -11.25149 1.3901711
167.01633 -11.39279 1.260078
161.89243 -11.234402 1.047992
162.2661 -11.249128 1.076598
162.5493 -11.231953 1.081641
164.59377 -11.365999 1.117746
164.95354 -11.352882 1.128471
165.06177 -11.358952 1.1087821
164.28113 -11.27895 0.96136397
167.01511 -11.381001 0.99938899
161.82272 -11.224365 0.72151601
162.6667 -11.25454 0.60368401
165.04004 -11.261658 0.68641198
162.65253 -11.23915 0.34487
164.20145 -11.25215 0.33095199
164.61078 -11.252491 0.331341
164.9572 -11.278621 0.27295399
165.08331 -11.331934 0.366025
167.02097 -11.343779 0.064871997
162.67799 -11.233153 -0.097845003
165.06564 -11.274029 -0.14508501
164.27625 -11.240385 -0.219919
165.15477 -11.304131 -0.34178901
163.22842 -11.33285 -0.69166398
166.97394 -11.283731 -0.70536703
162.71927 -11.221439 -0.98466802
164.26059 -11.250221 -0.92234099
165.10562 -11.270201 -1.046814
162.71507 -11.204135 -1.390435
164.29488 -11.2347 -1.692425
167.0786 -11.269415 -1.9086421
162.71951 -11.210895 -2.1809571
165.12958 -11.279146 -2.09603
166.98904 -11.237207 -2.2356241
163.23862 -11.324793 -2.4568601
169.65303 -11.274828 -3.092329
163.27954 -11.374711 -3.33921
163.08157 -11.397922 -3.6587441
166.21382 -11.035908 3.031148
160.15045 -11.037437 2.640388
171.70801 -11.022742 2.654572
162.02469 -11.022112 2.351856
164.12825 -11.049523 2.2631111
160.25374 -11.101067 2.126478
160.655 -11.144533 2.0876529
161.7877 -11.186187 2.1949289
166.84955 -11.11867 2.0747149
173.11816 -11.176436 2.1532409
166.51096 -11.144905 1.950809
160.2218 -11.085209 1.7330149
160.6897 -11.059729 1.744676
160.90259 -11.148187 1.6818891
162.99785 -11.139283 1.611662
164.97079 -11.06918 1.775955
166.50682 -11.031952 1.755057
166.87424 -11.139244 1.725359
161.67941 -11.153719 1.469969
164.15085 -11.090777 1.409651
166.6712 -11.000362 1.470503
166.89763 -11.094964 1.42432
160.06242 -11.040051 1.379167
161.41776 -11.087818 1.355742
161.73859 -11.080651 1.314417
161.75482 -11.061502 1.058038
162.20004 -11.146879 1.1103179
162.4706 -11.122978 1.039412
164.12379 -11.070254 0.87847698
161.73282 -11.149681 0.62634802
164.99924 -11.021288 0.71852702
161.827 -11.130769 0.46739301
162.64969 -11.046553 0.52663398
164.17915 -11.095153 0.56205797
166.90131 -11.097313 0.51874399
161.80649 -11.186177 0.26710001
162.18575 -11.113631 0.295674
162.58925 -11.001093 0.31663999
164.12534 -11.045959 0.28099501
166.92618 -11.110432 0.32336399
161.74118 -11.129395 0.062909
161.75546 -11.125891 -0.138942
161.8687 -11.134754 -0.068889998
162.62433 -11.144095 -0.173801
162.65494 -11.109909 -0.33575401
163.31656 -11.04384 -0.31233501
166.88054 -11.048549 -0.229966
166.57599 -11.026289 -0.55632597
166.88885 -11.014997 -0.45703399
161.78586 -11.106562 -0.67958999
162.71313 -11.166115 -0.74198699
161.77731 -11.09778 -0.92044401
161.83109 -11.112073 -0.86058402
162.64078 -11.108049 -0.89370602
163.31213 -11.026352 -0.85678202
164.20558 -11.154758 -0.900141
161.83173 -11.148006 -1.097066
161.83742 -11.055294 -1.3174289
162.67523 -11.054926 -1.354218
162.61235 -11.104628 -1.547793
161.84277 -11.081405 -1.728375
162.65118 -11.038717 -1.744103
161.84848 -11.102447 -1.892269
164.79291 -11.106414 -1.9427021
166.94308 -11.033205 -1.956336
164.21614 -11.127545 -2.501879
163.34721 -11.185349 -2.9807179
162.67038 -11.005165 -3.0179679
168.39029 -11.068434 -3.728965
170.19861 -10.902939 2.741277
163.41565 -10.860499 2.586813
165.85649 -10.890024 2.4816749
166.15021 -10.931452 2.486645
166.53992 -10.980231 2.4897051
163.41583 -10.844483 2.313638
164.75566 -10.838764 2.2508421
164.95648 -10.888522 2.2386429
165.73846 -10.8769 2.289377
166.25513 -10.919378 2.229856
166.57379 -10.988013 2.272141
163.19055 -10.810221 2.162241
163.39124 -10.837939 1.842106
163.66008 -10.8413 1.750935
165.77599 -10.836658 1.652856
166.15936 -10.874354 1.738811
167.64926 -10.915557 1.7213989
160.58319 -10.980194 1.516405
160.68466 -10.821526 1.440508
162.97003 -10.913277 1.484612
163.36971 -10.814849 1.497502
165.72552 -10.835587 1.463191
166.20927 -10.906199 1.530236
167.65788 -10.914054 1.50344
160.00006 -10.999668 1.228669
160.26355 -10.892949 1.371791
160.58386 -10.871895 1.3898031
160.70863 -10.869688 1.314847
160.9332 -10.97776 1.297297
160.05807 -10.911625 1.045645
160.90518 -10.893696 1.154108
161.46873 -10.960261 1.108789
163.07321 -10.914906 1.099833
163.43839 -10.815071 1.0761321
166.09348 -10.899193 1.148964
166.47821 -10.988472 1.1417921
165.80859 -10.837636 0.94401902
167.66971 -10.93371 0.85199499
162.82771 -10.977509 0.668145
163.20055 -10.838127 0.72501397
165.71509 -10.874572 0.729626
166.118 -10.887465 0.72402799
161.76718 -10.995513 0.52735698
163.8278 -10.826046 0.47915599
166.58069 -10.95209 0.57973099
167.66327 -10.892694 0.57275599
161.73886 -10.96451 0.357402
164.95776 -10.943965 0.38906199
165.81459 -10.853287 0.37640601
166.20061 -10.862029 0.29403001
166.5668 -10.884665 0.36887699
166.64459 -10.999959 0.28804201
160.00496 -10.811411 -0.18119401
163.82852 -10.807716 -0.095963001
165.00754 -10.991885 -0.102897
165.81548 -10.839172 -0.086856999
161.77287 -10.950446 -0.31077
166.23322 -10.857737 -0.228227
166.64603 -10.921927 -0.31297499
165.85091 -10.831375 -0.50969398
166.32388 -10.862179 -0.57879603
166.82178 -10.962782 -0.40487501
161.73613 -10.90321 -0.66173702
162.60013 -10.968203 -0.70545298
161.57234 -10.8043 -0.87944198
162.91086 -10.973171 -0.88954097
165.59586 -10.861015 -0.92203897
165.80952 -10.82478 -0.98562998
166.16949 -10.83919 -1.037071
166.64241 -10.892774 -1.010576
160.10187 -10.835674 -1.273041
166.93173 -10.996257 -1.399033
165.93227 -10.810518 -1.4421099
166.25565 -10.829088 -1.463184
166.57733 -10.929575 -1.477495
166.85931 -10.957636 -1.502035
161.77133 -10.902802 -1.902634
161.81146 -10.900578 -2.108938
166.61441 -10.88788 -2.195765
161.78799 -10.947033 -2.5766339
166.20853 -10.823248 -2.828316
166.64148 -10.817124 -3.374527
179.39258 -10.987146 -6.460186
160.37128 -10.721359 2.8855929
163.75824 -10.795952 2.933589
160.23134 -10.718863 2.748601
160.4371 -10.645945 2.6870649
170.11917 -10.692531 2.7357049
171.89812 -10.62384 2.7576001
162.31622 -10.758644 2.4578941
171.41937 -10.68853 2.587157
160.19569 -10.733879 2.2749801
163.1498 -10.746405 2.224643
163.37775 -10.750384 2.2690151
163.69283 -10.760765 2.301656
164.7464 -10.79916 2.336935
163.41141 -10.749596 1.674214
165.00012 -10.709 1.464282
160.36206 -10.708324 1.2432719
160.71555 -10.719379 1.253185
163.1579 -10.763071 1.397765
163.41798 -10.739038 1.396945
160.39209 -10.658569 1.044422
160.97067 -10.672431 1.0342439
161.4725 -10.748817 1.037115
162.60605 -10.760765 1.06376
163.46266 -10.771379 1.104676
160.60077 -10.62604 0.99238902
165.03348 -10.636868 0.81754202
161.32571 -10.606405 0.63987499
161.47615 -10.626072 0.73874098
161.66151 -10.761868 0.66680402
163.685 -10.766408 0.62617397
161.37408 -10.632366 0.54953402
161.47516 -10.673381 0.50696403
161.64735 -10.745302 0.52772999
163.36205 -10.691848 0.53211999
165.05026 -10.717652 0.563739
160.57426 -10.630935 0.32807001
161.08005 -10.64533 0.32230601
161.48105 -10.703411 0.33022201
161.61679 -10.756163 0.30337599
162.4281 -10.709021 0.357272
163.40987 -10.769557 0.36167699
163.65356 -10.782293 0.37992999
160.36623 -10.623379 -0.149554
161.50885 -10.651484 -0.076449998
164.86993 -10.750043 -0.122218
161.52072 -10.643372 -0.388926
161.68236 -10.758454 -0.26550001
162.34903 -10.633133 -0.32954001
162.59529 -10.759121 -0.30977699
163.14597 -10.75974 -0.26201099
163.29422 -10.746128 -0.300818
165.85553 -10.795984 -0.208022
164.91536 -10.767069 -0.40227199
161.38318 -10.612011 -0.68937898
161.65543 -10.731182 -0.73320401
162.50214 -10.700045 -0.68616998
161.65652 -10.727841 -0.915187
163.30865 -10.687677 -0.961236
166.15192 -10.795735 -0.95277202
165.79788 -10.783937 -1.056028
161.67209 -10.697884 -1.232807
162.51662 -10.646302 -1.247794
162.58237 -10.700459 -1.679284
163.4081 -10.629558 -1.8122211
166.45282 -10.790749 -1.828698
167.65265 -10.777773 -1.960783
161.68901 -10.685717 -2.141865
166.20772 -10.763408 -2.1908591
161.73169 -10.750574 -2.5080969
163.06058 -10.779875 -2.4422629
163.44322 -10.654045 -2.526967
163.68364 -10.663865 -2.5301499
161.68262 -10.659434 -2.768024
166.41617 -10.756411 -2.648807
161.67987 -10.643855 -2.9795711
165.06462 -10.743264 -2.9662189
161.48318 -10.610363 -3.1299579
166.43848 -10.756397 -3.266438
170.92682 -10.523548 2.7032011
177.82587 -10.580851 2.242734
160.349 -10.587404 0.49316001
160.64702 -10.56897 0.51020902
161.04074 -10.589782 0.51610702
162.6346 -10.572114 0.532049
161.35898 -10.579967 -0.178591
160.5571 -10.540058 -0.28508899
161.01372 -10.558496 -0.25457501
161.34218 -10.585602 -0.31395999
160.36824 -10.556276 -0.40426001
160.57019 -10.572786 -0.53225499
161.01605 -10.569718 -0.53834599
160.87088 -10.551458 -0.93360603
160.24107 -10.584488 -1.063835
160.46431 -10.523174 -1.069661
160.32669 -10.54817 -1.226799
160.61864 -10.521549 -1.256291
161.10187 -10.542972 -1.277245
161.42195 -10.569882 -1.236953
160.51799 -10.543148 -1.648926
160.98276 -10.576252 -1.668218
161.02319 -10.501314 -2.1147079
160.54553 -10.527931 -2.330229
160.4968 -10.501749 -2.4525499
161.10851 -10.545353 -2.5222771
161.46863 -10.587105 -2.5029161
169.6478 -10.56389 -3.0287089
160.60913 -10.527038 -3.2938249
161.01398 -10.543177 -3.3783879
162.6066 -10.587364 -3.4498539
160.37222 -10.541252 -3.8226371
160.69196 -10.538366 -3.843858
179.06223 -10.573745 -5.9142351
178.91347 -10.599283 -6.6715369
171.52679 -10.389669 2.7943799
177.45633 -10.36871 2.1780069
162.51187 -10.369816 -1.861901
177.98195 -10.015125 2.2062719
177.7466 -10.172668 1.3180079
171.05142 -9.7382298 2.7128401
177.23622 -9.6499481 2.197566
170.18452 -9.5594902 2.981452
172.54865 -9.4140511 2.751931
175.87889 -9.565197 2.458473
178.53043 -9.5716524 2.3858011
173.57417 -9.4931145 2.1513741
169.71176 -9.4858837 -2.895324
179.64308 -9.4486198 -6.239543
170.41962 -9.2345829 3.0061541
172.74539 -9.3645897 2.2453151
177.53513 -9.3875313 2.0782239
177.70529 -9.3729544 2.189265
172.70219 -9.0615501 2.76791
172.7972 -9.1030331 2.250896
173.56464 -9.1920509 2.276042
177.41385 -8.9283733 2.277024
178.17204 -8.8923931 2.2438631
177.88312 -8.6563292 2.1236479
160.63028 -8.766613 1.280378
178.17039 -8.5772781 2.1501629
177.48746 -8.3617287 2.1370089
177.69791 -8.31112 2.138092
172.11046 -8.0778522 2.5458701
178.84973 -8.0710297 -7.368371
171.26343 -7.880867 2.8630929
171.71109 -7.8450069 2.7890711
171.60989 -7.7864318 2.8852251
172.93842 -7.772141 2.504319
177.96063 -7.3971062 2.3060579
178.22491 -4.3311458 -4.5028582
179.05463 -2.1692281 -2.7277131
163.82655 -1.413325 -2.1906681
163.94382 -1.3662159 -2.535167
177.73997 -1.038744 -1.3494
179.27371 1.307037 -1.417119
163.89917 2.3226359 -0.032508999
160.89348 4.1519389 -0.015052
160.77429 5.0725818 3.8019481
176.54659 5.9608989 3.777637
179.73604 5.8302889 2.9103539
179.20406 6.1047678 3.2875979
177.942 6.1050138 2.9608979
170.29312 6.2886581 3.822474
165.40314 6.377625 3.7929139
164.00125 6.8449459 -0.051298998
168.2135 7.5302792 3.833184
160.68707 7.456573 3.631809
171.11865 7.528338 2.5687001
171.31415 7.6289949 3.44012
167.68852 7.7642002 3.195209
167.89897 8.0677376 3.205472
166.74249 8.116951 2.9473729
168.72409 8.6928406 2.2700241
163.94534 8.6434345 -0.26222301
174.26372 8.9203138 2.2014329
166.19131 8.8952684 2.1561639
166.94574 8.8307743 2.1901851
173.96736 8.9429512 2.191654
168.06897 8.9440594 1.451564
168.46184 8.9085331 1.461394
170.66705 8.910244 -0.175062
168.60161 8.9893837 -0.934475
169.11014 8.9431248 -0.95269102
166.50003 9.1338539 -0.102671
174.2574 9.1734867 -0.150333
176.08603 9.0954838 -0.184007
164.98036 9.3734884 1.227708
170.17587 9.3669758 0.773996
172.12988 9.2427616 0.78309399
173.39304 9.2864027 0.28797701
171.76825 9.2916737 -0.10652
172.31497 9.2817707 -0.116742
174.22369 9.2570858 -0.675861
174.71393 9.2402639 -0.69189799
175.02928 9.2301226 -0.70228499
175.35292 9.2134676 -0.712708
173.38507 9.2400007 -1.058933
174.09044 9.2095337 -1.086691
173.06177 9.2945709 -1.57683
173.82623 9.2735395 -1.618456
174.14349 9.2541246 -1.6352431
163.36258 9.4267569 0.38017899
163.10368 9.4905348 -0.96079803
163.44336 9.5041809 -0.914877
163.80809 9.4794836 -0.94966602
166.35233 9.4076385 -0.97307402
164.32036 14.238927 0.049855001
160.11557 18.204956 2.268276
164.86037 -19.993933 2.301578
165.47816 -19.866924 0.12544
165.38504 -19.802185 -0.139057
165.43254 -19.935856 -0.22294
165.35994 -19.83337 -0.44163501
165.45044 -19.819025 -0.73060602
165.66577 -19.980576 -1.541728
163.90384 -19.817986 -2.0655451
164.11359 -19.842434 -2.082588
165.43642 -19.864124 -4.1384711
175.83414 -19.863392 -9.4236155
165.42929 -19.770615 2.64118
165.89444 -19.655849 1.7099299
165.33536 -19.670216 -0.281629
165.33788 -19.699165 -0.49177
165.29697 -19.769972 -1.002548
164.9182 -19.659065 -2.20226
165.35318 -19.732752 -2.3072081
174.9942 -19.606766 -3.5806
175.89737 -19.684542 -6.4520411
165.51199 -19.433054 2.2719319
166.59731 -19.522194 1.963275
165.37241 -19.589134 -0.450589
165.4072 -19.504925 -0.50095099
165.24884 -19.509422 -1.023065
165.29712 -19.528442 -2.1937699
164.92792 -19.559093 -2.24386
166.58647 -19.581556 -2.7611091
174.98273 -19.464472 -3.4139199
176.71838 -19.456522 -3.9322979
176.17552 -19.415438 -6.0456738
176.68182 -19.570248 -6.0857139
165.4209 -19.344021 2.4243081
162.5705 -19.340115 2.290777
162.49719 -19.278877 2.082366
162.50311 -19.2342 1.93283
175.78082 -19.394009 -2.708096
160.07349 -19.000935 2.291059
160.00754 -19.009903 2.104512
162.58807 -19.07839 2.149389
160.1156 -19.003517 1.976455
162.46817 -19.102173 1.851468
160.1478 -19.031689 1.723766
160.24165 -19.042297 1.425956
179.67549 -19.058205 1.536483
162.30632 -19.030664 0.715523
162.40649 -19.087498 0.65069002
165.55124 -19.11064 -3.948195
177.8338 -19.089746 -4.1055779
175.33386 -19.112896 -4.9788198
177.84952 -19.024151 -4.865932
160.72446 -18.972439 2.674742
160.14938 -18.996363 2.49213
162.43246 -18.883968 2.3867631
174.40706 -18.996208 2.3610151
162.31201 -18.917667 2.121073
162.96207 -18.897511 2.158752
160.0433 -18.986706 1.884109
162.33646 -18.937508 1.893133
163.00623 -18.923582 1.887611
160.11534 -18.97266 1.678933
162.35431 -18.952293 1.638814
162.30573 -18.937321 1.090752
160.05009 -18.894152 0.95242798
162.30327 -18.931305 0.96043098
162.49873 -18.967571 0.91604799
162.29254 -18.939194 0.69304901
162.49954 -18.900465 0.70085597
162.46838 -18.928116 0.49476999
163.02164 -18.838844 0.44517899
162.30632 -18.933723 0.24926201
162.21347 -18.861006 -0.092246003
162.18063 -18.802521 -0.35431099
162.20837 -18.834328 -0.86361802
162.24138 -18.83198 -1.860844
162.35304 -18.865841 -2.3424029
175.72343 -18.978323 -2.5122969
162.20685 -18.846014 -2.8985641
175.35057 -18.896477 -3.7549059
175.36555 -18.861015 -4.2682018
176.1548 -18.985584 -4.684741
162.12971 -18.859337 -4.9955859
162.33459 -18.797747 2.5105309
164.8924 -18.610777 2.479058
161.85741 -18.627453 2.1037591
162.28317 -18.753033 2.1635611
165.94711 -18.788469 2.1213319
161.93085 -18.63459 1.88743
162.15689 -18.738922 1.8984489
162.99297 -18.795773 1.770008
174.7124 -18.634295 1.511362
162.94936 -18.787075 1.318505
162.73544 -18.707621 1.028051
162.86917 -18.766659 1.028662
162.16788 -18.684105 0.944242
162.17822 -18.765415 0.503748
162.62372 -18.746826 0.56343299
162.99013 -18.765326 0.460769
162.18718 -18.641813 0.25045699
163.00743 -18.612988 0.23859
162.65024 -18.706432 0.16997001
162.22128 -18.709789 -0.123105
162.1097 -18.60825 -0.675327
162.104 -18.731348 -1.158788
162.14566 -18.771793 -1.24142
162.26102 -18.697636 -1.3750809
162.06601 -18.693924 -1.740019
162.24805 -18.672895 -1.7571549
175.39867 -18.678406 -3.4174631
177.8851 -18.688704 -3.7366159
161.91139 -18.715982 -5.0051332
164.23781 -18.489538 2.267844
164.53468 -18.55851 2.2501099
171.74252 -18.521042 2.2968969
161.85306 -18.409 2.0832419
174.4373 -18.487164 2.0788529
161.905 -18.476446 1.92372
162.27869 -18.501526 1.876665
161.9498 -18.568138 1.730726
162.3038 -18.487505 1.747677
162.31689 -18.527897 1.458245
161.96594 -18.451523 1.116905
162.29187 -18.459045 1.074303
175.12798 -18.479713 1.051316
162.08038 -18.486118 0.92307597
161.9881 -18.417271 0.67879897
162.12848 -18.568302 0.428029
162.32085 -18.569059 0.475449
162.11414 -18.414228 0.30298299
163.04797 -18.5093 -0.57754099
163.25237 -18.587265 -0.52449
162.12268 -18.543028 -0.91735798
175.61546 -18.461988 -1.099267
160.00839 -18.500584 -1.742594
162.09229 -18.521074 -1.779894
175.56232 -18.585691 -2.236187
161.99155 -18.579681 -3.0349071
177.59137 -18.496283 -3.467473
175.7117 -18.468861 -3.7125411
161.91608 -18.592876 -3.824409
179.09558 -18.528477 -3.842345
176.38139 -18.544567 -5.327076
178.03954 -18.590958 -5.2223258
161.5713 -18.362335 2.459074
164.11238 -18.293715 2.2370069
166.57686 -18.223808 2.342402
161.72972 -18.290327 2.163429
161.8541 -18.384665 2.0308149
161.93114 -18.325783 1.889395
162.05687 -18.204006 1.843928
178.22937 -18.259586 1.920846
162.01773 -18.244572 1.648149
179.44521 -18.248079 1.696722
174.67468 -18.205868 1.0593621
161.92253 -18.308002 0.92348701
162.07132 -18.331615 0.95315701
161.95322 -18.301956 0.73391497
162.0323 -18.249382 0.79033601
161.96011 -18.293877 0.51203603
162.10492 -18.349812 0.45946601
162.21893 -18.370316 0.55035198
175.27631 -18.306755 0.540057
160.48991 -18.329979 0.253959
161.93958 -18.297169 0.28114599
162.14229 -18.322044 0.33678001
161.92894 -18.21347 0.072042003
162.04561 -18.327377 0.15958001
161.96164 -18.298029 -0.12738299
162.10164 -18.304838 -0.240529
161.91362 -18.302326 -0.64509702
162.13152 -18.309408 -0.66410601
162.14365 -18.332685 -1.392539
162.12186 -18.319653 -1.446268
160.0088 -18.292297 -1.832016
175.39331 -18.23613 -2.0047629
176.13397 -18.368446 -2.9524491
175.44228 -18.214809 -3.493609
174.95277 -18.302635 -4.2754278
163.94318 -18.171841 2.3504241
168.70325 -18.18519 2.3126791
161.74484 -18.053303 2.1244061
161.89697 -18.108192 1.9053611
169.063 -18.01902 1.980605
162.04123 -18.170689 1.665925
161.89716 -18.033726 1.504827
162.08429 -18.101229 1.064376
174.61963 -18.195124 1.004678
162.27626 -18.102165 0.451087
174.91031 -18.199049 0.53279299
174.9463 -18.046402 -0.46981299
175.04297 -18.06423 -0.559901
161.91605 -18.085705 -1.13635
175.09601 -18.071379 -1.01635
161.92664 -18.105785 -1.2827179
161.91406 -18.056192 -1.690928
160.42816 -18.184385 -1.912927
162.20958 -18.124023 -1.896788
161.95265 -18.05196 -2.22122
160.03749 -18.165134 -2.579201
160.2971 -18.173685 -2.6590371
162.29257 -18.081333 -2.6745811
175.54929 -18.100525 -2.940057
162.52054 -18.102501 -3.4397221
162.24374 -18.092548 -4.247241
175.24246 -18.170002 -4.389205
175.21838 -18.120647 -4.5813069
162.24957 -18.027235 -4.7005801
161.0507 -17.966492 2.6350219
165.93481 -17.968552 2.5531299
160.26524 -17.816437 2.185698
161.76071 -17.836483 2.1761241
171.50458 -17.935368 2.1033411
161.883 -17.979027 1.8717459
174.71721 -17.950857 1.874782
179.29979 -17.868141 1.855482
161.89784 -17.892159 1.717322
174.90179 -17.891216 1.737893
162.67267 -17.869362 1.06621
161.99632 -17.816338 0.94821799
162.04283 -17.865976 0.91330099
175.22675 -17.801517 0.63539898
162.27454 -17.86422 0.53099799
162.19875 -17.806919 0.26374501
175.13173 -17.988434 0.297288
161.93266 -17.975063 0.028992999
161.97862 -17.975618 -0.197791
161.94315 -17.966396 -0.71113098
161.91396 -17.994186 -0.99690998
161.88162 -17.977699 -1.118112
161.92857 -17.915279 -1.271026
161.88199 -17.955299 -1.659182
175.11342 -17.975225 -1.757706
160.12221 -17.946888 -1.938074
175.04932 -17.819477 -2.474031
160.35139 -17.926201 -2.741755
174.13422 -17.920897 -3.4175639
175.07404 -17.859398 -3.4627731
162.41974 -17.989124 -4.421371
175.14594 -17.933901 -4.5076761
177.36197 -17.944668 -4.410573
175.26299 -17.880026 -5.0858889
174.4917 -17.646971 2.4699011
160.12349 -17.765915 0.10652
162.11554 -17.705158 -0.125113
175.2735 -17.7864 -0.21061
160.16464 -17.734074 -0.44348201
175.07578 -17.697569 -1.237013
176.13338 -17.717234 -1.446232
176.4274 -17.688284 -1.739483
161.86456 -17.788589 -2.1224179
162.08492 -17.748449 -2.630861
174.9794 -17.729244 -2.6653171
174.98068 -17.769779 -2.890398
175.05923 -17.776728 -3.0432301
160.03845 -17.62414 -3.271666
174.9765 -17.650618 -3.540781
160.03465 -17.58481 2.048764
169.3576 -17.484032 2.135649
162.23651 -17.519993 -0.58760703
175.36104 -17.51368 -0.57670403
175.96156 -17.526764 -1.23023
162.22839 -17.51206 -1.893865
175.07117 -17.507488 -1.971825
160.08211 -17.546959 -2.251693
162.22733 -17.404047 -2.5903251
175.04062 -17.499683 -2.5886929
176.0914 -17.413723 -2.508512
175.17239 -17.462563 -2.758878
175.10788 -17.574705 -3.526134
175.08163 -17.592632 -3.660713
175.5672 -17.481747 -4.5336261
177.45514 -17.364491 2.455653
168.89786 -17.396267 2.1228211
162.37598 -17.393137 -2.184834
162.41318 -17.386269 -2.3239329
162.31927 -17.347294 -2.655462
175.95169 -17.365479 -3.665328
176.15114 -17.248886 -4.4786892
161.94087 -17.375154 -5.445426
166.25742 -17.021336 2.5061691
177.33972 -17.103516 1.851671
175.01505 -17.003664 -4.4871931
175.75482 -17.054428 -4.4686999
175.67142 -17.154654 -5.1587281
175.71362 -17.141975 -5.8000021
177.35403 -16.913527 2.286263
176.1684 -16.636234 2.4205019
171.2785 -16.657032 2.3433599
176.15082 -16.668915 2.2876289
175.94341 -16.72345 -4.4553871
174.84822 -16.762447 -5.013114
170.23448 -16.5249 2.5216761
175.9386 -16.482302 2.4881539
178.81886 -16.430248 -4.9634099
175.91409 -16.518562 -8.5502729
162.88568 -16.249437 2.7065129
177.04295 -16.329376 2.4557531
160.403 -16.32155 1.792999
177.06306 -16.387863 -4.618907
174.44142 -16.284737 -5.1756868
176.64487 -16.338139 -5.3672161
169.6763 -16.172634 2.888979
171.38988 -16.098467 2.690866
174.65147 -16.172565 2.502912
174.72339 -16.089045 -5.722898
170.07307 -15.933215 2.9000001
176.17334 -15.941081 -4.1436858
176.96326 -15.639538 2.50932
177.31575 -15.722238 2.3866539
160.73029 -15.450987 2.7456579
170.33173 -15.434706 2.784528
175.43257 -15.558011 2.5871401
177.40732 -15.517487 -5.4566679
177.13298 -15.587635 -5.7065759
161.56937 -15.383041 2.812938
178.15689 -15.388273 -4.9413738
170.2005 -15.145714 2.88149
160.15253 -15.014078 2.763927
161.03883 -15.0182 2.6882279
165.95853 -15.08567 2.605967
177.09457 -15.112103 2.360563
164.95073 -14.899868 2.7933969
166.54724 -14.846159 2.644047
177.00702 -14.979443 2.5175569
178.97095 -14.910084 2.447376
169.43921 -14.750755 2.852855
162.46254 -14.529852 2.70347
163.46054 -14.550908 2.7784159
163.80797 -14.476341 2.794522
161.64998 -14.260069 2.665246
163.79919 -14.275862 2.7568691
168.25328 -14.2116 2.7535591
167.83989 -14.088851 2.8244801
161.17239 -14.085689 2.5860951
174.34949 -14.024432 -2.742521
178.20245 -14.167444 -5.7174988
162.03058 -13.916948 2.6384809
170.77602 -13.824356 2.670202
164.59406 -13.951313 2.5002849
178.27025 -13.973186 -5.704402
163.61757 -13.773033 2.6657541
173.36795 -13.71376 -2.7911439
175.45709 -13.622438 -5.587419
168.24518 -13.460459 2.830795
168.10603 -13.501419 2.6693311
173.79761 -13.510418 -3.3008981
175.13914 -13.547901 -4.160358
178.03688 -13.477023 -6.3219409
162.58823 -13.074786 3.0560989
163.51991 -13.191942 3.0148029
172.0929 -13.021927 2.32286
169.77094 -13.000835 -2.9833319
176.21635 -13.077204 -3.0708439
179.30969 -13.068174 -4.7711201
160.01163 -12.868635 2.977484
167.83298 -12.913961 -2.9537599
167.71957 -12.88679 -3.063132
168.62053 -12.895344 -3.0015531
169.03192 -12.969282 -3.025238
164.31406 -12.837269 -3.2632661
168.25974 -12.863039 -3.392648
169.40233 -12.978615 -3.503
166.66266 -12.856409 -3.8254261
175.23694 -12.911172 -4.3835788
167.54251 -12.82678 -4.4146862
167.81224 -12.842704 -4.5766959
168.49797 -12.810184 -5.1685052
177.76837 -12.885632 -6.3069272
162.21324 -12.616736 -2.9495969
164.68811 -12.666755 -2.964632
162.56857 -12.616779 -3.1024041
162.95311 -12.652576 -3.0888791
164.98404 -12.751576 -3.0427091
161.91782 -12.638907 -3.227427
162.16193 -12.661306 -3.2598779
163.74088 -12.701366 -3.2902939
164.5825 -12.713745 -3.281956
160.75894 -12.60515 -3.427381
163.44144 -12.663721 -3.4070189
165.1499 -12.743216 -3.4838891
163.08313 -12.669708 -3.7938859
163.6844 -12.675297 -3.9044671
166.05492 -12.781506 -3.8300591
165.04021 -12.723712 -4.1021481
166.53925 -12.768568 -4.242208
167.48129 -12.778386 -4.2530031
168.08139 -12.770332 -4.368228
163.68237 -12.682885 -4.591176
164.58444 -12.658727 -4.5675082
165.88017 -12.656227 -4.8957958
167.12334 -12.649399 -5.4554172
168.44014 -12.603498 -5.4897089
167.23318 -12.766651 -5.7572021
179.06802 -12.688452 -5.7812362
169.00618 -12.598636 3.4721661
175.07196 -12.529304 2.4668779
172.59833 -12.498611 2.2675271
162.06464 -12.593254 -3.3684521
163.33539 -12.55224 -3.439033
169.57712 -12.556168 -3.5487299
161.86206 -12.558195 -3.854738
160.93442 -12.52573 -4.1990151
162.63896 -12.529704 -4.1299772
161.49557 -12.521624 -4.5546112
160.93182 -12.490695 -4.9256892
164.71384 -12.544481 -4.962966
163.4639 -12.579664 -5.3665571
167.15814 -12.484798 -5.7857399
168.44066 -12.543447 -6.2858481
165.4617 -12.21101 3.0966589
166.93048 -12.219434 3.1443889
167.28223 -12.342316 3.166944
169.64487 -12.275325 -2.9873021
165.30852 -12.280926 -3.680373
167.80119 -12.381779 -3.60203
163.84389 -12.355512 -4.9694419
162.00522 -12.372543 -5.0385022
166.48979 -12.360548 -5.0390372
166.97639 -12.216827 -5.7986698
168.44553 -12.277217 -6.3250651
166.97964 -12.216222 -6.6000118
161.27911 -12.388912 -7.4275818
161.08133 -12.155541 3.1121621
165.44971 -12.150644 3.095463
172.99777 -12.151098 2.4763
173.3208 -12.035183 2.427186
172.60231 -12.181524 2.3430669
168.34146 -12.035959 2.0689781
168.34201 -12.093848 0.78895098
168.43532 -12.106017 0.188752
168.47699 -12.039741 -2.8273709
162.09929 -12.133734 -5.4249449
164.72835 -12.017248 -5.619451
161.5603 -12.007965 -6.0175252
164.7677 -12.144972 -6.406846
163.42813 -11.819483 2.7473831
170.37639 -11.970238 2.6122389
163.34593 -11.826736 2.4433169
168.31192 -11.846046 2.5830531
168.42213 -11.905296 2.4990721
168.28816 -11.907994 2.3196161
168.45831 -11.913172 2.2459919
168.53084 -11.974905 1.713092
168.23586 -11.834882 1.128816
168.49182 -11.898463 1.104864
163.40016 -11.8012 0.457416
168.82059 -11.907047 -0.55723602
168.61113 -11.892143 -0.65000898
168.50174 -11.871067 -0.93402803
168.61024 -11.877182 -2.1758621
168.43585 -11.879105 -2.9839771
169.67528 -11.801807 -2.942028
169.58356 -11.835602 -3.095283
161.50281 -11.849133 -3.6363521
160.76358 -11.964796 -5.5579262
164.69061 -11.886242 -6.2487068
164.76912 -11.849842 -6.4377189
160.66853 -11.606544 2.860625
162.20174 -11.601442 2.7621169
162.48138 -11.611839 2.7881529
163.29263 -11.696686 2.1078849
172.668 -11.707249 2.1607909
172.94287 -11.711005 2.142931
168.13297 -11.755782 1.83666
163.36925 -11.759682 1.749377
163.73645 -11.764101 1.757651
163.15479 -11.643555 1.388559
163.32051 -11.697056 1.340332
163.19316 -11.640348 1.076553
163.29251 -11.692915 1.114024
163.3024 -11.728674 0.92461503
168.34933 -11.772379 0.52736503
168.2429 -11.75725 -0.183238
163.38852 -11.681479 -0.25007901
163.41646 -11.735544 -0.51344198
168.25871 -11.741452 -0.53440702
163.36763 -11.664318 -0.69240803
163.47052 -11.664321 -0.87792301
163.60962 -11.681219 -0.85285002
168.27388 -11.727809 -0.98594099
163.31424 -11.63786 -1.898347
168.28806 -11.765751 -1.817569
168.27911 -11.651768 -2.189229
168.30135 -11.774935 -2.741631
166.31482 -11.695517 -3.6987491
176.91409 -11.702708 -6.22436
160.11617 -11.581461 3.0339849
160.62778 -11.484276 2.9474919
160.8629 -11.570505 2.9707761
161.64143 -11.540615 2.9354489
162.46867 -11.504986 2.907125
163.14697 -11.518379 2.862489
160.65955 -11.470103 2.5152581
172.53638 -11.528811 2.5309441
161.39778 -11.430295 2.3087039
162.27974 -11.421732 2.2183471
172.92328 -11.586527 2.202708
162.34476 -11.43621 2.0752821
162.55783 -11.432816 2.121892
163.16806 -11.51454 2.191792
163.22675 -11.568499 2.09745
168.25259 -11.544456 1.8964731
163.21375 -11.518693 1.703596
163.11852 -11.476967 1.15465
163.25542 -11.530956 1.130742
168.24286 -11.519305 1.076582
163.37437 -11.527983 0.61450303
163.15387 -11.460712 -0.159888
168.13916 -11.519703 -0.18237901
167.17355 -11.418507 -0.51138598
167.02213 -11.405684 -0.67859203
163.274 -11.590937 -2.486856
168.23936 -11.502678 -2.6202071
166.22833 -11.500773 -3.696876
160.16812 -11.332699 2.488008
160.57794 -11.263464 2.4446609
160.71519 -11.255972 2.477026
161.0453 -11.333637 2.480526
161.36882 -11.398044 2.4847929
161.78519 -11.267 2.4849
164.14343 -11.280018 2.5669191
164.99937 -11.26968 2.4104061
160.16608 -11.258284 2.23364
160.58736 -11.259809 2.2744679
161.12177 -11.3894 2.3275411
161.31744 -11.295059 2.2418089
161.8978 -11.348213 2.2607319
166.90042 -11.32035 2.39692
161.03221 -11.27289 2.180923
162.19716 -11.356742 2.1992359
161.35341 -11.229977 1.844568
165.02748 -11.339495 1.94019
161.68465 -11.279771 1.734602
162.29337 -11.358262 1.691678
165.33081 -11.381914 1.748378
162.26178 -11.280942 1.510959
161.62112 -11.297237 1.386608
167.01352 -11.364677 1.311024
161.89215 -11.256349 1.091089
162.54756 -11.240178 1.099201
164.67758 -11.341048 1.123064
165.05452 -11.354116 1.105263
166.95175 -11.32468 1.09364
165.31877 -11.28529 0.52567399
162.66722 -11.233578 -0.059039999
161.86864 -11.22015 -0.514368
165.36893 -11.312504 -0.563658
162.63846 -11.206873 -0.66543603
164.22458 -11.236467 -1.36675
167.01721 -11.311937 -2.113867
167.11339 -11.396954 -2.3291409
166.99074 -11.282251 -2.545532
165.2178 -11.301169 -2.644558
164.23647 -11.230734 -3.2568581
167.05467 -11.285886 -3.3930089
166.48431 -11.071085 2.9821801
170.49968 -11.137584 2.904844
160.22812 -11.089933 2.574801
160.60057 -11.181212 2.5393341
166.85716 -11.135495 2.4284339
160.64696 -11.165493 2.204078
160.81396 -11.179741 2.244802
160.15431 -11.087365 2.195642
160.51523 -11.140692 2.192384
160.67477 -11.141029 2.0320301
166.86386 -11.110298 2.0424421
160.30856 -11.146008 1.8487051
160.30853 -11.116887 1.7469389
160.69293 -11.029467 1.7354749
160.98166 -11.138208 1.7073129
161.04454 -11.069744 1.7008491
166.86885 -11.137712 1.75047
160.96318 -11.044462 1.432837
161.71336 -11.140448 1.44689
164.14575 -11.043331 1.452602
161.42488 -11.072587 1.371097
166.49869 -11.039587 1.3930219
167.3013 -11.096066 1.201179
162.48593 -11.109074 1.0945981
164.18634 -11.006638 1.125753
161.7569 -11.07946 0.87877601
165.00096 -11.120248 0.95564002
166.53706 -11.086937 0.73000902
161.87625 -11.070488 0.48934701
162.16431 -11.093076 0.54532897
166.90666 -11.121207 0.494923
166.90613 -11.090394 0.21964601
161.74179 -11.080194 -0.148138
167.37772 -11.146204 -0.043216001
166.55971 -11.033779 -0.397939
161.81853 -11.171329 -0.44810599
162.6972 -11.110699 -0.70675099
166.52965 -11.002275 -0.94099402
166.89786 -11.067181 -0.93661898
161.78624 -11.150227 -1.075642
161.78955 -11.020934 -1.279304
161.78868 -11.131452 -1.465836
162.66248 -11.085871 -1.492797
165.04935 -11.110348 -1.710313
161.84149 -11.16835 -2.1527021
164.61536 -11.11575 -2.0463059
166.93854 -11.007219 -2.19768
161.87471 -11.129442 -2.3470731
161.87994 -11.091955 -2.4903629
161.83176 -11.080761 -3.09219
165.06444 -11.024251 -3.314816
160.58362 -11.195276 -3.758075
179.41927 -11.053114 -6.349894
163.76543 -10.88621 2.9175241
164.93475 -10.971624 2.638835
163.69112 -10.876364 2.5948451
165.53589 -10.804451 2.5214951
165.8446 -10.875947 2.5343001
166.27913 -10.894982 2.5210271
166.50635 -10.941452 2.508111
171.79562 -10.957109 2.523782
163.83279 -10.872828 2.2904739
165.51361 -10.919743 2.390378
165.77896 -10.892385 2.33236
166.18124 -10.910469 2.3364141
166.48279 -10.993382 2.2826741
171.7762 -10.837262 2.3067391
163.42252 -10.881247 2.1232359
164.68309 -10.841719 2.1203051
164.96115 -10.892935 2.1254549
163.04575 -10.897956 1.651754
163.4104 -10.835701 1.709268
160.72652 -10.813801 1.4569499
160.87318 -10.957396 1.254218
167.6539 -10.929476 1.386034
161.67746 -10.995895 1.1788501
163.69821 -10.819308 1.086874
165.58887 -10.909809 1.040694
165.72467 -10.89452 1.10694
166.19238 -10.872511 1.147935
166.51923 -10.984261 1.158644
161.69136 -10.842445 0.73838401
165.33517 -10.930688 0.60975403
166.20947 -10.913028 0.60673499
165.92087 -10.890416 0.53917402
166.70685 -10.962175 0.52152997
167.7012 -10.909716 0.30984801
163.55676 -10.804665 0.118969
163.86478 -10.801806 0.001953
165.56934 -10.88938 -0.094067998
165.77625 -10.855022 -0.173059
166.19012 -10.860676 -0.206458
167.65744 -10.866829 -0.207489
166.18861 -10.919534 -0.57628202
165.89742 -10.856082 -0.66914302
166.77206 -10.955679 -0.72470498
165.57541 -10.853785 -0.89170498
163.98776 -10.805561 -1.238881
166.8791 -10.949321 -1.486629
166.89571 -10.93145 -1.845585
166.26404 -10.809595 -2.649931
166.6347 -10.890041 -2.7428341
169.72092 -10.965748 -2.995616
168.33997 -10.914472 -3.5349281
169.72948 -10.952229 -3.447896
169.8792 -10.617929 3.2727909
160.11469 -10.665038 2.5709751
165.46591 -10.768661 2.5685649
165.77733 -10.789593 2.5704939
166.18217 -10.786972 2.5747001
163.39534 -10.755845 2.20748
163.12427 -10.768799 2.0694039
163.32407 -10.733482 1.845222
165.59863 -10.795528 1.987449
160.09344 -10.606682 1.733638
178.11411 -10.700079 1.739966
163.40118 -10.747661 1.433432
160.26093 -10.643803 1.226501
160.49951 -10.601505 1.216922
160.88251 -10.740893 1.268747
163.09702 -10.751859 1.370977
160.32068 -10.662766 1.061581
160.61353 -10.665463 1.102695
161.01353 -10.690681 1.1163729
161.35741 -10.720603 1.0931309
161.48732 -10.709261 1.1158971
161.61833 -10.792738 1.019055
162.55582 -10.682865 1.182678
163.01508 -10.692084 1.134382
163.32651 -10.675424 1.187007
165.4761 -10.772882 1.187583
165.77991 -10.769716 1.1633739
166.20024 -10.782578 1.181568
161.66989 -10.716565 0.69043601
162.88852 -10.674294 0.61390799
165.52385 -10.78998 0.72059202
160.63416 -10.654343 0.52541202
160.99864 -10.658859 0.56835502
161.3497 -10.645853 0.51584297
161.53116 -10.667675 0.51719701
161.75537 -10.732124 0.58450103
163.40147 -10.769552 0.49617401
165.87381 -10.799416 0.55712199
162.21947 -10.613264 -0.16445801
165.82329 -10.745527 -0.184788
166.15128 -10.745223 -0.181058
160.63206 -10.617897 -0.512389
160.96484 -10.611218 -0.56997901
161.28253 -10.638551 -0.53171003
161.51852 -10.695758 -0.45406699
166.36755 -10.786472 -0.49197701
165.83212 -10.782154 -0.62160802
161.4687 -10.659586 -0.87413198
164.90425 -10.769024 -0.953776
163.67921 -10.728649 -1.017485
165.80573 -10.733197 -1.079199
162.37579 -10.636385 -1.571556
165.88463 -10.728443 -1.4961179
161.75476 -10.73388 -2.10303
163.44922 -10.621051 -2.1950459
163.70654 -10.661068 -2.2046151
166.31953 -10.779612 -2.9131751
