# .PCD v0.7 - Point Cloud Data file format
VERSION 0.7
FIELDS x y z
SIZE 4 4 4
TYPE F F F
COUNT 1 1 1
WIDTH 113
HEIGHT 1
VIEWPOINT 0 0 0 1 0 0 0
POINTS 113
DATA ascii
160.16801 20.602406 3.155163
160.12344 21.438726 1.453441
160.58813 21.632092 2.335012
160.27473 21.71184 0.59978098
160.29453 21.695543 -0.25614199
160.60147 22.589243 2.3499069
160.2641 22.827354 3.2392421
161.42776 23.508293 -1.315743
161.5267 23.615662 0.54018098
160.98164 24.436443 -0.428994
160.48199 24.647388 3.315866
160.21466 24.805553 4.2505832
160.51608 25.69936 3.3561261
161.41208 27.406641 -1.579893
160.20354 31.377953 0.104607
160.09392 31.99786 3.519702
160.3132 34.502556 -1.1383131
160.29579 37.431473 -1.311245
179.1665 37.774254 1.734193
160.43147 38.063965 3.9049981
160.27094 39.206387 4.051621
160.12503 20.497887 1.460441
160.10144 20.710768 2.2988069
160.53979 20.865566 4.0468421
160.80121 21.512383 -1.178273
160.57167 21.651279 3.2124641
160.07416 21.765566 3.1681199
160.62912 21.686354 -1.121528
160.58664 22.090248 2.3418059
160.27373 22.007982 -0.27125999
160.55574 22.554028 3.243758
160.27563 23.391857 3.2602241
160.99501 23.509863 -1.247478
160.30624 24.527143 4.2398281
160.59862 24.703377 0.49614999
160.86674 24.606888 -1.3874151
160.58806 25.227299 3.342159
161.388 26.334496 -1.506788
160.1089 28.274954 -0.79776198
160.48291 28.249369 -0.79544699
160.10876 29.027534 3.391614
160.81668 30.691692 0.121248
160.84892 31.109455 0.112188
160.80385 31.157467 -1.0172319
160.2515 31.275614 -0.97899997
160.37268 34.281403 -1.165185
160.72945 34.274216 -1.166939
160.16339 35.167648 3.7606061
162.05411 36.783092 3.447686
161.95288 36.87426 3.373755
160.8425 37.32732 -1.2984281
161.87372 37.4226 3.4889319
160.20718 39.399429 3.9578509
160.23361 20.112383 3.9493129
160.10046 20.705906 3.9719479
160.01945 20.81686 3.1335559
160.05899 21.145189 3.9926879
160.5408 21.212223 4.0661521
160.05913 21.478121 4.0105581
160.56097 21.446241 0.59638798
160.06316 21.797758 4.0280352
160.72653 22.317982 -0.331568
160.44269 22.68095 3.2427261
160.77425 23.158432 0.53943598
160.74359 23.295353 -0.377094
160.75078 23.553474 4.1334209
160.46765 24.700504 -1.392215
161.37003 27.586147 -0.57431298
160.29953 31.066944 0.111665
160.27597 34.261395 0.043366998
160.00056 35.361794 3.664794
162.06744 36.352421 -0.25985399
162.4509 36.562252 1.788041
162.22122 36.531063 1.336193
160.3934 37.164955 1.219833
160.30896 37.317398 -0.059737001
160.63089 37.345081 -1.2980109
160.30534 37.405613 1.219256
160.25746 37.954617 3.990483
160.13051 38.207352 3.90571
160.08134 39.798912 3.9736819
160.12041 20.196541 1.462554
160.12512 20.958799 1.457022
160.31097 21.081493 0.61785197
160.07149 21.397644 2.306468
160.81889 21.352135 -0.28607199
160.66542 21.575974 -1.181806
160.2847 21.827986 -1.1298831
160.57407 22.117096 3.229095
160.25488 22.026228 0.59073597
160.22487 22.50605 3.225754
160.34763 23.060738 3.164603
160.85605 24.436913 0.507442
161.35442 24.452721 -1.37909
161.35744 24.612358 -0.57304502
160.53142 20.628372 4.0331941
160.08331 21.086941 2.3029089
160.57977 21.013559 2.325532
160.80357 21.373123 0.58654797
160.68742 21.449192 -0.291336
160.08456 21.732496 2.311424
160.54593 21.824959 4.1006551
160.20679 23.69371 3.2678649
161.53851 24.121372 0.52717698
160.58798 24.681383 -0.44301701
160.11255 20.123285 2.291775
160.43573 20.685787 3.171634
160.70227 21.742815 0.57518399
160.65852 21.735439 -0.30482399
160.341 22.694984 3.1512229
160.63408 22.883041 4.165452
160.62848 23.671013 4.133213
161.51022 24.228096 -1.36465
