# .PCD v0.7 - Point Cloud Data file format
VERSION 0.7
FIELDS x y z
SIZE 4 4 4
TYPE F F F
COUNT 1 1 1
WIDTH 179
HEIGHT 1
VIEWPOINT 0 0 0 1 0 0 0
POINTS 179
DATA ascii
162.50711 46.541862 3.505733
166.57387 40.64687 3.691026
163.90982 46.131516 -0.60444498
162.35471 46.81815 4.8547468
162.37585 46.963341 3.4423089
162.12572 47.040356 4.3958278
161.89168 47.364151 4.49999
161.87122 47.408009 4.3787909
161.79608 47.659004 4.3734422
161.3636 48.20277 4.5731692
161.39148 48.219734 4.346417
161.43994 48.369488 3.8418059
161.23077 48.488499 4.7875271
161.30356 48.452114 3.875771
161.45 48.520737 3.5250189
161.25067 48.619194 4.3365541
160.97403 48.934593 4.3182321
161.09544 48.941036 3.3374701
160.63698 49.374928 4.2957859
160.57628 49.530361 4.7486138
160.74197 49.451817 3.2297909
160.38535 49.744972 4.39217
160.46106 49.662239 4.2839441
160.25534 50.023666 4.729485
160.18546 50.016457 4.3780351
161.04634 50.131023 2.553591
160.97096 50.37175 -2.6810541
163.36169 50.724693 -0.65919799
163.71014 51.125816 1.00962
161.34351 51.046089 -0.70023298
164.15837 51.022137 -0.61850601
163.20477 51.525528 0.792328
162.00122 51.878735 0.788661
163.13882 53.094273 -0.76841402
163.28665 45.381123 4.1677651
162.45044 46.844753 3.8925819
165.62659 46.99184 1.2952631
162.76819 46.815468 -0.251333
162.8712 46.841187 -0.80013001
161.49408 47.142628 0.25669199
161.896 47.43856 4.8271222
161.71104 47.784832 3.3626411
161.62668 47.977997 3.788305
161.46489 48.151447 4.617424
162.43524 48.192497 1.4092309
161.33206 48.296486 4.3053422
161.27077 48.581512 4.1569281
160.93491 48.886665 4.431479
163.68828 49.696869 -2.2754769
160.19733 50.164314 4.5638518
161.02933 50.144402 2.704062
160.76422 50.15596 2.585835
160.13788 50.516792 2.7235301
161.16585 50.805286 -1.5081199
164.36766 50.93597 -1.471016
161.3732 51.067406 -0.67556
161.40047 51.279007 -0.38695201
161.39832 51.21933 -0.45218
163.23933 51.474426 0.71912497
160.82048 51.799576 -2.1122069
163.30777 53.108532 -2.852633
163.28458 53.249451 -3.077045
177.30302 59.605614 -3.626374
160.29991 40.39016 -0.077687003
160.70229 40.24334 -0.25803
166.38341 40.917557 3.6737821
163.62938 44.812553 4.4319391
163.68004 44.849579 4.1878161
163.41006 45.054108 4.4821281
163.47714 45.030544 4.233839
163.33138 45.297668 4.5711179
162.89651 46.083046 3.3921161
162.75226 46.392143 3.691648
162.43491 46.720505 4.1249681
162.61267 46.619289 3.6842201
162.51082 46.63171 3.534044
163.58371 46.759403 -0.92041999
163.41528 46.881279 -1.034287
161.93143 47.38089 4.4994259
162.0054 47.379494 -0.21940599
161.93887 47.272072 -0.96115297
162.04077 47.446342 3.464977
161.7328 47.667801 4.4884129
160.65462 49.44231 4.6208749
160.63297 49.427742 4.2851281
160.41867 49.826801 4.4166288
160.33482 49.858246 4.2781248
160.42459 49.952 3.7277601
160.77631 49.838211 -3.975929
160.67014 49.94923 -4.233954
163.47177 50.165146 -1.437583
160.23969 50.233543 3.7183831
161.01169 50.37809 -2.6716609
160.48862 50.437416 2.97154
160.97935 50.454067 -2.665071
163.38425 50.722965 -0.63129401
164.0387 50.971615 0.17192601
163.35078 50.868706 -0.54923302
161.3179 50.969994 -1.068962
164.27385 51.045017 -1.126918
163.63248 51.345039 1.373462
160.94214 51.576332 -1.327235
163.2308 51.612869 1.0798579
161.18613 51.649292 -0.89379603
161.55428 52.067043 -2.9857349
163.2608 52.891228 -1.0618401
160.57527 40.159546 1.159573
166.7403 40.263424 3.5575969
160.48732 40.407715 -1.437734
160.32007 41.859512 4.182044
162.99945 45.884388 3.8130021
162.87086 46.81728 -0.42427599
162.09164 47.310638 3.8120141
162.06979 48.11113 1.399911
161.46922 48.303669 3.8014579
161.22577 48.595615 4.6237278
161.30003 48.492027 3.82374
161.30295 48.508747 3.5101221
161.15511 48.721077 3.848381
161.03867 48.968609 3.500783
160.14169 50.057671 4.9960861
160.20505 50.212902 3.4361651
161.05237 50.232132 2.3856549
163.43713 50.324459 -1.122637
160.87671 50.362923 -2.874052
160.02638 50.509285 4.004118
161.02454 50.558983 -2.3269861
164.22523 50.948421 -0.399719
163.70105 51.082802 1.078753
163.81396 51.007401 0.67511302
164.21439 51.024635 -0.61142403
161.89948 51.573475 0.50776398
160.70592 52.100422 -2.42539
163.34598 52.896008 -0.70252103
163.48035 53.205322 -4.5240059
161.97519 59.057598 1.324666
161.71074 59.082977 0.182045
160.97885 40.272709 -0.258012
160.22633 40.470051 -0.168341
166.41612 40.771729 3.5460739
164.15891 43.840431 4.5325971
163.95041 46.23555 -0.61520302
162.46295 46.593842 4.861033
163.43248 46.627422 -0.235562
162.14041 47.103027 4.264277
162.10861 47.254108 4.5065889
161.87828 47.497253 4.1902752
161.72476 47.745972 4.2421942
161.67368 47.832031 4.8140159
161.52811 47.948681 4.4739399
162.14328 47.980423 1.5080971
161.62004 48.074631 3.2820809
162.34607 48.048222 0.97522599
161.54758 48.262466 3.528367
161.07071 48.686302 4.6094031
161.12543 48.679695 4.2469769
161.13693 48.726547 3.4953771
160.88239 49.029114 4.2978902
160.97977 49.069862 3.755805
160.83763 49.22678 4.4391642
160.81984 49.35828 3.7047811
160.8616 49.238914 3.2372
160.43124 49.722328 4.8555021
160.48184 49.697277 4.1896429
160.32364 49.895164 4.6204219
160.27061 49.972168 3.5879371
160.10016 50.26247 4.2476988
163.40051 50.490562 -1.1081001
160.11665 50.735741 1.859393
163.66486 51.054958 1.38122
163.40009 51.296387 0.36661899
161.08083 51.744991 -0.735681
162.26747 51.804337 1.045716
162.01321 51.81205 0.69431001
161.37393 52.628632 0.371236
163.17906 53.050041 -1.612956
163.20282 53.124687 -2.7309129
163.15511 53.332558 -2.676939
161.93831 58.94735 1.023059
