# .PCD v0.7 - Point Cloud Data file format
VERSION 0.7
FIELDS x y z
SIZE 4 4 4
TYPE F F F
COUNT 1 1 1
WIDTH 1535
HEIGHT 1
VIEWPOINT 0 0 0 1 0 0 0
POINTS 1535
DATA ascii
180.56165 -36.975597 2.2427759
184.92091 -36.924412 2.252507
180.49908 -36.900642 -0.84481198
180.40051 -36.925632 -4.1866241
185.18436 -36.973637 -6.580575
180.18097 -36.850071 -6.7652159
183.17859 -36.991711 -7.9664621
182.92754 -36.89661 -9.138381
184.57401 -36.984295 -9.3406181
181.55287 -36.623631 -4.005887
180.54828 -36.682312 -5.6855631
180.56458 -36.722565 -8.7493706
184.20154 -36.658096 -9.2560253
180.21379 -36.545692 2.244781
181.70395 -36.567669 2.119247
180.3033 -36.598904 0.38674
180.57269 -36.566872 0.33810401
186.06735 -36.571205 -0.235101
186.16847 -36.498539 -0.48698899
183.33054 -36.442085 -5.835793
182.52502 -36.595383 -7.504777
180.13342 -36.213032 2.0551691
181.51242 -36.289074 2.0667961
181.60605 -36.362907 1.784544
184.1795 -36.321217 -7.468235
184.71472 -36.266087 -9.0824299
183.30582 -36.274712 -9.2354488
183.32614 -36.363831 -11.212359
180.16649 -36.06601 1.65284
186.68141 -36.05162 1.049561
185.05353 -36.124886 0.89744997
185.14981 -36.145039 -0.37368599
185.14532 -36.080761 -0.90115601
185.20071 -36.084656 -1.0512919
185.20982 -36.06884 -2.1855831
185.24344 -36.05674 -2.547749
185.28946 -36.059952 -4.2495031
180.87862 -36.19191 -5.8010378
180.56979 -36.088493 -8.7355671
182.92424 -36.05983 -8.9917374
182.83768 -36.070168 -11.623192
180.08884 -35.965168 1.832311
185.45076 -35.831291 -0.481251
185.14529 -35.861774 -2.580174
185.24535 -35.970142 -4.3649459
183.01131 -35.848469 -7.5166712
185.09787 -35.822983 -10.893982
185.12436 -35.738598 -4.0640788
180.54282 -35.690315 -8.7646904
181.49388 -35.56958 1.743277
181.82001 -35.410778 -2.167341
180.86523 -35.201626 -4.5163369
185.47089 -35.022949 2.2644091
180.52916 -35.042717 1.945865
184.62244 -34.752796 1.098349
184.71944 -34.535004 1.328959
184.56171 -34.298431 1.970004
184.87582 -34.274635 1.2103831
181.28557 -34.203094 -0.146926
189.9675 -34.065742 -2.3830171
190.10965 -34.135933 -2.5773649
184.92268 -33.726601 -0.82050502
183.463 -33.682323 -6.8574748
180.46509 -33.468491 2.1320419
184.9399 -33.449993 -7.1199012
191.03728 -33.510948 -8.5875015
184.59174 -33.270996 2.1582949
184.39026 -33.217049 1.650737
180.49701 -33.272945 -3.4785709
192.40097 -33.34367 -4.5602322
180.50233 -33.388184 -4.961081
180.44696 -33.260784 -6.7186069
190.82031 -33.30468 -7.404222
184.6138 -33.023338 -1.138023
184.56384 -33.014797 -1.836049
190.02376 -33.165237 -2.428226
184.12367 -33.124611 -7.0441642
185.47923 -33.089188 -7.3666768
183.81418 -32.964783 1.8087651
184.94846 -32.901325 0.32403201
183.81766 -32.856216 -3.8158929
192.74799 -32.851345 -4.731668
184.63194 -32.654713 0.69441497
184.39717 -32.704063 -2.9459369
183.70432 -32.771339 -4.031332
183.42792 -32.723373 -4.6794958
184.54523 -32.570812 -1.051627
185.42755 -32.470352 -2.167871
190.07919 -32.479416 -4.0681262
190.25119 -32.47422 -5.1235561
190.22775 -32.521061 -5.2256789
184.31741 -32.534821 -7.490725
189.69412 -32.251785 -1.3557661
189.96507 -32.329674 -2.5973589
185.93977 -32.253452 -3.0790191
184.39484 -32.012009 0.89651299
185.7749 -32.149227 -2.0695851
186.07965 -32.14785 -3.6010261
183.78392 -31.816507 -4.3898401
183.49017 -31.951378 -7.3791728
186.03387 -31.602001 -5.2858891
194.92139 -31.768871 -5.9107628
195.20055 -31.701115 -6.29948
181.78474 -31.432243 1.916005
195.06116 -31.495377 -5.5342579
195.17389 -31.459894 -5.8153682
180.49382 -31.433737 -6.4424591
180.81784 -31.526627 -6.6292238
181.64166 -31.354052 2.0200019
183.06509 -31.377794 1.7176141
185.41199 -31.260923 -6.2953892
183.16559 -31.063492 2.143744
185.24561 -31.090427 -6.6395102
185.56677 -30.986431 1.138008
185.62659 -30.93325 0.17528
194.9705 -30.9303 -0.63259399
190.49707 -30.980831 -5.315865
186.0589 -30.929596 -5.5862751
181.58202 -30.971842 -6.799263
184.95253 -30.729366 -7.4101181
183.04317 -30.567993 1.128595
195.14304 -30.425846 -0.64449698
185.62296 -30.5205 -2.1857331
185.63077 -30.53331 -2.965225
185.04822 -30.41194 -7.0200548
182.10477 -30.217773 2.1016071
182.8121 -30.234489 1.10232
195.55945 -30.398115 -2.7317469
185.84468 -30.350893 -5.0620222
184.65234 -30.394373 -7.441154
184.66495 -30.25835 -7.7257099
182.54477 -30.185034 1.781029
195.06998 -30.117163 -1.092231
185.53171 -30.179689 -4.2275128
186.24448 -30.167862 -6.5861721
182.3613 -29.80267 2.4322569
185.4906 -29.93779 -4.2767282
185.57843 -29.854565 -7.8231921
185.39876 -29.736618 -5.6798172
197.34738 -29.406137 -0.371371
185.53802 -29.477938 -4.7358928
182.30476 -29.359741 1.14282
196.38541 -29.11659 -2.6462891
185.56473 -28.963564 -6.9001088
196.70058 -28.613682 1.182287
196.4328 -27.836388 -9.6956949
180.20407 -27.68889 -0.214754
180.384 -27.739325 -1.0133179
180.43427 -27.715631 -4.5217471
180.24844 -27.56444 -2.135515
190.41864 -26.806856 -2.3194721
190.59859 -26.833626 -3.1360819
190.91606 -26.844652 -7.4884129
190.63576 -26.806078 -7.8489828
190.49789 -26.711658 -3.4355941
180.39786 -26.504248 2.409935
180.41818 -26.572952 2.0706501
190.5078 -26.499352 0.081840001
191.34427 -26.552513 -4.7268701
188.61913 -26.493256 -8.9683905
180.22507 -26.281628 2.057636
190.40781 -26.374073 0.61462402
189.74013 -26.396461 -2.992538
188.76839 -26.231934 -8.566906
190.52188 -26.111195 -2.3423569
197.89511 -26.035452 -4.2273388
188.92255 -26.168373 -6.7700491
189.61772 -26.028816 -7.665791
194.82294 -26.038141 -8.5801249
194.56052 -26.034794 -9.3817825
194.50073 -26.114868 -9.7255116
189.31416 -25.987049 -5.6585178
195.03592 -25.805882 -7.759119
190.28812 -25.741732 -0.53683901
190.32573 -25.611271 -1.781171
191.12726 -25.761791 -4.3510761
189.05011 -25.792233 -6.737349
188.84747 -25.67992 -7.764677
190.73297 -25.410992 -1.188108
191.00446 -25.507715 -5.531805
190.75688 -25.206993 -4.3442359
189.55223 -25.293638 -4.6071959
190.90445 -25.368628 -5.9182401
189.02119 -25.240517 -6.5387621
191.66411 -25.248985 -8.0539579
197.95877 -25.025347 -1.557321
199.31619 -25.141903 -5.0444102
194.92258 -25.081209 -7.7343769
189.92805 -25.095051 -9.0090895
197.948 -24.953836 -0.072701
198.32269 -24.827927 -1.43299
189.75032 -24.888313 -2.2113309
190.19405 -24.807827 -7.031497
189.79945 -24.923874 -9.3077707
194.84758 -24.948639 -9.5781479
194.95789 -24.938839 -10.281199
196.01135 -24.765291 0.83065498
189.1635 -24.771317 -5.6686072
198.49574 -24.4216 -2.877362
195.20299 -24.509422 -4.0932341
189.40837 -24.231888 -5.4844918
196.01857 -24.143711 0.96936601
195.12408 -24.188097 -2.912318
195.97078 -24.197643 -5.5319071
189.30037 -24.041008 -6.8823619
196.04727 -23.916893 1.635311
196.08195 -23.970318 1.210799
194.95758 -23.824867 -4.7751079
189.27682 -23.827719 -7.7153668
195.05656 -23.786549 -4.8162651
195.95724 -23.760677 -4.8656812
189.18027 -23.774994 -7.5818028
189.17796 -23.778486 -8.1282806
188.8913 -23.642361 -9.2894144
196.86017 -23.608471 -9.3770819
195.40732 -23.470045 0.72125697
195.44209 -23.407667 -2.667778
195.52454 -23.35656 -1.453451
188.67255 -23.264175 -9.1948624
194.5486 -23.323355 -9.0162954
191.19075 -23.3262 -9.6963615
196.27606 -23.389639 -10.134456
194.39587 -23.235874 -10.307652
195.54079 -23.037731 -1.3168401
195.74072 -23.178354 -3.431154
195.18251 -23.000275 -8.40516
196.71397 -23.040321 -9.400609
194.41208 -23.130333 -10.296441
195.92973 -22.875 -1.475668
195.48138 -22.953979 -4.8756728
195.79279 -22.975462 -4.8872719
192.84978 -22.670404 -2.7476971
180.5847 -22.575352 2.0733099
180.50253 -22.371964 2.21102
195.81726 -22.383577 -5.279243
188.01901 -22.296471 -9.0809183
180.48056 -22.115948 1.88651
194.09518 -22.023588 -1.672331
194.98311 -22.159882 -1.804528
195.28577 -22.193539 -6.1962991
195.34161 -21.882494 -1.402897
196.48547 -21.863995 -3.804276
185.57982 -21.546333 1.733555
194.87958 -21.498226 -9.8771982
183.24316 -21.198956 1.840319
187.19759 -21.165962 -10.438107
195.4567 -20.979719 -2.6310091
196.80872 -20.825321 -2.830795
196.11797 -20.867027 -10.806065
193.07935 -20.648027 -2.868439
196.35358 -20.625641 -7.8901229
196.3947 -20.539963 -6.4662209
187.27504 -20.59934 -10.52427
190.81458 -20.368099 1.81909
196.70418 -20.252075 -2.7026689
196.65961 -20.330105 -2.824872
187.15991 -20.237783 -10.392834
195.69392 -20.170275 -1.816801
194.29993 -20.15337 -2.9590769
182.5509 -39.843616 2.194752
189.08463 -39.949448 1.86939
183.80338 -39.835537 0.95001799
192.51157 -39.856987 -1.1392061
185.9259 -39.886391 -3.945951
186.05991 -39.810787 -3.9139991
186.6053 -39.804737 -4.0948868
184.61217 -39.968212 -8.1290846
185.18269 -39.806095 -8.534152
183.33018 -39.773727 2.0750711
188.72388 -39.654335 1.855786
193.43243 -39.756584 0.56777298
185.80928 -39.771053 -0.217654
187.26143 -39.731964 -0.61150903
183.616 -39.627464 -1.002659
186.11844 -39.745438 -1.393574
184.15567 -39.765167 -1.793808
186.94757 -39.756416 -3.14993
185.8718 -39.726479 -3.3511789
186.19327 -39.791519 -5.0827432
185.23856 -39.682976 -8.4974308
185.23416 -39.751923 -9.0069075
187.55597 -39.413136 2.0134649
187.66862 -39.500572 1.2395411
182.89328 -39.466858 1.092808
188.92975 -39.470097 0.93940598
188.18544 -39.492401 0.674685
188.27466 -39.423492 0.154578
185.69231 -39.558311 -0.26389301
185.70905 -39.580677 -3.2545481
198.51991 -39.405609 -4.9286571
183.21561 -39.456207 -6.8737922
193.01286 -39.408886 -9.7356443
188.69409 -39.381577 1.819752
182.11601 -39.329865 1.644436
187.00325 -39.287998 0.111137
185.80579 -39.351234 -0.733082
187.01855 -39.390888 -0.71953398
183.7372 -39.364735 -1.041826
183.86325 -39.352715 -1.800661
187.01764 -39.294205 -3.179553
194.30365 -39.24786 -6.1594172
181.77673 -39.077816 2.1078601
182.07208 -39.192001 1.630353
181.21899 -39.048958 1.591768
182.48811 -39.065964 0.777152
186.93105 -39.01368 0.068028003
183.00226 -39.05098 -0.98123503
183.33072 -39.135067 -1.506847
183.83775 -39.085197 -1.919788
185.76451 -39.155838 -4.512609
198.05099 -39.125412 -4.5666728
180.00635 -38.81583 2.2801881
188.36279 -38.947819 2.0861399
181.17177 -38.894989 1.6215841
181.6662 -38.925575 1.5570019
188.40823 -38.951763 1.312977
182.74484 -38.94886 1.05452
182.83224 -38.939198 0.89588398
186.79372 -38.991566 -0.045965999
183.19147 -38.90416 -0.38622499
187.82227 -38.886574 -3.5946131
180.35248 -38.854446 -3.8988791
183.22122 -38.637085 2.091902
181.31772 -38.62719 1.621897
181.15216 -38.646271 1.364377
188.47748 -38.69294 1.061128
188.09996 -38.782692 -2.830986
184.9131 -38.76004 -6.5005178
181.36279 -38.516792 1.808527
192.23114 -38.480919 0.14490999
187.42043 -38.593525 -0.94209898
186.33885 -38.48793 -3.4955411
181.10565 -38.300697 2.2295649
181.35785 -38.328705 1.745347
183.97557 -38.275993 0.62153703
191.90685 -38.32127 -0.18210199
183.66148 -38.266998 -11.849758
181.79282 -38.062561 1.713729
192.13918 -38.025192 0.985488
180.03119 -38.18959 0.63106102
184.065 -38.134834 0.62046099
186.05783 -38.020199 0.115426
184.5639 -38.1539 -0.12503999
192.23088 -38.120892 -0.86210001
186.45703 -38.091656 -3.044657
187.8107 -38.153847 -3.3878911
180.15613 -38.193169 -3.911936
182.54401 -37.822487 1.262409
187.7859 -37.984787 1.2651761
183.01651 -37.97459 1.06063
180.0311 -37.962349 0.619479
185.81778 -37.839645 -0.239292
180.68329 -37.849815 -1.635725
187.27972 -37.919758 -3.5456851
185.65405 -37.939354 -5.5056629
187.01306 -37.926739 -5.846509
187.41251 -37.857033 -8.758049
187.02077 -37.812103 -9.918025
186.91602 -37.975422 -11.016352
187.5874 -37.698677 1.398505
185.29886 -37.762459 0.98787302
180.07079 -37.705544 0.29470599
184.69095 -37.69511 0.14590199
192.08041 -37.72216 -0.58563602
186.28136 -37.645683 -0.94404697
180.33591 -37.699047 -1.703449
188.87823 -37.7192 -2.8758979
180.16827 -37.761154 -3.8280549
184.30136 -37.663769 -8.4410334
185.2662 -37.663277 -9.2708273
184.7415 -37.495544 2.228575
187.33234 -37.439522 2.0991831
185.25551 -37.414951 1.354165
192.12547 -37.452316 0.75778002
185.50449 -37.466785 -0.011089
192.32729 -37.480778 -1.08983
180.15187 -37.427311 -1.665156
180.06064 -37.420078 -3.7566929
180.67249 -37.562302 -7.4148231
185.13419 -37.560707 -8.2923307
184.10152 -37.554291 -8.4292974
185.14627 -37.520535 -9.2713556
185.83228 -37.464443 -9.3118563
181.57509 -37.243309 1.840122
180.33398 -37.382942 1.241311
184.04048 -37.348408 -0.97783703
192.34309 -37.288967 -1.212622
192.37556 -37.364746 -2.47278
180.49553 -37.255161 -7.8921461
182.77789 -37.319237 -7.8742161
185.76782 -37.205143 -9.0758839
187.05133 -37.006329 2.2541189
185.25391 -37.189877 1.500672
180.4109 -37.156658 -2.017041
180.67892 -37.130798 -3.263207
182.65952 -37.19088 -7.7457738
184.34953 -37.189697 -9.573782
186.76312 -37.07753 -10.76095
185.25972 -37.135506 -10.898697
181.64412 -36.907921 1.839408
181.37782 -36.957542 1.723124
181.5603 -36.808033 1.507663
186.45081 -36.974701 -0.26999301
180.27249 -36.90419 -0.66511899
186.31116 -36.967438 -0.82680398
180.16284 -36.987038 -1.78642
192.70555 -36.811832 -3.1092751
180.44621 -36.986328 -7.4252782
180.55472 -36.977879 -8.4004564
185.60223 -36.897079 -9.112608
182.83212 -36.936222 -9.2863922
180.59782 -36.739906 2.2173131
181.46603 -36.64315 1.498171
181.33086 -36.690426 1.166998
185.6456 -36.733391 -5.2015939
192.77591 -36.60183 -6.201694
180.51515 -36.713478 -8.5372629
181.40173 -36.501072 1.6457061
180.16116 -36.594292 0.59770799
181.10501 -36.44688 -4.1176949
181.71701 -36.549133 -4.0899081
180.35463 -36.474724 -5.7632599
180.51114 -36.560757 -5.764513
180.12137 -36.479828 -7.005877
184.76143 -36.524803 -8.8854799
183.0112 -36.52227 -10.011203
185.26601 -36.33889 0.60225099
185.31993 -36.24115 -0.210547
185.7108 -36.239822 -0.26789701
180.80112 -36.355515 -3.73471
181.6218 -36.176376 2.0949559
181.39934 -36.170212 1.817919
185.12029 -36.127659 0.86065698
185.97289 -36.016045 -0.59404099
185.11758 -36.095528 -0.62630099
180.22389 -36.168221 -2.5014601
185.30901 -36.060074 -2.4420099
180.98886 -36.157547 -3.053292
185.05804 -35.948715 1.840646
180.08481 -35.94458 1.7656389
185.17027 -35.928383 -1.896271
185.18808 -35.976009 -5.1093001
182.73254 -35.803551 -7.6129131
185.07669 -35.95034 -8.6480265
185.63721 -35.87965 -12.314631
180.63898 -35.66185 -2.759351
183.55804 -35.700283 -9.5594778
184.65178 -35.403431 2.194519
180.08394 -35.502464 -0.86247301
180.04854 -35.585873 -1.50052
180.31201 -35.540482 -4.9605241
185.91208 -35.262093 1.894395
180.33882 -35.321644 1.749678
182.41019 -35.382553 -7.5172119
181.01364 -35.212761 -7.8222499
182.58798 -35.318916 -8.6272249
185.8013 -35.06963 2.410388
185.85638 -35.059422 1.7679729
180.41798 -34.833271 -3.0929599
190.52686 -34.792122 -4.6266541
192.86647 -34.77153 -5.235991
182.30074 -34.706581 -6.7914538
184.71283 -34.493534 -0.42870101
180.15823 -34.577915 -6.6195979
184.70744 -34.204796 0.58241701
181.25368 -34.33007 0.092997
180.23422 -34.354301 -0.275875
184.65619 -33.634689 2.255121
180.47647 -33.696941 2.0734661
184.84637 -33.775459 2.1609671
184.8423 -33.729923 1.922365
184.57489 -33.790699 -2.632489
183.60674 -33.638573 -6.3855681
184.89282 -33.420818 -0.72480702
184.56879 -33.464989 -0.80500901
185.08839 -33.522495 -0.80838102
180.39359 -33.473289 -1.874084
180.25754 -33.487389 -2.24365
183.86334 -33.518463 -5.2667642
183.68994 -33.51207 -5.851871
184.62517 -33.387783 1.777989
180.56512 -33.260178 -2.515394
180.50426 -33.299942 -2.87094
184.40758 -33.212971 -3.0178969
180.3535 -33.370525 -3.494952
184.27289 -33.272465 -3.9423139
180.48424 -33.254097 -4.0502138
180.50702 -33.299812 -4.7462912
184.11292 -33.381683 -6.0784278
184.46916 -33.139633 2.128475
184.50769 -33.189419 -0.36196399
185.00085 -33.128468 -2.7650809
185.04657 -33.177849 -5.4668322
184.12546 -33.126396 -7.0525961
183.98132 -33.160419 -7.264143
190.80374 -33.153931 -7.2745209
184.08902 -33.167389 -7.4283028
184.36621 -32.905041 1.53976
184.57666 -32.957695 0.205228
184.94742 -32.964432 -0.71826702
192.38806 -32.821968 -0.71469003
184.27353 -32.902443 -4.7923012
192.44066 -32.749275 -1.763402
183.83311 -32.636036 -3.3769021
184.4243 -32.794151 -4.2414079
184.3428 -32.764862 -4.660985
185.0946 -32.790657 -5.9003439
184.43878 -32.61409 -6.3126469
184.55757 -32.410271 -0.045841001
193.90953 -32.461147 -2.7326369
192.18538 -32.585003 -3.4729991
190.13632 -32.477486 -4.3231559
182.5869 -32.250092 2.233288
189.44603 -32.369232 -0.137097
189.90581 -32.238594 -2.0772099
190.01007 -32.386131 -3.5584669
191.82655 -32.240696 -3.5389509
183.83563 -32.138184 2.2154601
195.05576 -32.017715 0.52513599
184.19205 -32.191116 0.144611
185.32791 -32.009171 -0.014241
185.44049 -32.061455 -1.066179
183.93814 -32.057785 -2.5525141
183.79663 -32.034645 -3.6828859
193.68382 -32.053993 -4.42377
186.06943 -32.121048 -4.7495022
193.51947 -32.099541 -4.7886758
193.52087 -32.140022 -4.964623
183.79128 -32.022255 -5.4607491
182.44403 -32.088638 -5.9543018
184.48373 -31.996185 1.5112031
185.47609 -31.965939 -1.093783
183.96053 -31.898701 -2.136842
185.82393 -31.961214 -2.245872
185.99628 -31.980709 -3.983562
190.75494 -31.816441 -3.9256239
193.42462 -31.942535 -4.7949381
180.76791 -31.87611 -6.2589889
183.55652 -31.744547 2.404582
185.53535 -31.690878 -0.23160499
185.92441 -31.625332 -5.090652
195.02545 -31.472841 -4.326046
182.01939 -31.391508 1.88535
180.61504 -31.290342 -6.911376
185.31134 -30.850683 -4.178051
185.22955 -30.888426 -7.747478
183.05995 -30.616997 1.3326091
185.71964 -30.710989 0.404643
181.5246 -30.789625 -6.753283
182.08453 -30.557251 2.538404
182.20824 -30.52949 2.2825179
182.81335 -30.582245 1.960835
185.59647 -30.542442 -2.1886661
185.62036 -30.326744 -3.346303
182.4464 -30.239393 -9.778965
186.04642 -30.197975 -5.81072
181.86932 -29.934868 2.1397779
196.89459 -29.802845 -1.241398
185.36655 -29.872337 -6.961019
180.81812 -29.604471 1.912724
182.51541 -29.696962 1.252026
196.09795 -29.642223 -2.7377231
180.38693 -29.682495 -7.202435
181.01572 -29.556219 1.819714
185.52045 -29.483181 -5.058814
196.2291 -29.289919 -2.827919
185.5204 -29.247561 -5.845973
180.20328 -28.842634 2.058697
180.20251 -28.948601 1.934437
182.09387 -28.885799 1.152863
185.63016 -28.971893 -7.0834899
180.06578 -28.68755 1.884334
180.16234 -28.66346 -3.526901
181.36111 -28.122332 1.784773
181.05457 -27.67141 1.839698
181.00037 -27.448484 2.2041359
194.40317 -27.467108 -10.766389
191.10306 -27.109783 -8.2068243
180.33987 -26.608723 1.793732
190.35406 -26.782064 -3.047847
196.03769 -26.783167 -8.587863
190.31516 -26.44039 -0.30937201
199.97073 -26.496307 -0.26629201
190.33136 -26.591799 -1.410398
189.96667 -26.412369 -1.764527
190.53189 -26.090193 -1.173903
189.33067 -26.136564 -5.335907
189.46039 -26.130438 -7.9849458
189.09558 -26.12426 -8.6618309
185.19394 -26.099037 -10.223692
180.14967 -25.859831 1.426331
190.46178 -25.878168 1.384513
190.36572 -25.960804 1.081661
190.43175 -25.939579 0.91200203
189.44904 -25.949085 -6.5365939
190.24821 -25.749214 -2.322206
198.08134 -25.411333 -3.0352421
191.54106 -25.555723 -5.9535398
191.46924 -25.559458 -7.1783528
198.9657 -25.512127 -10.514861
197.76768 -25.266968 0.95446002
191.01012 -25.319042 -0.79057199
191.79175 -25.351261 -4.3396912
198.93097 -25.196564 -3.640445
189.4501 -25.04948 -4.0910048
190.04654 -25.055984 -9.3460712
198.71121 -24.891567 -2.7190869
189.53772 -24.812006 -3.834749
198.03671 -24.874298 -4.2380672
195.02452 -24.864719 -5.1283879
199.21466 -24.95166 -5.1004758
189.82527 -24.792793 -9.3352003
189.5614 -24.57476 -4.308671
196.21709 -24.254068 0.217226
189.94081 -24.277824 -2.9429941
194.72324 -24.361397 -4.131115
195.98798 -24.139433 1.635047
195.42923 -24.003357 -0.17408501
195.3719 -24.187185 -2.6588681
195.93878 -24.180534 -2.7414179
195.36929 -24.176792 -3.925822
189.53275 -24.052395 -4.0394301
196.7724 -24.055075 -10.701937
195.52312 -23.972086 -1.79377
194.93678 -23.965923 -4.0674109
195.42865 -23.782101 0.93350399
195.38509 -23.702818 -0.497778
194.68329 -23.752357 -4.1284089
195.55145 -23.684605 -4.2159839
189.14413 -23.734838 -7.708138
188.99823 -23.735714 -8.8055372
189.51965 -23.657137 -8.8897495
194.93649 -23.474257 -2.6707759
196.24396 -23.455427 -9.2963467
187.84923 -23.234674 1.941702
195.67883 -23.363125 -2.603308
194.00941 -23.203659 -3.8471949
195.87808 -23.364407 -5.4798932
194.45175 -23.10606 -2.9768009
193.51482 -23.034386 -3.8121741
196.1956 -23.061581 -4.1953411
195.44482 -23.01543 -5.5544758
191.09375 -23.013988 -9.3707771
195.625 -22.775471 1.3417079
195.75433 -22.707199 -4.9250388
194.93814 -22.783392 -9.2699699
180.86047 -22.416618 2.0737989
194.81454 -22.532589 -0.44231901
196.48268 -22.550114 -1.834698
194.25684 -22.430628 -9.0349321
195.17514 -22.227419 0.174155
195.07365 -22.27578 -6.219378
197.26855 -22.295612 -10.916712
194.76398 -22.060574 -0.50890899
194.89296 -22.190519 -0.47425601
192.30153 -22.134933 -2.7098939
195.03358 -22.118618 -9.0304127
192.51929 -21.693203 -2.8051651
180.67145 -21.494987 1.769753
195.45374 -21.577175 -1.330428
195.37714 -21.449059 -1.778983
180.61169 -21.34462 2.0518329
193.4832 -21.194714 -2.513485
192.30484 -21.151897 -2.808563
195.98792 -21.164785 -7.8148599
193.17465 -20.811766 -2.877075
187.30206 -20.9373 -10.4841
191.32236 -20.678129 1.950469
196.63756 -20.565319 -2.820673
194.68658 -20.529879 -10.55277
192.72644 -20.200756 -3.179296
190.61671 -20.364769 -7.231905
197.07758 -20.201103 -10.951776
191.24759 -20.155109 1.764529
195.4682 -20.036102 -1.8095779
192.35771 -20.180235 -3.652813
189.88977 -20.061281 -7.2897878
194.01849 -39.946667 0.45642701
194.03964 -39.873806 0.177949
184.33388 -39.84898 -1.417455
188.51093 -39.940987 -2.262944
185.63939 -39.960236 -4.3281898
186.62909 -39.845375 -5.7777758
184.15634 -39.683502 2.086863
183.74483 -39.751583 0.736036
187.18503 -39.769329 0.36549899
187.15913 -39.722351 -0.73452801
192.53046 -39.764439 -1.209349
186.87038 -39.744835 -3.320688
186.65714 -39.777702 -3.4560161
186.1969 -39.78735 -4.115129
186.22221 -39.616604 -4.5796151
186.57782 -39.774113 -5.0334229
183.05962 -39.648552 -6.2423658
183.13815 -39.630104 -8.5766573
190.84909 -39.742287 -9.3134975
182.6488 -39.568146 2.1454041
187.55264 -39.412006 1.7254111
193.31848 -39.586388 0.69416302
183.46161 -39.434288 -0.97878802
185.05858 -39.560905 -0.93214798
193.95346 -39.493412 -6.49194
181.44737 -39.301121 1.335741
182.7637 -39.319809 1.385455
188.4841 -39.252499 -1.892976
192.44215 -39.297867 -2.3556139
188.95102 -39.272102 -3.180012
186.20242 -39.364075 -4.1482468
188.80798 -39.363102 -5.9218931
188.51305 -39.327396 -6.0474882
188.17752 -39.262672 -11.493799
182.808 -39.010155 2.1450419
183.65506 -39.091976 1.897385
182.35422 -39.055641 1.159984
187.35405 -39.080429 -2.198245
187.02988 -39.152821 -3.1212411
187.3699 -39.001377 -3.5205021
183.83727 -39.021767 -7.9779348
181.46776 -38.911949 1.562307
181.37079 -38.826305 1.169924
185.1745 -38.933868 0.339068
188.7514 -38.923065 -3.187134
191.46761 -38.960182 -6.0440102
182.74323 -38.674858 2.115293
187.63864 -38.606712 -1.086917
197.37437 -38.671951 -7.7527909
181.3504 -38.512901 2.2517381
183.02554 -38.484627 2.0928741
181.9772 -38.488033 1.2592731
182.94284 -38.519951 1.020728
183.17163 -38.404968 -0.84913403
183.0206 -38.433453 -1.444351
188.12413 -38.42313 -3.2788081
187.18735 -38.428825 -5.7004862
189.72148 -38.403679 -9.1635389
184.67429 -38.554878 -12.001858
180.633 -38.222187 2.3016269
188.08647 -38.364082 2.0542459
188.08704 -38.30547 1.737015
181.50861 -38.363472 1.1817091
184.70819 -38.213104 0.83619499
184.39571 -38.244106 -0.34253901
186.57178 -38.206699 -0.237599
186.32822 -38.34174 -0.48295799
180.96356 -38.351612 -1.7108999
186.46637 -38.313904 -3.231405
192.95268 -38.3601 -8.2017107
181.53174 -38.160099 2.2192841
187.94827 -38.184898 2.0839911
181.73051 -38.16 1.432273
185.60608 -38.075771 0.96716797
185.70364 -38.149742 -0.217839
192.16705 -38.046547 -0.57031202
184.24908 -38.189819 -11.964142
180.60333 -37.80537 2.2454121
181.77077 -37.928093 1.411449
182.16092 -37.880547 1.408855
187.90146 -37.904442 0.87221301
192.10962 -37.891888 0.52723598
185.38837 -37.898254 0.15087099
180.68816 -37.605118 0.78144997
185.03456 -37.692535 0.104778
186.22467 -37.619339 -0.054600999
192.38051 -37.643448 -1.170032
187.55106 -37.684574 -2.8372209
180.17091 -37.688301 -3.784832
180.93878 -37.533611 2.2755361
181.29343 -37.48756 2.206907
187.4856 -37.541363 1.676851
187.60828 -37.401608 1.160165
184.47215 -37.504082 0.64851397
184.81265 -37.53389 0.100035
180.20668 -37.538372 -0.117432
180.1283 -37.450287 -3.563103
192.46628 -37.550575 -3.435524
186.90646 -37.484867 -8.6547184
182.76208 -37.400684 -9.2319012
180.59604 -37.324104 0.65994501
180.48175 -37.238152 -7.860673
185.03516 -37.161903 -7.8763642
185.58287 -37.187828 -9.12393
182.02983 -36.891586 1.5422961
180.03073 -36.987305 -0.99030799
182.75543 -36.930412 -5.0222468
182.92599 -36.888237 -9.1100368
184.84615 -36.977413 -9.2876682
180.2774 -36.702637 -0.65950698
182.68222 -36.675983 -5.5546131
193.01952 -36.744576 -6.1074748
182.54843 -36.625092 -7.495564
185.70515 -36.741337 -8.7309074
185.25998 -36.677052 -14.648536
182.34239 -36.589565 -7.4306741
180.13344 -36.439049 -9.1934175
183.95837 -36.589432 -9.3563423
181.49663 -36.330757 2.197567
186.61865 -36.222183 2.086184
185.27661 -36.326824 1.304231
184.71463 -36.330841 -8.9662657
180.06848 -36.253914 -9.0899696
185.06041 -36.114456 2.0880251
185.07925 -36.073051 1.837167
185.20535 -36.09745 -1.099741
185.20616 -36.063221 -2.2558191
191.66245 -36.091187 -8.3626652
180.59244 -36.162895 -8.6946354
184.57658 -36.02562 -8.7530479
183.15982 -36.114784 -9.4794054
185.06073 -36.050865 -11.511295
180.04501 -35.950294 1.764502
180.09265 -35.943413 1.552694
181.49785 -35.98283 1.526265
185.30647 -35.903862 0.763179
180.34653 -35.967873 -1.8199379
185.17378 -35.942684 -2.5367041
185.23495 -35.94725 -2.7266419
185.25838 -35.991508 -3.4372311
185.16962 -35.953926 -4.1493139
192.45135 -35.888203 -4.8381019
185.31215 -35.970638 -5.4043188
182.92181 -35.841015 -7.5580831
183.39876 -35.973755 -8.7955694
186.13358 -35.638092 2.239625
184.45438 -35.699829 -6.171854
180.12256 -35.760723 -6.431427
180.58301 -35.750664 -8.8145657
180.94791 -35.582043 -5.0813732
182.57466 -35.292698 -8.5923681
183.02924 -35.39489 -9.2508383
183.11761 -35.330887 -10.82625
184.48172 -35.117775 2.212836
191.45808 -35.104248 -5.7690921
183.59769 -35.087894 -10.704697
184.39212 -34.94067 1.964741
184.23616 -34.556927 2.228806
181.19664 -34.243507 0.41346899
180.34029 -34.267059 -3.6007631
184.77631 -34.135155 -0.0044479999
180.77208 -34.039524 -6.6641202
182.8633 -34.090561 -6.9001122
180.48022 -33.821144 1.9233429
189.86572 -33.802765 -2.2495911
180.46667 -33.641922 1.386384
181.91855 -33.671177 0.271294
180.48775 -33.690254 -6.87886
180.49001 -33.372314 1.82864
180.54362 -33.372383 1.008525
180.52731 -33.318802 -0.87102997
184.44003 -33.228081 -3.07499
180.52217 -33.315987 -5.222765
184.99631 -33.253609 -6.2179089
184.09225 -33.239796 -7.214325
191.04802 -33.387585 -8.1867609
184.5238 -33.182976 1.878098
184.57124 -33.050503 -0.71616602
180.68307 -33.137329 -2.6597769
185.04491 -33.031506 -3.854646
191.94583 -33.016037 -4.241652
184.33224 -33.187103 -4.8073812
184.53629 -33.119728 -6.2247839
184.14581 -33.114712 -6.9901662
185.078 -32.99099 0.66018099
192.77823 -32.931389 -5.1167531
185.1626 -32.875633 -6.4413438
184.18504 -32.774734 -2.0559051
184.85806 -32.692657 -2.1250329
192.39812 -32.744106 -2.416923
192.42023 -32.689445 -2.5228939
184.39514 -32.702404 -2.7102351
184.49577 -32.718628 -3.925277
193.32173 -32.788689 -5.3473549
183.95964 -32.489773 2.045975
189.47836 -32.419579 0.887344
189.40979 -32.560432 0.67130399
184.34047 -32.41927 0.14508501
184.64067 -32.53273 -0.055103
184.55397 -32.59024 -2.0510809
193.81003 -32.502457 -2.149997
190.26816 -32.553059 -5.2483158
185.44746 -32.352203 -3.1899991
185.4895 -32.352592 -3.4405899
186.72459 -32.36665 -8.0282316
186.10149 -32.146324 -4.0968332
183.71617 -32.174042 -4.5837088
183.62291 -32.056488 -5.7138228
186.57492 -32.195316 -6.9264488
183.5618 -32.061882 -11.087706
184.0907 -31.946739 -1.031756
184.01505 -31.971733 -2.48982
194.42166 -31.81498 -3.005408
190.73581 -31.927044 -4.9184341
186.5641 -31.945234 -6.6188488
183.51437 -31.953613 -7.0662098
184.04596 -31.631828 -3.0264549
183.26787 -31.43681 1.794425
183.54935 -31.433271 1.372665
186.10672 -31.475262 -6.7676978
186.10057 -31.417889 -6.8782058
185.59337 -31.216053 0.10122
181.86386 -31.144726 1.8806551
185.30424 -31.059566 -8.6319857
183.05731 -30.934734 1.917492
185.57935 -30.884565 -0.032795001
185.17606 -30.824167 -8.6266727
185.60826 -30.69397 -1.127254
181.1315 -30.402224 1.725279
193.48218 -30.426212 1.277512
185.13347 -30.530697 -6.4571648
185.62952 -30.388979 -2.6874199
180.62595 -30.149837 1.934014
182.78059 -30.141811 1.128546
195.42903 -30.065529 -0.24884
186.37241 -30.066818 -6.8618679
180.89102 -29.892582 2.140517
181.96066 -29.912796 1.6967061
195.00586 -29.941772 -0.75070202
184.89961 -29.943531 -5.198195
185.45189 -29.78639 -4.7486472
181.92552 -29.09491 2.4829941
180.04906 -29.057106 0.897241
195.6741 -28.955606 1.3666379
185.62625 -28.878408 -6.788064
181.15363 -28.909092 -11.368768
180.73692 -28.125885 1.789273
180.27037 -28.155434 -3.3425751
181.48224 -27.870226 1.380163
180.48981 -27.811405 -5.0076842
180.27307 -27.660919 0.226932
180.38708 -27.629084 -1.980592
180.19757 -27.646965 -4.526176
180.92773 -27.407789 1.878682
191.46231 -27.502695 -5.5823379
191.22076 -27.138918 -8.9789047
180.67923 -26.91399 2.1925631
190.36867 -26.857204 -2.0773051
190.60497 -26.920258 -4.2658401
190.44354 -26.672787 -1.785309
190.58684 -26.776958 -4.2607489
190.66049 -26.718731 -5.4458289
190.90541 -26.749586 -5.8936558
191.03148 -26.688507 -6.694932
190.34468 -26.261265 0.090152003
195.69638 -26.294695 -8.2791538
189.49902 -26.178574 -4.510623
189.28299 -26.087713 -5.6754551
189.63518 -26.040936 -6.580862
195.42229 -25.803467 -10.317346
190.44806 -25.740479 -1.351907
195.00478 -25.434772 -6.54211
188.7804 -25.428585 -7.578176
192.45605 -25.562639 -9.2937613
189.65887 -25.220276 -1.7400301
189.62906 -25.262844 -2.2771001
199.81654 -25.231293 -8.5953894
189.11502 -25.090252 -5.610919
194.95793 -25.023634 -7.2697449
199.88353 -25.189741 -8.7282524
197.63242 -24.929716 2.003335
195.25389 -24.687103 -2.919137
195.2222 -24.574949 -4.7239861
196.03253 -24.299931 1.520064
195.98053 -24.301125 1.051178
195.9529 -24.240318 -4.2548089
189.71359 -24.254635 -6.9418879
196.07443 -24.062265 0.703888
196.14906 -24.134045 -0.27072299
187.323 -24.058163 -4.2133389
196.00618 -24.006691 -6.8182311
196.13977 -23.892895 -0.49447301
195.03049 -23.918297 -2.8594201
187.2717 -23.850292 -4.083631
196.00189 -23.899977 -4.1733999
190.23262 -23.862335 -4.3400798
189.32828 -23.870117 -6.9146242
189.33699 -23.86602 -7.5943151
195.35941 -23.654474 0.60577703
194.30051 -23.7188 -2.8518879
195.63828 -23.758457 -2.947535
196.00269 -23.627136 -6.1899171
195.40652 -23.463284 1.928714
195.46602 -23.458263 -0.51636797
195.57745 -23.488575 -1.7658
195.37337 -23.509722 -5.4569411
195.67183 -23.587393 -7.56779
196.29562 -23.414993 -10.636455
195.47917 -23.364204 -0.107442
196.01657 -23.213223 -0.46887699
195.03027 -23.383108 -2.9110811
195.47589 -23.27737 -2.850893
188.82855 -23.295275 -8.1087542
194.84442 -23.364235 -8.4880047
195.88121 -22.86549 1.915943
195.88968 -22.929327 -0.52350098
196.27983 -22.953638 -1.433637
195.75108 -22.706062 1.915028
194.71617 -22.671652 -0.436719
195.32687 -22.743731 -5.451283
195.84973 -22.463629 -5.4364638
195.04916 -22.347242 -0.28681299
192.65509 -22.381723 -2.642086
192.99146 -22.05707 -2.892817
194.02185 -21.808533 -1.723482
192.25797 -21.851786 -2.5643539
193.91162 -21.797941 -1.75982
195.92609 -21.697277 -6.33571
183.38611 -21.386312 1.793171
192.48404 -21.292023 -2.817626
191.1869 -21.200476 -3.4906449
180.55252 -21.014656 2.1194539
180.50375 -21.142279 1.9092129
196.29788 -21.049904 -7.8029752
180.84998 -20.93541 -5.503397
195.94666 -20.930397 -6.398057
195.51511 -20.440218 -1.6365449
193.30843 -20.572985 -3.682276
196.23148 -20.234011 -4.9890909
187.22906 -20.264717 -10.23753
190.41782 -20.116798 2.0186219
186.61128 -20.196329 1.944134
190.50389 -20.004066 1.448529
195.09544 -20.071571 -1.633976
194.48547 -20.133604 -4.8339019
187.35167 -39.80809 1.23124
182.24069 -39.822227 1.140262
187.9946 -39.955727 1.14379
193.07599 -39.941238 0.54546601
186.29099 -39.939056 -0.71187001
185.86441 -39.909744 -0.87620997
188.4301 -39.915188 -2.5541461
186.7926 -39.972858 -4.5977111
185.17688 -39.897697 -8.8561115
192.62837 -39.970272 -9.6389256
180.14912 -39.76236 2.1491201
182.05737 -39.65023 2.047122
187.56302 -39.627769 2.1145761
188.78484 -39.657425 2.0814049
183.19487 -39.705193 1.65636
183.41937 -39.712143 1.692947
183.04785 -39.691643 1.485465
188.79379 -39.715717 1.31961
183.06607 -39.678577 1.181034
187.22284 -39.743694 0.26748601
187.16663 -39.760902 -0.014532
187.22876 -39.609344 -0.91443002
185.80252 -39.698952 -3.385757
183.3179 -39.427784 1.831656
183.36732 -39.582584 1.588331
187.45525 -39.42968 0.929308
186.21994 -39.565254 -0.72278202
186.99794 -39.476109 -3.374151
186.03636 -39.419258 -4.5521359
184.58545 -39.513668 -7.2026072
183.04445 -39.497261 -7.8087459
185.22421 -39.542236 -9.0015659
181.82265 -39.259796 1.555172
182.09871 -39.333626 1.5756921
182.68057 -39.23719 0.98120898
184.69003 -39.310966 0.096908003
185.58116 -39.36903 -0.162018
183.33835 -39.34494 -0.706626
187.18176 -39.237423 -1.778826
186.74652 -39.256527 -5.6376772
181.04324 -39.103325 2.1236169
181.44397 -39.104286 1.330088
182.19638 -39.032555 1.378505
187.90704 -39.175728 -2.248148
186.31316 -39.126499 -4.0731211
186.96132 -39.109886 -5.4713202
186.61456 -39.072971 -5.6616302
183.7495 -39.185017 -8.0034447
188.42334 -38.985207 2.0947249
182.56929 -38.84687 1.68802
181.13257 -38.876228 1.104495
185.13686 -38.869194 0.56725502
185.32275 -38.908508 -0.22451399
183.29094 -38.937767 -0.452115
188.05185 -38.923634 -3.1014199
188.06662 -38.823021 -3.2849901
194.37656 -38.949837 -6.4053388
182.19785 -38.791893 2.2564869
181.47929 -38.676498 1.469517
183.34293 -38.680969 -1.356266
187.38712 -38.715981 -3.216819
191.74237 -38.629211 -4.955523
186.98026 -38.696587 -5.3097959
180.05438 -38.530563 0.59651899
185.88806 -38.408546 -0.77943999
183.05911 -38.558975 -1.82528
183.29971 -38.566383 -2.0740039
186.23978 -38.550972 -3.9475069
185.30351 -38.223866 0.16136301
183.04556 -38.281311 -1.315119
183.04933 -38.238831 -1.813665
184.08609 -38.359776 -7.0678439
197.09306 -38.374565 -7.724668
183.009 -38.158218 2.2830541
182.0614 -38.097382 1.730998
182.02583 -38.062431 1.50386
180.69897 -38.078636 0.234595
184.27872 -38.117134 0.144379
192.18877 -38.178177 0.183806
185.83807 -38.114716 -4.1282482
192.64584 -38.181862 -6.0069032
185.55504 -38.182171 -6.38413
182.07759 -37.905529 2.102494
187.71198 -37.883331 -2.699084
187.63445 -37.896706 -2.883399
188.55794 -37.955853 -4.5943012
180.96573 -37.806023 -4.880929
186.47583 -37.813328 -5.3275681
184.00705 -37.86491 -6.9867368
182.01479 -37.754311 1.674019
180.36328 -37.691498 1.265699
192.01985 -37.733379 0.181311
181.09879 -37.762234 -1.057497
192.23447 -37.759422 -2.322974
186.72188 -37.670597 -3.9522021
182.04645 -37.498466 1.855394
180.17459 -37.557266 0.99726897
180.10236 -37.514534 0.65087402
180.8277 -37.565445 0.78581399
192.22346 -37.46769 0.152312
183.49445 -37.516075 -0.88345897
181.11081 -37.520515 -1.266104
192.3356 -37.48558 -2.2920811
180.04973 -37.416458 -3.7135029
185.16676 -37.57695 -9.1903362
181.34451 -37.307816 2.1860099
183.16425 -37.243904 -8.0062695
186.69348 -37.361778 -9.3829861
185.05055 -37.2174 -10.864795
186.70491 -37.029606 2.4436049
180.53723 -37.140324 1.263975
180.13675 -37.109161 1.077783
180.0556 -37.068279 0.173152
180.44489 -37.065495 -0.66754001
180.05893 -37.034019 -3.7706971
192.6647 -37.164352 -3.6418109
180.50781 -37.056839 -7.7803822
183.24115 -37.006287 -7.8642902
184.64468 -37.027779 -9.3320026
185.04971 -37.01281 -11.008829
181.41289 -36.969505 2.2837141
181.05162 -36.980629 -0.06261
185.53198 -36.932644 -0.37913799
180.09795 -36.868275 -3.2407
181.25616 -36.829796 -3.549397
180.48633 -36.929512 -8.2641802
186.56535 -36.979172 -8.5868664
181.69762 -36.634762 2.226207
181.62808 -36.646103 1.782618
180.17224 -36.65535 -2.5707591
184.48964 -36.642952 -7.524251
184.41324 -36.780884 -9.2649231
185.10899 -36.477528 2.180114
185.18738 -36.408348 1.283203
185.27338 -36.505249 1.283582
185.30251 -36.420212 1.019412
185.92374 -36.459709 -0.28749001
181.34927 -36.499783 -4.0762358
182.38046 -36.599106 -5.4895048
180.4079 -36.549 -6.624619
184.11125 -36.542114 -7.3984718
184.31494 -36.550346 -7.6152511
184.58253 -36.433483 -8.787262
184.97379 -36.439922 -9.1578684
180.05464 -36.23967 1.1931731
180.38115 -36.391407 0.135088
180.65581 -36.230354 -2.8850729
180.54718 -36.298061 -3.744628
181.00507 -36.357235 -4.1457438
184.66472 -36.317566 -7.2088079
180.35904 -36.211922 -8.4311876
187.2822 -36.142731 1.335454
180.24266 -36.062099 -1.897262
185.22992 -36.086273 -1.825065
185.23738 -36.010559 -3.5157549
185.31868 -36.006905 -5.38872
184.29662 -36.034359 -8.9149084
184.66516 -36.095833 -13.324405
185.22266 -35.955524 1.854291
181.19955 -35.901348 -1.858875
185.16763 -35.957638 -1.928524
185.16852 -35.910431 -2.878562
185.18018 -35.98241 -4.6772132
185.75563 -35.945095 -12.691369
181.37573 -35.798115 1.831863
180.74471 -35.79015 -1.737999
180.51627 -35.659527 -8.7569208
183.54306 -35.660759 -10.951042
186.02341 -35.454964 1.871924
180.11229 -35.449883 -0.23995499
184.58879 -35.508427 -13.361684
180.72675 -35.212299 -1.788532
180.01254 -35.239944 -6.3922129
180.25925 -35.113464 1.757131
180.75055 -35.052517 -1.7341681
180.99316 -35.179718 -5.5984459
185.06937 -35.11697 -6.4730601
185.38724 -34.828758 -2.8163829
180.00607 -34.994865 -4.9221239
181.36145 -34.609623 -1.757594
190.57635 -34.65799 -3.536411
184.46538 -34.363228 1.4659441
184.96391 -34.302883 -1.810004
180.40242 -34.36787 -3.5522931
182.742 -34.253731 -6.8709612
192.16974 -34.307388 -9.8829756
180.13445 -34.049019 2.15784
184.61221 -34.129654 0.159988
185.07333 -34.064362 -2.6390851
184.91338 -34.087574 -8.8197536
184.92346 -33.817085 0.32832599
184.98149 -33.603519 -0.77161098
184.70363 -33.565182 1.568204
180.47984 -33.415661 -6.8422041
183.03192 -33.483063 -10.920536
180.37007 -33.38448 -2.4116061
193.3477 -33.22628 -2.534364
180.49582 -33.243782 -3.8704131
180.54803 -33.315426 -4.644969
184.58145 -33.084068 -0.183226
180.69598 -33.189011 -0.62152499
185.00168 -33.09388 -2.928431
185.23323 -33.119659 -6.1519361
184.57126 -33.049553 -7.503634
184.28426 -32.921223 1.887114
184.60791 -32.97831 0.14617901
184.47205 -32.888863 -5.9268351
184.32202 -32.892845 -6.254539
185.2498 -32.851162 -6.584991
191.80893 -32.859558 -8.8652687
184.14546 -32.741402 1.459954
183.86194 -32.626419 -3.0479369
180.19464 -32.631771 -8.9673128
182.33246 -32.433945 2.2812321
190.17464 -32.490067 -4.4334941
194.40617 -32.469757 -6.0002708
184.43524 -32.56366 -6.509315
180.52193 -32.42178 -7.6555209
186.77211 -32.484047 -8.0329227
183.86885 -32.276878 1.720395
193.99854 -32.217529 -1.239339
183.3736 -32.303459 -5.6682749
184.25385 -32.333832 -6.3326769
184.41045 -32.094048 1.415572
194.83664 -32.059978 0.0071990001
183.99428 -32.031128 -0.999219
183.98834 -32.17395 -2.010896
185.94891 -32.189484 -3.2050779
182.40625 -32.199959 -5.5307961
186.56476 -32.000122 -6.7118402
182.325 -32.109215 -7.2039032
183.87602 -31.865097 -3.0022559
185.84766 -31.866346 -4.6938572
194.72606 -31.839701 -5.243772
181.87079 -31.875242 -5.8667459
183.6658 -31.896709 -6.2539778
183.39569 -31.642824 2.3284171
191.06003 -31.781767 1.552194
183.85655 -31.726566 -3.466301
185.911 -31.481333 -5.3155198
182.90855 -31.380379 2.280163
184.38374 -31.393295 -3.055233
183.23343 -31.148195 1.859642
185.55022 -31.079845 -2.945184
185.63411 -31.002346 -2.9428661
181.63275 -31.103172 -6.8683109
185.1657 -31.012779 -7.5056911
182.15805 -30.880024 2.327101
183.23616 -30.953524 1.179563
185.63467 -30.929628 0.85720301
185.72162 -30.846338 -4.757895
180.39943 -30.856956 -7.1478491
185.27318 -30.621597 -6.275167
182.73001 -30.502926 2.2308791
185.58955 -30.463924 -3.2231779
185.73915 -30.580729 -3.682585
185.53949 -30.414989 -4.0955629
185.36903 -30.475765 -4.716526
185.29092 -30.582626 -4.9849572
182.38879 -30.274437 1.9106981
195.76804 -30.387213 -0.28674799
185.32697 -30.223989 -4.7123332
185.62335 -30.163326 -3.625941
185.05351 -30.150728 -4.9735918
184.92412 -30.06588 -5.2005401
186.48232 -30.134815 -6.9961181
187.25842 -30.025604 -8.5146942
180.6792 -29.926353 1.9069999
182.22296 -29.892857 1.7655849
185.52151 -29.825146 -6.6500959
184.31903 -29.62701 -5.675231
184.99461 -29.625189 -6.4539871
180.57794 -29.522152 1.8922319
185.54251 -29.128689 -6.116715
185.61984 -28.623535 -7.7897472
180.46269 -28.424093 -3.5086219
180.06932 -28.234938 -3.60251
180.29567 -27.910366 -3.301389
180.23096 -27.654688 -1.513972
180.55331 -27.766989 -3.5598991
180.45297 -27.792339 -4.312768
180.38358 -27.678944 -4.956295
180.1282 -27.584236 1.8558789
180.11232 -27.596682 -4.55793
180.49596 -27.536755 -4.530201
196.83243 -27.542658 -9.7368841
190.62683 -27.242073 -5.4618368
190.64241 -26.831778 -8.0213938
190.45241 -26.777586 -3.0621591
180.51196 -26.57407 1.145058
190.28729 -26.596786 -0.54725099
190.29701 -26.536835 -0.97761101
190.18484 -26.312817 -0.57873601
189.51086 -26.324541 -4.186089
191.09193 -26.320347 -4.3184609
190.47206 -26.200069 -8.8875332
190.32343 -26.113525 0.61335999
189.9283 -26.090199 -1.760342
190.55325 -26.166943 -3.014621
189.10123 -26.109222 -8.3714209
191.03674 -25.876423 -3.8565321
191.34181 -25.842777 -5.9955492
189.61914 -25.820143 -8.0296984
197.89436 -25.545141 -0.49013999
190.24039 -25.478573 -2.2677679
192.78073 -25.593082 -9.8226891
198.53174 -25.377403 -1.838915
189.978 -25.389984 -3.466994
189.0024 -25.379332 -6.811172
189.84369 -25.335653 -8.7912188
197.79205 -25.171669 1.30393
197.73698 -25.114676 1.107499
197.99875 -25.00626 -0.58091599
198.30878 -25.102776 -1.565446
198.44992 -25.058075 -1.730749
197.96494 -25.028486 -1.886779
189.53966 -25.036783 -3.422925
195.03885 -25.100239 -6.0491672
188.84982 -39.878925 2.0848639
183.43381 -39.835236 1.09322
186.70346 -39.903702 -3.944689
183.3963 -39.855385 -5.7464552
187.42313 -39.679585 1.7084531
187.26666 -39.725437 0.67442203
185.13454 -39.68795 -0.99561501
187.16847 -39.74929 -0.90231401
187.03635 -39.767719 -1.993183
184.71704 -39.613186 -4.9475241
181.46637 -39.484921 1.436857
187.83493 -39.54834 1.0631551
183.95422 -39.560928 0.83261299
185.92627 -39.412788 -0.94027698
187.14114 -39.463108 -1.0887049
185.67178 -39.584072 -3.312238
189.297 -39.433769 -4.323226
185.65865 -39.49839 -8.3474665
181.89536 -39.395866 2.175559
182.16541 -39.37072 2.11537
183.00435 -39.39069 1.516584
186.77521 -39.271835 0.126866
187.85492 -39.358158 0.14404599
186.85451 -39.38892 -0.029991001
188.3215 -39.31337 -0.150668
185.58311 -39.399658 -0.89268899
187.93961 -39.21212 -3.114289
188.9552 -39.381977 -3.2386141
186.43771 -39.323212 -4.2063279
189.07156 -39.314693 -4.3062482
182.87299 -39.01516 0.64517897
186.76965 -39.096642 0.14522099
186.87321 -39.187424 -0.136866
188.89731 -39.14463 -3.132534
186.25146 -39.054741 -3.9484379
186.28284 -39.162537 -6.1776829
182.68724 -38.889725 2.0962191
181.40436 -38.838066 1.803789
188.36865 -38.827415 1.718002
185.53773 -38.806694 -0.64043301
183.33278 -38.996689 -0.84112698
187.99704 -38.996311 -3.1305301
184.62999 -38.82798 -6.4567299
182.69275 -38.731777 1.9379801
181.36688 -38.620285 1.166453
185.2383 -38.707829 -0.060435999
183.80853 -38.610306 -0.97168601
186.20532 -38.622604 -4.1161628
181.81491 -38.544083 2.159425
183.22116 -38.442444 -1.873597
187.93903 -38.400261 -3.3946371
185.28516 -38.463821 -6.3416362
193.0188 -38.572727 -8.0734224
181.4614 -38.320267 1.372364
184.50256 -38.225147 0.115474
181.26208 -38.214424 -1.2978539
180.91824 -38.378876 -1.478786
183.09462 -38.323261 -2.076726
191.89116 -38.277061 -2.7468841
186.13071 -38.326874 -4.3482399
191.85149 -38.329826 -4.9580221
187.11752 -38.252693 -5.7757192
187.45503 -38.190258 2.2936659
181.87936 -38.151283 2.1218851
182.09511 -38.100933 2.0850699
181.0943 -38.115189 1.455076
182.31065 -38.16256 1.072325
192.16675 -38.190739 -0.199773
186.54968 -38.061981 -2.7307179
186.53064 -38.089996 -2.981319
188.19434 -38.071487 -5.5167871
181.56107 -37.995808 1.9442101
180.59972 -37.836445 0.956016
192.08228 -37.925777 -0.039216001
185.98912 -37.850471 -0.48137099
186.47873 -37.828217 -2.810041
187.40802 -37.958416 -3.4789879
181.56354 -37.622326 2.2044749
181.61417 -37.609982 2.207077
187.50452 -37.618034 2.275589
181.97339 -37.722549 1.662719
180.20596 -37.706795 1.072714
185.32756 -37.751175 0.640742
191.98405 -37.760567 -0.045136001
180.13614 -37.740906 -4.7917728
181.69389 -37.493088 1.682412
180.60443 -37.405476 0.90035897
184.47198 -37.460094 0.86734402
180.61447 -37.493637 -0.047906999
184.28261 -37.444572 -0.112858
183.70009 -37.466419 -0.77883798
180.69487 -37.222309 1.370313
180.09415 -37.332077 0.199697
186.55679 -37.27034 -0.070026003
180.95685 -37.311954 -3.250381
181.1788 -37.017418 1.78364
187.28601 -37.180595 1.558885
184.89153 -37.062538 0.87760502
180.4944 -37.002384 0.57221198
183.82123 -37.144981 -0.917247
192.38957 -37.12941 -1.320395
180.1812 -37.071293 -1.775982
184.71854 -37.041348 -10.988734
180.90941 -36.95628 2.238447
184.75026 -36.893803 2.3206561
181.82689 -36.941681 2.1161399
181.71548 -36.899216 1.495428
180.71307 -36.80835 -5.5959492
192.90106 -36.804092 -6.005147
185.34605 -36.837204 -7.288969
186.89719 -36.722382 1.901647
180.55795 -36.673508 -4.0852542
182.88937 -36.684643 -5.5817361
186.52361 -36.6203 -8.5516138
182.86743 -36.780273 -9.2960835
184.27277 -36.710178 -9.2410135
180.12263 -36.548355 2.272716
181.51122 -36.453896 2.1198201
180.63239 -36.524738 -2.7388971
183.37605 -36.552811 -5.7965112
180.38544 -36.571632 -6.303977
185.26501 -36.308357 1.01965
185.2457 -36.228195 0.133571
192.80875 -36.389259 -3.680747
185.49008 -36.271 -6.2981591
184.89177 -36.347172 -8.7349129
181.45979 -36.181206 1.532162
185.15315 -36.072212 0.69909102
185.12717 -36.104431 0.205745
185.13657 -36.011791 -2.2032869
185.25981 -36.040817 -4.0737801
185.10986 -36.038895 -5.1729851
182.97888 -36.143066 -9.0695629
184.26395 -36.118507 -13.683909
181.49506 -35.883377 2.1421101
185.06104 -35.998734 0.40243399
185.20299 -35.901581 -2.3762331
185.18683 -35.94799 -3.4043751
185.1543 -35.950668 -3.86833
185.23509 -35.920292 -4.2853489
185.12128 -35.89912 -5.2505002
184.74283 -35.811592 -12.425981
184.59819 -35.805664 -13.33749
186.39938 -35.683701 -7.415628
180.15698 -35.492935 -6.5541739
185.08475 -35.58881 -9.5003586
183.20056 -35.426083 -11.115422
185.86212 -35.11282 2.2405829
185.10431 -35.148621 -7.1745658
184.31808 -34.862595 2.251544
180.14442 -34.959545 -6.4463081
184.28552 -34.646904 0.97104299
183.77151 -34.654835 -10.919887
185.35931 -34.456783 -6.5629039
181.6571 -34.398773 -1.748793
184.8866 -34.386898 -2.1986639
190.41196 -34.368034 -2.8392429
184.16472 -34.173935 -2.14521
189.97726 -34.03788 -2.382524
190.08574 -34.105721 -2.5628941
180.27084 -33.852455 2.1126909
184.9906 -33.885117 -2.5934529
190.00626 -33.967358 -2.5069821
180.1613 -33.822304 -3.6842289
180.95216 -33.88665 -3.653054
183.89136 -33.871658 -9.4341793
184.75824 -33.696117 1.828669
180.27043 -33.691101 -4.529439
192.14742 -33.708954 -4.68258
191.00381 -33.632805 -8.6228085
180.27644 -33.588402 2.314105
184.98875 -33.45248 -7.145061
184.9592 -33.435608 -7.3136082
180.62048 -33.29319 0.31144899
183.87474 -33.394035 -2.673913
184.39877 -33.239838 -2.9647419
184.24033 -33.261581 -4.188231
185.40211 -33.213913 -5.9358459
184.474 -33.094795 -4.280086
192.14442 -33.080551 -4.26543
191.6806 -33.076401 -4.4746552
185.33633 -33.151585 -5.653502
184.15552 -33.09346 -6.5661402
184.65094 -32.898102 0.55148202
180.76668 -32.964226 -0.89166403
185.01942 -32.8573 -0.82066602
189.55891 -32.952267 -0.84773499
184.33487 -32.821899 -2.046334
183.95738 -32.889359 -2.871994
193.69215 -32.650429 0.042592
184.88834 -32.72929 -0.55075502
184.5294 -32.634026 -0.63119799
193.63753 -32.608845 -6.5230742
184.07346 -32.592682 1.815438
184.49683 -32.522598 0.202342
