# .PCD v0.7 - Point Cloud Data file format
VERSION 0.7
FIELDS x y z
SIZE 4 4 4
TYPE F F F
COUNT 1 1 1
WIDTH 1317
HEIGHT 1
VIEWPOINT 0 0 0 1 0 0 0
POINTS 1317
DATA ascii
180.83533 -249.7912 -5.135736
180.9848 -249.09186 -5.1506591
181.64809 -255.05612 -6.1415758
190.61752 -252.68054 -5.8506742
190.56409 -252.64136 -6.2163591
180.44937 -250.00269 -5.2360539
180.52267 -249.84024 -5.1788602
180.32826 -249.81219 -5.3232059
180.80801 -249.82065 -5.2006841
180.92532 -249.12991 -5.126874
182.20448 -247.73849 -5.100801
182.19293 -247.68112 -5.5771642
182.49628 -247.34671 -6.1703291
182.40819 -241.76122 -7.612639
182.83795 -241.48041 -7.6268611
184.30634 -241.46393 -7.8959842
182.96562 -241.29684 -7.4769621
185.10641 -240.83453 -7.3755078
185.51712 -240.83441 -7.5350981
182.69217 -240.8741 -7.811316
195.66949 -258.9949 -6.483707
186.14801 -256.13766 -5.2389522
181.35864 -255.80591 -6.5513892
180.57086 -255.68475 -16.959639
181.3044 -255.41565 -6.4997501
183.48543 -255.45724 -6.5385852
181.33995 -255.09691 -6.2881198
181.30942 -255.08087 -6.6214948
184.80147 -254.85471 -6.5062332
197.57715 -254.82187 -6.8478308
197.62347 -254.79884 -6.3628802
197.63031 -254.55994 -6.8475318
185.09526 -254.22275 -4.9216938
181.92337 -254.03244 -4.8856401
183.48312 -254.06653 -4.8948398
184.55103 -254.09662 -4.9256568
190.37968 -253.04146 -6.6111021
191.2562 -253.1286 -6.6353059
190.46028 -252.82629 -6.6866908
190.42337 -252.80542 -6.8344159
191.48682 -252.60358 -5.3259749
190.5434 -252.68515 -6.2649841
190.45889 -252.69339 -6.5861912
191.60623 -252.49095 -5.3154898
189.75804 -248.71884 -6.9063191
192.30402 -248.5665 -6.9933162
192.50827 -248.45718 -6.999835
182.37567 -248.31462 -5.7148781
182.5528 -248.35939 -5.9954119
192.68756 -248.31586 -7.0053339
182.18623 -247.68193 -5.40343
193.07559 -247.63152 -7.01545
182.28224 -247.55527 -5.6928759
182.46182 -247.40839 -5.954885
182.46033 -247.41644 -6.1287608
182.37949 -247.50095 -6.3170729
191.17836 -247.47633 -8.2636995
191.44672 -247.44397 -8.269825
191.81686 -247.47566 -8.2914085
182.323 -247.38046 -4.5916009
182.96979 -247.27173 -6.5282869
191.96698 -247.32695 -7.9630332
183.06424 -246.73215 -6.6663508
184.45122 -246.55736 -7.631516
181.54492 -246.14337 -10.032907
183.61717 -244.48407 -8.7683477
185.62604 -244.25246 -8.1603136
184.07077 -243.80675 -8.0681152
196.8497 -241.89215 -4.6595559
182.53046 -241.66342 -7.6691408
182.4053 -241.47028 -7.6679659
182.9951 -241.34464 -7.4154992
184.33003 -241.06534 -7.8487968
184.78496 -240.88219 -7.4847441
185.08842 -240.84932 -7.4364691
185.41306 -240.82277 -7.521277
182.63472 -240.78995 -7.8747911
182.83829 -240.72943 -7.8820639
186.40842 -240.20052 -7.543613
189.92363 -259.80948 -8.2938652
189.80414 -259.81387 -8.6120167
190.65167 -259.83713 -8.6803417
187.70316 -259.58911 -6.8391571
191.93027 -259.41931 -8.4315109
191.86345 -259.51071 -8.8683681
191.61674 -259.43707 -10.23518
195.52969 -258.95679 -6.7105842
191.01512 -258.74548 -12.810007
190.14354 -258.46924 -9.7588425
195.94952 -257.85294 -6.9587822
195.91708 -257.94315 -7.2606521
190.14886 -257.88336 -12.682524
196.14282 -257.72589 -6.9622941
192.93237 -257.67877 -8.4875479
190.56207 -257.42838 -9.8072701
185.46173 -257.31274 -6.97647
188.41859 -257.38461 -11.683681
188.81696 -257.08981 -12.725
185.2242 -256.69342 -7.0138168
186.90805 -256.75269 -11.520906
182.19116 -256.48779 -11.065334
193.54181 -256.19727 -6.9139662
190.40694 -256.07654 -8.3702507
189.89215 -255.9187 -8.1627541
182.44901 -255.86938 -11.074974
183.33578 -255.97475 -11.076677
196.50984 -255.71002 -6.649415
196.44711 -255.75537 -6.8265648
193.12692 -255.78453 -7.1896982
186.68919 -255.76668 -10.697168
185.08336 -255.75897 -17.542131
196.89415 -255.48457 -6.3434768
184.63879 -255.51355 -6.7473121
183.3445 -255.43256 -10.067352
183.39737 -255.21512 -5.5462141
181.72284 -255.37167 -5.71979
183.37331 -255.2394 -5.775723
183.66539 -255.37477 -6.7771101
183.7522 -255.32703 -6.8759179
184.11623 -255.22437 -6.92486
181.51944 -255.3976 -7.833179
183.49185 -255.13901 -5.7032242
184.1665 -255.01524 -6.9115858
186.20267 -255.09927 -10.60363
181.42865 -254.99776 -6.700573
181.79681 -254.907 -6.7155929
184.09991 -254.88126 -6.689147
181.65656 -254.95125 -6.9498601
184.48553 -254.9828 -6.9863672
182.55168 -254.92899 -17.096073
190.6734 -254.70236 -8.2600832
182.21092 -254.63318 -15.677594
180.61012 -254.44168 -5.3478498
186.13112 -254.48802 -5.7710538
184.70503 -254.55389 -6.2072978
185.79488 -254.25751 -10.781889
186.33887 -254.33496 -10.830166
182.27408 -254.0325 -4.8878441
182.687 -254.03566 -4.8902459
183.1127 -254.0499 -4.8927679
183.82114 -254.09409 -4.9091029
184.27791 -254.1228 -4.9191151
190.43948 -254.04703 -7.1225791
191.17523 -254.13885 -8.5620785
190.47638 -253.98865 -6.7910032
181.02194 -253.91231 -16.566513
181.69348 -253.88242 -16.835342
191.11957 -253.79333 -8.6046829
181.65302 -253.64642 -9.3612909
186.01308 -253.76801 -11.063422
181.92358 -253.76953 -16.72019
182.21564 -253.75868 -16.826262
184.51834 -253.58299 -14.720115
186.52271 -253.57571 -17.514147
190.70061 -253.3557 -5.541893
190.61169 -253.28821 -5.7628288
190.48009 -253.3429 -6.2842479
190.25592 -253.32779 -6.9650712
190.53909 -253.07298 -5.5411968
190.03722 -253.05417 -8.4987392
181.35292 -253.04259 -9.0911684
182.61369 -253.0302 -11.247705
190.52707 -252.86755 -4.7116771
190.46257 -252.86917 -4.9825468
190.3446 -252.81963 -6.3904638
190.45793 -252.88214 -6.2888079
190.16614 -252.99535 -6.957972
190.28485 -252.93503 -7.2050471
187.53099 -252.84229 -12.112873
190.47736 -252.64328 -6.7450151
190.49686 -252.70309 -6.931726
189.94324 -252.70976 -8.20331
181.28455 -252.78127 -9.0038977
181.68585 -252.75185 -9.1468296
182.94032 -252.61681 -16.745533
190.1915 -252.51479 -8.2512169
180.11832 -252.59256 -15.96277
190.67154 -252.39856 -4.976368
190.4324 -252.25363 -6.7989249
190.53189 -252.38763 -6.8996582
180.38348 -252.20822 -14.809593
190.9053 -252.15784 -6.6554751
192.82091 -251.89746 -7.0320139
185.4227 -251.84225 -9.5704832
196.56265 -251.63451 -6.4477162
194.69992 -251.64584 -6.7446251
193.60457 -251.71811 -6.9533739
182.76239 -251.62271 -11.501682
183.53885 -251.61554 -15.375935
182.84885 -251.60669 -15.739967
184.39935 -251.64771 -16.813076
196.49976 -251.52237 -6.8173499
180.48932 -251.50107 -8.1257896
185.34186 -251.48965 -10.838743
184.34915 -251.50191 -16.951935
184.46494 -251.40205 -17.002762
180.62508 -251.24374 -9.0322351
180.63602 -251.3596 -10.171969
180.74994 -251.39868 -14.967257
181.80606 -251.09863 -8.5804939
181.14755 -251.1243 -10.031734
180.14684 -251.17508 -10.932323
180.69748 -251.14159 -14.926338
190.80109 -250.91333 -4.6133828
181.26395 -250.89058 -9.7752218
181.76556 -250.97617 -11.379589
181.17078 -250.61981 -9.0006285
181.24011 -250.64792 -9.0716667
181.79369 -250.74927 -15.097853
181.72722 -250.4261 -9.0604382
180.04623 -250.47607 -11.423988
183.16922 -250.4733 -15.258709
180.21806 -250.22485 -11.4075
180.80899 -250.00099 -7.7874842
180.67752 -250.09726 -7.8969321
181.22293 -250.09695 -9.0551434
180.23871 -250.00328 -11.193306
180.54527 -249.90913 -5.0469279
181.0472 -249.80884 -9.0371656
181.20909 -249.92645 -9.1141853
180.33356 -249.80051 -11.311029
182.15201 -249.67505 -7.8401728
182.66409 -249.66367 -8.2137699
180.71332 -249.74402 -10.18136
182.4313 -249.76247 -10.630848
180.95581 -249.79532 -11.299704
182.08975 -249.7496 -11.454962
182.36528 -249.54608 -7.9886141
181.03761 -249.44836 -10.255892
180.91199 -249.42523 -11.286255
181.40656 -249.32779 -6.7017522
192.22681 -249.23526 -7.2516079
180.9791 -249.07214 -4.9903979
181.39824 -249.09071 -6.7207942
181.31418 -249.02399 -6.8978319
180.08946 -248.8065 -9.0267525
180.24568 -248.80977 -9.5144558
180.24452 -248.91974 -10.14175
180.73499 -248.98914 -13.54581
188.14186 -248.64195 -7.7725139
181.27303 -248.65257 -7.80335
187.90149 -248.66701 -7.8342452
180.60257 -248.65475 -9.9139366
180.2648 -248.722 -10.173852
180.91092 -248.61755 -14.730206
182.55637 -248.57608 -6.7696981
189.77258 -248.59834 -7.0845981
182.38498 -248.23874 -5.6712742
192.60831 -248.38171 -7.2032032
180.04126 -248.26477 -8.1023521
180.53818 -248.32378 -9.0213604
180.70256 -248.34488 -10.13657
182.33284 -248.09521 -5.5064321
182.49411 -248.16397 -5.7286868
181.53229 -248.09283 -6.3167052
192.54636 -248.19937 -7.090661
180.39697 -248.16724 -7.897316
187.54333 -248.10342 -7.878211
181.7822 -247.75369 -4.5867429
182.23325 -247.71201 -5.021359
182.146 -247.74597 -5.504076
182.16858 -247.72009 -5.6391902
193.26396 -247.66049 -7.2895179
180.63776 -247.72264 -7.8606958
180.77765 -247.7644 -9.0027094
182.33643 -247.56798 -5.5226512
182.28387 -247.5372 -5.6376009
190.98224 -247.52159 -7.455852
191.3454 -247.40314 -7.4693499
180.47302 -247.22624 -6.8723311
184.08722 -246.91045 -6.965867
181.10915 -246.80794 -7.4414482
183.80122 -246.9343 -7.902699
180.86407 -246.77631 -6.7438469
183.30035 -246.63554 -6.7722602
195.9263 -245.93851 -9.5355654
183.45929 -244.8096 -8.7661715
183.35674 -244.61386 -9.1670666
185.70914 -244.18576 -8.2817307
184.2973 -243.5475 -8.2034311
196.77322 -242.20078 -5.5227318
196.80495 -242.12602 -5.7481489
196.6588 -241.99359 -4.3491559
196.85693 -241.87767 -4.907217
184.28581 -241.45236 -7.895195
184.96919 -241.26302 -6.9393802
182.9458 -241.37735 -7.4223452
184.56216 -241.26317 -8.1919909
182.95036 -241.35953 -8.6856604
194.5592 -241.07744 -5.8851461
195.07597 -241.05882 -6.991982
184.93817 -240.92371 -7.3166819
182.0997 -240.80379 -7.8511548
184.27667 -240.97086 -7.8866129
184.75742 -240.77498 -7.3458371
185.39363 -240.6272 -7.3203011
184.96913 -240.68698 -7.5289311
182.09143 -240.72575 -8.0196695
184.15022 -240.45749 -8.2698536
194.55832 -240.2504 -6.9495268
186.54094 -240.09935 -7.4091592
182.62564 -240.12752 -8.1222887
180.13821 -240.05313 -8.4972887
181.01408 -240.19489 -9.2177715
180.0459 -240.15215 -12.314327
190.24301 -259.89484 -8.5953541
188.91713 -259.81461 -10.163506
192.10468 -259.89108 -10.277809
189.02895 -259.72711 -9.0105343
187.69849 -259.57812 -6.8588929
190.23659 -259.46274 -7.6171522
191.92786 -259.42862 -8.4624901
189.95116 -259.59973 -11.917177
193.32526 -259.38574 -8.3098097
192.95175 -259.27969 -8.5159054
191.8226 -259.04004 -9.1400642
193.94661 -258.94235 -8.9964161
187.97212 -258.67151 -5.8445029
187.07713 -258.67029 -6.3353009
189.33556 -258.71243 -10.764419
191.66234 -258.63379 -12.582462
188.52081 -258.56168 -5.8925028
194.83464 -258.43454 -6.9377422
196.00031 -258.50916 -6.865664
193.1283 -258.41107 -7.9636049
194.88609 -258.45993 -9.5396194
190.13152 -258.44537 -9.7546301
194.89426 -258.39371 -6.846755
184.39757 -258.3457 -12.823404
195.32269 -258.02686 -9.7237883
195.90598 -257.85452 -6.5365648
195.94708 -257.819 -6.995275
191.43349 -257.91956 -9.4966507
194.00397 -257.94226 -13.084147
183.55969 -257.79776 -10.68434
181.96684 -257.65643 -11.269193
182.49969 -257.43988 -12.68466
190.03165 -257.08273 -10.093439
190.74045 -257.01761 -12.271404
185.31393 -256.98465 -6.9706898
193.80051 -256.95877 -10.378664
189.07683 -256.94226 -12.033836
196.91412 -256.76175 -9.3348265
193.77092 -256.70627 -10.65808
194.18419 -256.47336 -8.8234587
190.33672 -256.40793 -9.9583445
190.13922 -256.57767 -10.095238
181.63321 -256.36676 -6.5307398
193.73929 -256.28659 -9.174509
182.16434 -256.0704 -7.4520359
185.78667 -256.16541 -7.7976389
190.05225 -256.08911 -7.8696961
190.33507 -256.01025 -12.746712
186.41331 -255.81279 -7.0486679
181.94783 -255.95383 -7.3647189
190.54153 -255.97113 -9.04105
182.20792 -255.81873 -10.625807
182.82401 -255.82716 -11.070292
193.02206 -255.75357 -6.5315151
183.54726 -255.46118 -6.9013362
190.35806 -255.43033 -7.6911588
189.95235 -255.53746 -8.2663546
183.32237 -255.44786 -9.9740896
181.71042 -255.35065 -5.5553098
183.39383 -255.21152 -5.5650101
183.51053 -255.35565 -6.2319541
181.84229 -255.22745 -6.9319181
181.49873 -255.34447 -7.724813
192.46663 -255.2879 -9.2263832
180.70309 -255.34521 -16.790245
181.67361 -255.02097 -6.16645
181.29305 -255.09778 -6.9686251
182.03905 -255.0889 -15.554493
183.97496 -254.95354 -6.6716108
187.31622 -254.86922 -10.566162
186.34175 -254.83083 -11.403041
189.82243 -254.72192 -7.289269
190.22276 -254.74913 -7.7256141
190.44424 -254.62839 -7.9097538
188.10307 -254.78857 -10.482679
181.10855 -254.40129 -5.0459199
183.1951 -254.43748 -5.00209
186.15646 -254.43607 -5.5812998
184.19658 -254.54382 -5.8914971
184.68407 -254.55234 -6.2191939
185.02179 -254.20061 -4.9134822
180.66183 -254.36118 -5.4163671
191.85117 -254.36815 -6.5371289
185.67903 -254.32787 -11.334422
186.42128 -254.20496 -17.936661
182.57788 -254.18779 -4.7546301
182.50615 -254.09805 -4.9370122
184.60513 -254.09967 -4.9042048
190.45401 -254.01108 -6.293159
191.92093 -254.19197 -6.815434
197.38324 -254.09766 -6.8373828
190.44482 -254.07675 -7.0341249
182.11464 -254.11073 -9.0332603
185.70915 -254.1738 -11.047363
180.15439 -254.12216 -16.113632
190.49315 -253.8412 -6.5936208
182.28694 -253.83742 -9.2433567
183.75783 -253.97559 -14.261438
180.9292 -253.9165 -16.496403
190.56915 -253.75232 -5.849833
190.48041 -253.75552 -6.1710148
190.25806 -253.72055 -6.2856498
191.0526 -253.71701 -7.65487
191.10538 -253.77679 -8.7263088
181.69333 -253.63855 -9.3686018
185.90773 -253.78738 -11.123108
190.46185 -253.42134 -6.1579971
181.36449 -253.4593 -9.0169048
181.06781 -253.45993 -16.429007
185.68903 -253.38013 -4.9679499
190.65063 -253.29446 -5.5582552
190.36497 -253.24095 -6.6671472
190.19818 -253.29984 -7.0680661
189.76976 -253.28183 -7.7505488
190.01135 -253.35822 -7.717041
189.98441 -253.22357 -8.4983845
181.48402 -253.2524 -9.3413353
186.10597 -253.20177 -10.32678
183.38974 -253.29077 -16.733999
185.68321 -253.13905 -4.961946
190.50299 -253.01482 -4.9765558
190.35327 -253.04272 -6.3012118
189.67105 -253.1152 -7.7028809
182.85849 -253.10754 -11.730084
183.41956 -253.04825 -16.945332
190.48552 -252.98224 -4.7066498
190.53111 -252.96823 -5.559875
190.42128 -252.94144 -6.165626
190.35907 -252.98868 -6.5697508
190.46587 -252.99408 -6.7591848
190.21143 -252.98911 -6.9519229
190.26028 -252.94165 -7.7077479
186.30719 -252.96196 -10.223356
180.23441 -252.87242 -15.677908
181.45833 -252.94922 -16.714088
190.65201 -252.73642 -4.985076
190.45505 -252.64554 -6.5914841
190.5089 -252.6073 -6.945147
190.34441 -252.70151 -7.5989389
181.38748 -252.65082 -8.9331064
180.74561 -252.64819 -9.8866215
182.19881 -252.60106 -11.637962
189.57269 -252.53001 -4.6331048
185.74588 -252.49519 -5.221076
180.92705 -252.49695 -8.719286
189.88043 -252.48595 -8.6984463
190.86642 -252.47849 -8.7154903
180.20239 -252.52438 -16.065413
180.42764 -252.43001 -16.101347
193.61371 -252.25623 -6.9526138
190.33093 -252.29884 -7.551867
190.70639 -252.39363 -8.3304443
182.08954 -252.27896 -9.5522804
180.08386 -252.35715 -16.206974
190.9635 -252.15265 -6.5816841
181.41367 -252.09711 -8.8304901
183.21098 -252.05894 -10.885049
185.96214 -252.15747 -11.015238
181.25085 -252.07849 -14.250574
181.0838 -252.12338 -16.213505
192.51117 -251.94809 -7.0218792
192.98318 -251.84592 -7.0166488
180.56033 -251.8606 -8.1366158
181.8708 -251.94147 -11.415806
183.03117 -251.86801 -11.796812
181.17157 -251.81279 -15.37009
181.21255 -251.71568 -8.1664114
180.61203 -251.68814 -8.7280788
181.39175 -251.71898 -9.1522999
180.90277 -251.73502 -9.6949387
182.1497 -251.61079 -15.083364
183.09552 -251.62762 -15.299255
182.83797 -251.61064 -15.825526
184.33646 -251.73848 -16.7603
180.32224 -251.46831 -8.6468468
181.09412 -251.47328 -11.756586
182.20457 -251.49377 -15.137657
182.92081 -251.47061 -15.924733
190.13751 -251.23419 -4.5729508
180.43402 -251.29526 -8.5804319
180.1974 -251.31354 -8.8205614
180.06299 -251.39047 -11.031277
180.20953 -251.24509 -11.458292
180.70442 -251.37271 -14.515368
180.66385 -251.37219 -14.922878
181.88933 -251.31737 -15.212942
184.48938 -251.33871 -17.040298
181.77998 -251.0957 -8.6174669
180.83774 -251.0753 -8.8351803
180.21671 -251.14664 -11.02174
185.40649 -251.03044 -11.046124
182.39865 -251.06097 -11.587541
181.9959 -251.06195 -15.330519
182.10312 -251.09033 -15.391059
180.56354 -250.82301 -10.93902
183.42432 -250.94354 -15.298578
182.09793 -250.91754 -15.753515
180.15387 -250.79114 -9.0409212
180.57574 -250.66594 -9.2919607
180.9436 -250.62962 -13.733465
181.15269 -250.55356 -9.0499182
180.71902 -250.52774 -14.625598
181.24612 -250.29968 -8.6941795
180.70636 -250.12238 -7.9098029
181.14703 -250.11804 -8.506216
180.25586 -250.15923 -11.058715
183.29585 -250.01051 -15.061363
181.2182 -249.83842 -9.004446
182.12851 -249.90663 -10.741172
180.52373 -249.81699 -10.904282
180.30376 -249.84045 -11.308236
181.42906 -249.862 -13.780544
180.84448 -249.96994 -14.071632
181.3071 -249.82906 -14.077102
181.80365 -249.97791 -15.266813
181.82239 -249.69449 -8.6371737
181.74265 -249.67351 -8.8239098
180.97275 -249.7438 -9.0569124
180.96545 -249.67902 -9.2312841
180.67973 -249.63643 -11.386594
183.74384 -249.78683 -13.564544
181.32222 -249.58199 -4.680428
181.94864 -249.45476 -7.6288819
182.57562 -249.49783 -8.2536411
180.50764 -249.58763 -11.324411
180.93488 -249.49799 -11.329445
182.09784 -249.48151 -14.51619
180.89752 -249.37054 -4.9619451
182.48114 -249.38373 -8.6017962
181.81339 -249.25105 -11.108141
183.44153 -249.37547 -11.374104
181.05505 -249.0779 -4.656837
180.93564 -249.13028 -5.045496
181.41927 -249.02472 -6.6669321
182.51308 -249.18907 -7.3468881
181.47031 -249.13744 -13.548018
189.84558 -248.88452 -7.1678391
181.64488 -248.81325 -7.7646098
180.5506 -248.8813 -9.5981026
180.88617 -248.87518 -9.8708143
180.29697 -248.93883 -10.152146
183.65671 -248.94012 -11.442812
180.93057 -248.89197 -14.310727
180.68703 -248.94847 -14.756729
180.27765 -248.69307 -10.163544
180.94525 -248.62415 -14.648865
186.95236 -248.41133 -8.0176392
182.21225 -248.4128 -8.8123636
180.2372 -248.50479 -9.1598864
180.61517 -248.59763 -9.8190289
180.8886 -248.5211 -10.202469
180.36005 -248.57227 -13.201305
182.37125 -248.25128 -5.6463718
182.64993 -248.20346 -5.7759838
182.48303 -248.2587 -6.116672
181.55313 -248.33041 -8.8167677
180.50146 -248.32567 -9.0294943
180.91231 -248.33603 -14.469715
181.27412 -248.18257 -4.5807762
182.2175 -248.16428 -4.9216919
180.12119 -248.14963 -6.953794
180.23666 -248.17914 -8.066206
180.81848 -248.16685 -9.6854801
181.6071 -248.03876 -10.899569
181.46124 -247.80823 -4.5771489
182.14171 -247.89624 -4.928339
182.57428 -247.93593 -5.6601419
192.51929 -247.85706 -7.0795622
180.00374 -247.95146 -7.4081068
180.88095 -247.95584 -8.1741943
180.38622 -247.81027 -9.3718071
180.6485 -247.92212 -9.7787304
181.49045 -247.83563 -9.9770527
181.0018 -247.81744 -13.456602
182.09833 -247.66653 -4.6337581
182.23193 -247.72302 -5.8802261
182.29585 -247.69568 -6.1174188
180.12573 -247.66432 -6.7823582
193.00732 -247.70058 -7.0543151
193.05197 -247.74342 -7.2733021
190.8744 -247.71173 -8.1630039
180.82156 -247.71156 -9.0601101
182.00455 -247.67473 -10.017062
181.81685 -247.68001 -14.44078
182.28075 -247.51811 -5.6881189
182.45625 -247.40536 -5.810051
182.37024 -247.52 -6.1931968
193.23404 -247.59961 -7.102406
192.60239 -247.55118 -7.2035518
180.53996 -247.4189 -9.1475706
181.79112 -247.3483 -4.5691891
180.43213 -247.31754 -8.7583618
180.2478 -247.21109 -8.9644089
182.99841 -247.01199 -6.764256
181.79689 -246.8418 -4.5102
181.66049 -246.88257 -6.8471651
183.82828 -246.93134 -6.9236498
187.73608 -246.9334 -8.0306978
180.91879 -246.80359 -8.8863554
180.53127 -246.92937 -9.0313778
184.59662 -246.95438 -9.091033
181.51151 -246.83688 -10.656521
180.84143 -246.69662 -6.7709851
183.2739 -246.71655 -6.9000282
184.30786 -246.61278 -6.941144
180.69185 -246.74167 -9.0403032
181.36221 -246.74765 -9.0829039
181.7869 -246.49873 -9.6796484
187.91951 -246.11183 -8.0157442
182.41733 -245.83618 -10.619734
182.70969 -245.36008 -10.645432
183.1492 -244.88123 -9.0451136
185.50891 -244.27881 -8.1946936
184.21149 -244.1846 -8.2680473
184.67664 -243.32527 -8.2631569
184.716 -243.10602 -8.2601242
196.63007 -242.15625 -4.2844491
196.8504 -241.8813 -4.703732
182.47972 -241.68665 -8.1133442
182.46399 -241.51947 -7.8314242
180.19351 -241.44366 -10.254276
182.87305 -241.37479 -7.6935449
194.94708 -241.11188 -7.3589239
184.40402 -241.16072 -9.3264847
185.51982 -240.88878 -7.0790339
182.54881 -240.9335 -7.809031
194.04626 -240.60678 -6.432271
194.67622 -240.65262 -6.684103
184.70813 -240.76465 -7.754097
182.55238 -240.73178 -7.9159641
182.71655 -240.6136 -8.047266
181.30576 -240.62904 -8.3776493
181.87274 -240.66692 -8.4115829
185.25609 -240.2419 -8.3249321
189.13322 -259.59595 -9.7226934
188.81886 -259.59814 -12.127648
190.58586 -259.54327 -12.591654
189.22977 -259.03 -10.619399
193.83551 -259.02313 -10.673162
195.77307 -258.8219 -6.829946
196.03311 -258.94427 -7.3556671
192.76682 -258.92743 -8.3974342
194.13071 -258.82617 -9.0038586
193.60617 -258.77835 -8.4712658
194.40973 -258.71594 -10.091784
187.06197 -258.54187 -6.519835
187.35704 -258.47476 -6.9611239
193.26665 -258.43994 -8.4561863
190.63283 -258.40009 -9.7443523
194.02179 -258.40192 -9.648447
191.90601 -258.34146 -9.141655
191.49004 -258.24683 -9.4255772
189.54643 -258.39392 -9.7797298
192.43829 -258.20786 -10.566902
187.17732 -258.09702 -6.2150078
196.11923 -258.18307 -6.9446931
194.76666 -258.06512 -9.6913443
194.37825 -257.83789 -7.0369968
187.41405 -257.99976 -7.778934
196.06427 -257.6059 -6.541173
196.22275 -257.76633 -7.8624501
194.66034 -257.60757 -8.865097
190.49417 -257.62497 -9.828002
183.96448 -257.61072 -10.714312
182.38261 -257.67908 -12.55998
196.94792 -257.52252 -8.8586531
190.58545 -257.46616 -9.8205013
194.10162 -257.30795 -10.402372
185.33078 -256.94495 -6.934669
196.94127 -256.85425 -9.4588871
188.09517 -256.88116 -12.153513
193.56702 -256.71988 -10.360692
189.62428 -256.7999 -10.622124
182.67813 -256.63257 -11.315331
193.58275 -256.47208 -10.643395
185.57901 -256.56131 -17.706247
181.72835 -256.27811 -7.3580041
190.27332 -256.21283 -8.6999016
190.46674 -256.24506 -9.1841726
192.96594 -256.33078 -9.5822105
181.50052 -256.17499 -7.1673541
193.57083 -256.17108 -7.008214
185.74129 -256.10541 -7.5115099
185.88185 -256.11633 -8.0062246
190.41695 -256.12354 -8.7457647
190.45956 -256.16486 -9.2792044
190.37315 -255.99646 -8.6873837
181.82628 -255.86017 -9.8734703
181.86975 -255.97583 -10.012331
186.03148 -255.89465 -10.856391
182.26416 -255.89845 -11.037105
185.88568 -255.88777 -11.113468
184.09039 -255.89902 -16.908894
183.35942 -255.73409 -5.7286901
181.47911 -255.77646 -6.7105112
183.90602 -255.78261 -6.6863799
186.23747 -255.77927 -7.0379162
190.07837 -255.78851 -8.1696596
186.59189 -255.65689 -10.809717
181.69385 -255.40112 -5.700624
184.66248 -255.5569 -7.1755929
181.40521 -255.5544 -7.587604
184.9852 -255.49463 -17.115841
183.82755 -255.30713 -6.297575
181.19742 -255.33408 -6.6205978
183.81778 -255.28351 -6.850327
184.23456 -255.2498 -6.9964061
181.57855 -255.15704 -5.9672098
183.47975 -255.0414 -6.1731091
183.56354 -255.13904 -6.6634302
190.45467 -255.172 -7.686419
182.77759 -255.08131 -15.714575
183.41815 -254.90968 -5.9191918
183.72752 -254.81369 -6.2065911
181.68515 -254.98354 -7.0492349
180.64249 -254.94913 -16.74131
183.01691 -254.82312 -17.1738
192.09973 -254.78659 -6.5345221
197.38797 -254.71391 -6.7581568
184.21951 -254.78522 -6.8360462
190.49802 -254.68945 -7.8790441
180.78836 -254.73668 -16.856045
181.8107 -254.42194 -5.0310931
180.11668 -254.47168 -5.438199
186.09576 -254.43903 -5.4084539
186.11295 -254.52423 -5.7133069
191.15659 -254.53699 -8.7536755
185.63675 -254.47466 -11.331802
180.17662 -254.21021 -5.0171041
180.71629 -254.31496 -5.4059439
182.19196 -254.01738 -4.949347
183.80637 -254.1691 -4.9395771
185.91835 -254.19987 -4.8786678
190.42596 -254.16901 -6.9196548
191.08405 -254.18867 -7.9140019
191.07428 -254.11208 -8.7256308
185.9006 -254.17627 -11.729631
183.57947 -254.03984 -11.833649
180.74597 -254.05859 -16.419411
180.52852 -253.98669 -4.9231749
190.48904 -253.88184 -6.514668
191.23349 -253.86867 -7.7857189
191.06429 -253.80005 -8.6397533
182.11761 -253.91483 -9.0684261
186.14502 -253.86627 -11.015734
180.96404 -253.91663 -16.355822
190.49643 -253.77945 -6.3148751
190.94315 -253.77 -7.4508138
191.04904 -253.69241 -8.16852
191.24216 -253.74924 -9.3425055
185.55444 -253.75877 -10.745454
185.51105 -253.72231 -10.919356
183.51704 -253.78323 -11.949677
186.27786 -253.62515 -17.715816
190.53233 -253.46014 -5.8451548
186.00121 -253.50893 -11.357902
189.01987 -253.55151 -11.773857
190.42938 -253.24706 -4.7062259
185.6989 -253.29022 -4.9869852
190.60193 -253.30901 -5.407207
190.29605 -253.26079 -6.6306829
190.99515 -253.20264 -6.6198869
189.79181 -253.29596 -7.7393122
189.82437 -253.33553 -8.1527824
186.21071 -253.31229 -10.508301
186.70294 -253.39212 -10.831732
185.88837 -253.36073 -11.130194
181.96146 -253.34157 -16.982157
189.94215 -253.1909 -8.157114
190.00085 -253.04881 -8.3323021
190.07251 -253.0491 -8.5293121
181.38179 -253.08517 -8.9781551
182.14886 -253.14238 -9.2871408
182.9124 -253.01984 -10.059709
185.92548 -253.13792 -11.116096
190.3517 -252.98418 -4.5786419
190.46568 -252.95862 -4.706759
190.51468 -252.93185 -4.921895
190.52002 -252.92708 -5.3896732
190.49788 -252.9343 -5.736877
190.33537 -252.9646 -6.5556402
190.44563 -252.95752 -6.6181412
190.30511 -252.93417 -6.9166398
192.80824 -252.95497 -8.3646688
181.79242 -252.93948 -9.1263924
180.92343 -252.82668 -9.6883993
190.59851 -252.74091 -4.7133651
191.09967 -252.60455 -5.005784
190.75787 -252.7128 -5.5242791
190.89539 -252.75803 -5.6231341
190.45926 -252.66016 -6.517508
181.87419 -252.75771 -9.2673664
185.93297 -252.6347 -10.674143
187.58548 -252.67415 -12.114275
181.60947 -252.65759 -16.715126
191.30835 -252.58208 -4.709281
191.15511 -252.43025 -6.5434718
190.27704 -252.56714 -7.6277642
190.19022 -252.47797 -8.2804937
180.87282 -252.42982 -9.4915056
180.66545 -252.57742 -10.01033
184.92386 -252.44278 -17.020069
181.0986 -252.29741 -8.7510061
180.92664 -252.297 -9.4864454
182.13046 -252.29376 -9.4370594
180.98227 -252.22919 -9.8287182
186.3746 -252.31007 -10.454001
184.87619 -252.26166 -17.10404
180.21857 -252.07831 -8.6252728
181.49922 -252.17004 -8.87609
182.92273 -252.08791 -16.295933
190.73592 -251.93671 -7.8061481
180.07236 -251.87852 -8.6101627
181.12393 -251.81326 -9.498354
187.09291 -251.84207 -14.449046
193.66144 -251.72934 -6.9825268
195.98201 -251.60365 -7.2076378
181.02222 -251.75317 -11.145966
182.80251 -251.65941 -11.579284
185.6228 -251.60086 -11.52346
180.65295 -251.73021 -13.731365
189.81313 -251.43886 -4.580873
196.55276 -251.57608 -6.5877109
181.17685 -251.47504 -15.433462
194.75882 -251.25722 -6.7697968
180.63939 -251.37955 -10.199593
181.28581 -251.25604 -10.549429
180.74678 -251.29916 -10.971802
185.37234 -251.2532 -11.478706
181.44691 -251.31232 -13.924852
181.21739 -251.22415 -15.296747
190.8354 -251.15445 -8.4107342
181.21024 -251.19885 -10.556989
180.85344 -250.9653 -10.647606
180.73074 -250.93672 -14.505362
181.77245 -250.85149 -14.980968
181.10822 -250.61848 -9.7632055
180.68755 -250.6962 -10.94541
180.76338 -250.77843 -11.268343
180.30464 -250.48109 -9.2344255
181.32642 -250.42302 -9.353899
181.37759 -250.52591 -10.153913
181.80341 -250.47614 -10.497933
180.62689 -250.27377 -8.4799948
181.51392 -250.26826 -9.3642511
181.60739 -250.35718 -15.496797
180.64677 -250.06715 -4.874568
180.62903 -250.03477 -14.04118
180.3157 -249.93242 -5.0982971
180.27557 -249.96051 -10.959007
180.06285 -249.90781 -13.726305
183.32796 -249.86766 -13.773993
180.84872 -249.68327 -4.696815
182.07874 -249.67882 -7.7348242
180.65054 -249.67261 -10.186985
180.49026 -249.77094 -10.768332
180.96266 -249.6684 -13.341402
180.95018 -249.44649 -4.6144538
190.45323 -249.59311 -7.1890841
182.29555 -249.53052 -7.8845639
181.90105 -249.39702 -4.653975
180.91081 -249.30487 -4.931963
182.22957 -249.35519 -11.505618
180.96521 -249.13904 -4.6750131
183.54593 -249.19499 -11.28507
180.1581 -248.99016 -9.3826542
183.60184 -248.97528 -11.09717
184.83615 -248.98483 -11.337694
183.06525 -248.68143 -6.5661898
180.20827 -248.62651 -7.5186181
180.00735 -248.70355 -7.8891721
188.19507 -248.60973 -8.0847044
181.57925 -248.64403 -10.665507
181.81216 -248.54889 -4.6840782
182.34119 -248.49263 -5.8480778
181.72726 -248.4971 -6.1960559
182.5405 -248.51175 -6.6297951
182.5723 -248.5513 -6.8231359
192.48715 -248.49245 -7.099782
180.43228 -248.58154 -7.5825129
180.23857 -248.58345 -8.0884953
180.49384 -248.43613 -9.0837784
180.74626 -248.57556 -9.4036894
180.61877 -248.57986 -9.8505573
182.28017 -248.57124 -11.08463
180.97588 -248.58244 -13.409571
182.59143 -248.31023 -6.6372609
189.97507 -248.3652 -7.1236429
181.26056 -248.28856 -7.7546582
180.37944 -248.25562 -9.1646395
181.70943 -248.27559 -9.3690348
182.48172 -248.20338 -9.9955273
182.32208 -248.30075 -10.970106
182.32449 -248.395 -11.299074
180.34889 -248.2674 -13.195349
180.72806 -248.27228 -14.552622
181.65057 -248.15585 -4.6177182
182.93936 -248.1707 -6.0820231
180.43353 -248.01392 -7.586143
180.38809 -248.1633 -7.9000702
183.68707 -248.16464 -7.844821
180.69852 -248.06104 -9.7668743
180.61636 -248.18323 -10.23317
182.09955 -247.83046 -4.6675978
182.94733 -247.93715 -6.0473661
180.11929 -247.83066 -7.3663001
192.55957 -247.82188 -7.2753382
181.6608 -247.91568 -9.8350706
181.66359 -247.88197 -10.518444
181.93153 -247.93089 -12.185759
181.09636 -247.93652 -13.92665
182.26472 -247.68707 -5.8647251
182.31172 -247.65176 -6.251204
180.15324 -247.77411 -6.8754382
183.16229 -247.68332 -6.8879561
188.72064 -247.73125 -7.3296952
180.33517 -247.67758 -7.7256241
181.91701 -247.71098 -8.2218809
182.26128 -247.51813 -5.5000968
182.40881 -247.43529 -6.5155902
182.38094 -247.48056 -6.8653288
187.44876 -247.52673 -7.8621869
181.91302 -247.53879 -10.009894
182.94382 -247.52382 -10.0903
181.04689 -247.40958 -13.824863
180.49927 -247.39606 -6.7298951
183.05205 -247.3869 -6.6496549
180.54364 -247.29532 -6.8615818
191.51378 -247.22174 -7.7873559
180.32733 -247.18835 -6.2647471
181.68579 -247.12643 -9.3520365
181.7282 -247.06483 -10.325939
181.54053 -246.81041 -4.5262609
184.11783 -246.86806 -6.7024808
180.89766 -246.81165 -6.8545489
181.00858 -246.84161 -8.8576899
183.93541 -246.80786 -10.795219
181.66264 -246.89206 -11.357509
181.8224 -246.70613 -4.4856272
183.02609 -246.72742 -6.714447
184.42941 -246.63075 -6.8622112
182.88109 -246.59357 -8.1388607
185.16376 -246.47864 -8.3112907
183.37691 -245.85594 -8.9839287
184.17261 -243.83847 -8.2379198
185.81125 -243.92572 -8.2882652
184.43826 -243.6187 -8.2823277
196.82993 -242.32762 -4.9329352
196.82285 -242.19931 -5.7162442
196.8428 -241.82872 -5.4412031
182.51038 -241.68755 -7.8321452
182.82474 -241.16791 -7.491066
184.22125 -241.02464 -7.5027819
185.07957 -240.9465 -6.7649069
185.3988 -240.8121 -7.445188
184.56116 -240.99367 -7.7779641
185.51355 -240.73302 -7.045104
184.90503 -240.66821 -7.559885
184.71727 -240.77951 -9.4474525
184.96809 -240.55202 -7.7380381
194.35626 -240.29001 -6.7015548
181.42053 -240.32037 -8.2126112
180.75938 -240.33185 -9.2000246
194.57254 -240.18567 -6.9287162
181.7905 -240.00858 -9.0295258
180.28786 -240.12416 -10.356844
188.96393 -259.92194 -8.6106672
190.30237 -259.90353 -9.8017492
189.1871 -259.62405 -9.2232695
188.873 -259.63525 -9.9710674
188.43414 -259.75089 -10.570673
189.83038 -259.43555 -5.5150571
193.55948 -259.54224 -8.4323244
189.35492 -259.49374 -9.2321539
188.8436 -259.53085 -10.599869
188.60925 -259.55811 -10.716439
193.04794 -259.31772 -8.9287205
191.45421 -259.17087 -12.586763
191.94122 -259.01614 -12.91786
187.60376 -258.86584 -6.4406958
187.83484 -258.99832 -7.02811
194.02762 -258.92291 -7.9917622
193.53865 -258.93481 -8.4274092
195.1496 -258.95312 -8.95467
191.7285 -258.91754 -9.3663988
193.97592 -258.92856 -9.4908867
182.20728 -258.95084 -11.883457
194.22635 -258.62845 -9.1938553
191.65334 -258.68463 -9.3611603
192.13188 -258.54889 -8.8267965
188.43994 -258.37604 -5.7259221
187.23752 -258.30508 -7.734375
192.36523 -258.24542 -8.8397131
188.82811 -258.34229 -12.292637
187.45444 -258.20001 -7.3718472
193.48627 -258.1622 -7.9764791
191.09279 -258.19696 -9.6684856
189.90851 -258.01465 -9.936491
189.88625 -258.18835 -10.091516
184.49301 -258.07623 -12.888069
189.84753 -257.96558 -10.084354
188.54846 -257.91061 -12.314821
187.51176 -257.6897 -7.5800862
192.8801 -257.7034 -8.496973
196.1226 -257.42102 -6.5439191
196.16467 -257.48279 -6.9874272
185.4118 -257.41785 -7.026947
194.17125 -257.59143 -7.4172969
192.84244 -257.52841 -8.5063171
194.47916 -257.33661 -9.2801619
190.54228 -256.85532 -10.123103
187.24442 -256.8399 -11.510309
196.24342 -256.71252 -6.4254942
186.09641 -256.69019 -7.0947442
186.87636 -256.63257 -11.54888
185.60551 -256.59998 -7.05548
197.55733 -256.55096 -8.9836731
192.96216 -256.58136 -9.3869162
193.41409 -256.48343 -9.4019012
193.64546 -256.5874 -10.339231
193.62578 -256.2392 -6.99541
193.22127 -256.34985 -9.1479883
193.55792 -256.23483 -10.305719
185.9063 -256.24365 -17.343128
189.86896 -256.14658 -7.7559729
182.26694 -256.00058 -10.633276
183.30215 -256.00885 -11.126295
186.35654 -255.92877 -6.3203559
196.31985 -255.83023 -6.8199892
185.50339 -255.84636 -7.478714
189.94551 -255.83298 -7.644311
190.16512 -255.81741 -7.9238811
181.97585 -255.83002 -11.039352
184.46208 -255.93359 -16.974344
183.18289 -255.7666 -5.767859
186.45468 -255.75685 -6.1501689
196.62593 -255.71486 -6.5277181
181.26721 -255.72784 -7.4807992
180.06879 -255.68307 -8.5739803
180.98352 -255.76434 -16.774908
193.06541 -255.56342 -6.5341802
181.26262 -255.41222 -7.120492
181.38474 -255.5351 -7.502646
181.6209 -255.45023 -7.5856709
189.8665 -255.48401 -7.9499621
180.02711 -255.50804 -8.8280725
183.34399 -255.4071 -10.064225
184.03448 -255.37424 -5.564518
183.39706 -255.27107 -5.722681
183.49495 -255.35315 -6.6512198
190.29648 -255.32466 -8.2511768
184.28214 -255.04788 -6.8926268
181.18053 -255.13556 -7.1156688
190.23672 -255.09988 -7.5451031
190.39429 -255.13759 -7.63834
192.40364 -255.11456 -8.6282339
192.59438 -255.17023 -9.250412
186.92133 -255.14542 -10.703537
184.87756 -254.85603 -6.5977859
192.1216 -254.97795 -6.532474
184.72993 -254.93224 -6.6850219
191.85385 -254.90576 -6.9896569
192.1514 -254.93246 -6.815783
191.23607 -254.88113 -9.1633348
187.6792 -254.80261 -10.595072
186.43431 -254.86118 -10.804597
186.17841 -254.90092 -11.062075
180.45833 -254.98083 -17.073036
185.91814 -254.74765 -5.096436
185.98798 -254.62755 -5.2637162
183.56485 -254.68863 -6.2710929
184.29886 -254.71069 -6.7890668
190.29102 -254.6373 -7.777226
182.60165 -254.62518 -11.787203
181.76196 -254.52716 -5.2054558
184.43544 -254.45201 -5.8919239
186.05923 -254.52936 -6.2076192
190.11363 -254.47456 -7.4232721
190.19391 -254.33673 -7.2817039
182.46298 -254.38515 -11.791616
180.65289 -254.15384 -4.915133
181.46014 -254.03946 -4.9938312
181.83716 -254.13707 -4.9395852
183.10072 -254.0972 -4.9245262
183.46799 -254.07425 -4.9196982
184.14029 -254.14438 -4.9252081
191.0896 -254.08607 -8.3848476
191.01534 -254.18785 -9.0505762
180.99889 -253.99126 -5.029213
190.50661 -253.87448 -6.565979
190.5303 -253.96742 -6.9641271
190.23734 -253.99979 -7.3037839
191.09233 -253.95697 -8.974803
185.73981 -253.88248 -10.164402
187.17619 -253.65779 -12.57283
181.83124 -253.7926 -16.946835
186.07753 -253.6701 -17.555937
190.39935 -253.45279 -5.9408798
190.28165 -253.44305 -6.2773581
190.40631 -253.42253 -6.7926049
185.96552 -253.43591 -10.120424
189.17638 -253.56332 -11.418803
184.39902 -253.43422 -17.313589
190.50009 -253.37404 -6.1020989
190.12689 -253.35887 -6.9946971
190.186 -253.313 -7.5896549
186.49135 -253.38739 -17.70076
185.73035 -253.05771 -4.9190769
190.39107 -253.16428 -5.9043412
190.96329 -253.0042 -7.222878
181.00027 -253.05568 -9.5159655
182.15172 -253.17566 -9.7912226
186.55872 -253.10846 -10.634109
184.25641 -253.1604 -12.246302
190.52098 -252.8558 -4.7688971
190.50403 -252.88129 -4.9225841
190.34528 -252.99857 -6.2617192
190.43671 -252.84375 -6.2586989
190.42969 -252.9209 -6.5247631
191.04807 -252.92657 -6.5762591
190.41977 -252.97307 -6.8976851
190.28333 -252.99399 -7.3075728
190.6235 -252.70049 -4.9767289
185.69733 -252.6171 -5.225801
190.63342 -252.70624 -5.7482262
190.38324 -252.78769 -6.2868748
190.44923 -252.7222 -6.2479181
190.48456 -252.65311 -6.4652638
190.00175 -252.68578 -8.7048788
187.87404 -252.60875 -12.143294
191.27206 -252.50064 -4.6600471
190.61411 -252.48979 -8.3154364
182.17474 -252.4122 -9.5752277
180.82993 -252.4465 -10.748447
180.06058 -252.5351 -15.851025
182.90436 -252.54187 -16.665348
190.78487 -252.34937 -4.7740841
190.65807 -252.31049 -6.9286909
180.41246 -252.35312 -16.318081
190.95712 -252.12839 -6.9413028
182.99202 -252.13336 -10.853525
183.17487 -252.08011 -11.730636
193.40631 -251.927 -6.949625
182.76587 -251.87346 -11.959023
185.66203 -251.96136 -16.457733
180.87025 -251.78886 -8.6446877
181.25186 -251.71126 -9.8072701
180.02774 -251.60112 -10.765886
189.27364 -251.68233 -12.31597
180.56767 -251.66693 -14.812961
180.95807 -251.70549 -14.977466
181.64542 -251.60739 -15.266661
195.7019 -251.43748 -6.778789
182.67543 -251.4686 -11.560713
180.04437 -251.42859 -13.839542
182.81277 -251.55757 -14.006598
183.12653 -251.54074 -16.245834
180.90891 -251.37885 -14.991848
180.20694 -251.36288 -15.128714
190.30263 -251.03868 -4.571311
180.71361 -251.10464 -8.5003548
180.15785 -251.17387 -8.7350092
181.40698 -251.19887 -8.7663879
183.78741 -251.03687 -12.907431
181.48267 -251.08145 -13.832649
180.65878 -251.13779 -14.901278
190.56071 -250.97656 -4.6109862
180.12724 -250.94768 -8.9978495
181.23761 -250.96381 -9.9027891
180.24991 -250.71056 -9.1171227
181.07323 -250.6692 -9.2585144
181.59067 -250.71577 -10.486106
180.92143 -250.67084 -13.359349
181.78479 -250.60909 -15.068593
181.14233 -250.47539 -8.6797886
191.48323 -250.40688 -8.97822
183.01569 -250.49057 -15.36626
180.59448 -250.30774 -9.260129
181.42079 -250.32503 -10.307914
180.17227 -250.2964 -11.354221
180.1136 -250.30389 -13.812382
181.92503 -250.3187 -15.070154
180.03783 -250.13924 -8.1920824
181.37085 -250.06818 -8.9832954
180.57367 -250.10211 -10.079084
181.19571 -250.16864 -10.209688
182.76758 -250.05789 -10.6691
183.16728 -250.15633 -14.897512
181.45056 -250.10075 -15.799454
181.04744 -249.9966 -8.5471745
182.397 -249.83298 -8.5900764
190.50491 -249.64801 -7.2237258
181.13797 -249.60832 -10.414675
182.62335 -249.63013 -10.920927
181.0378 -249.60194 -11.171772
180.0455 -249.61903 -13.521481
190.3492 -249.59244 -6.9322748
182.51218 -249.5294 -8.8289146
181.01895 -249.45551 -10.240802
182.47551 -249.45743 -11.735605
180.95877 -249.36116 -4.693604
180.922 -249.28088 -4.9214201
180.85625 -249.23402 -5.2909541
181.50034 -249.23962 -7.8134179
182.3038 -249.38318 -8.6876535
182.53815 -249.33426 -8.6483364
181.04597 -249.3634 -10.989572
180.73923 -249.33888 -13.126743
180.93901 -249.0983 -4.6864619
180.92139 -249.08699 -4.9231739
181.56944 -249.06894 -9.0239553
181.54227 -249.123 -10.267013
181.0128 -249.0809 -11.165144
180.98891 -249.1951 -11.254244
180.68542 -249.04257 -13.456034
180.05943 -248.86205 -7.8426099
182.55641 -248.89923 -10.752913
181.91975 -248.99158 -12.293657
185.49332 -248.85867 -12.534819
180.69174 -248.86333 -13.876555
192.32812 -248.61676 -7.0961151
181.34019 -248.62305 -7.7719698
180.53661 -248.66466 -10.090214
180.77049 -248.64978 -14.279866
182.47552 -248.41106 -5.9719691
189.9528 -248.45111 -7.3765612
181.19235 -248.54308 -7.6086731
182.31558 -248.57094 -8.6182404
182.62053 -248.59894 -10.60714
181.77498 -248.56129 -12.339211
182.92899 -248.26389 -5.9767079
183.18011 -248.25061 -6.573009
180.08917 -248.20528 -7.3820739
180.40851 -248.25357 -7.853765
180.38232 -248.21054 -8.4611263
180.20367 -248.21478 -9.2871494
182.06714 -248.00279 -4.6709261
182.31009 -248.13565 -5.457458
181.02341 -248.10069 -7.92872
181.00221 -248.04694 -8.0326195
182.27274 -248.07133 -8.2357082
181.65021 -248.16086 -8.9244337
180.51807 -248.1429 -9.4779367
181.60501 -248.1925 -10.513884
181.58185 -248.09779 -10.935856
181.40221 -247.87889 -4.564095
182.1044 -247.8298 -4.9247499
182.40715 -247.96411 -5.4792762
192.37196 -247.82591 -7.1907482
190.72523 -247.87167 -8.1609192
180.12231 -247.88135 -8.5273705
180.6788 -247.8208 -9.0148163
180.36285 -247.85614 -9.2952375
181.5347 -247.80804 -9.9239807
181.85042 -247.8533 -10.089722
182.89992 -247.93005 -14.906712
182.19882 -247.70251 -5.5169291
182.33534 -247.70622 -7.0564852
181.75079 -247.72342 -11.075705
182.35542 -247.49413 -6.214334
182.52371 -247.44952 -7.695333
189.04178 -247.4337 -8.5525742
181.92145 -247.56894 -8.942976
180.69519 -247.44334 -9.6770325
182.98557 -247.41786 -10.548491
182.27158 -247.2963 -4.616981
180.30148 -247.31227 -8.8639956
181.59177 -247.2162 -9.7442694
183.51178 -247.32927 -15.041851
180.26413 -247.16464 -8.9308205
183.00467 -246.97119 -6.8949699
188.10187 -246.87103 -7.0894828
180.50912 -246.86665 -9.0019484
182.95531 -246.77682 -6.8357229
188.27843 -246.72469 -7.1365242
181.09662 -246.65451 -7.4693379
180.96611 -246.76645 -8.8452616
180.55783 -246.7301 -9.0370674
183.46317 -246.04298 -9.0567398
187.98473 -245.71828 -7.1310301
183.42862 -245.49937 -8.9695492
183.53078 -244.57245 -8.3147478
183.7132 -244.46918 -8.246767
183.65974 -244.47717 -8.7403517
183.79474 -243.95589 -8.7123346
184.48932 -243.5338 -8.4132557
184.70554 -243.1001 -8.4171963
196.6436 -242.18594 -4.30936
194.6929 -241.71181 -6.7068548
195.30411 -241.48972 -7.1317019
182.60121 -241.48824 -7.4849501
182.28815 -241.40167 -8.2046337
184.94232 -241.25842 -6.9139099
182.42906 -241.35764 -8.1709976
194.71548 -241.15306 -6.430903
185.00858 -241.05652 -7.0472908
182.84209 -241.04214 -7.7469592
195.05188 -240.9557 -6.94838
184.97888 -240.92674 -7.2600679
181.94124 -240.96352 -8.0762367
195.1698 -240.67404 -6.909019
185.44615 -240.63916 -7.2684202
182.82077 -240.65195 -7.9266949
184.35243 -240.76802 -7.886621
181.82173 -240.755 -8.1145382
186.93462 -240.30116 -7.0893712
184.42694 -240.27644 -8.1286936
184.23502 -240.33365 -8.2741909
185.99524 -240.35806 -8.6532898
181.08881 -240.09822 -8.5556316
181.55437 -240.00694 -8.582736
182.72531 -240.03442 -9.6545572
