# .PCD v0.7 - Point Cloud Data file format
VERSION 0.7
FIELDS x y z
SIZE 4 4 4
TYPE F F F
COUNT 1 1 1
WIDTH 1528
HEIGHT 1
VIEWPOINT 0 0 0 1 0 0 0
POINTS 1528
DATA ascii
188.55305 -70.043419 1.495894
189.92853 -70.11116 1.420745
189.93912 -70.057617 1.032865
186.96344 -70.047165 -1.825767
187.32883 -70.152969 -2.373812
184.10327 -70.055412 -3.8494251
184.93021 -70.194839 -4.3735552
180.74196 -70.072105 -5.347311
180.40065 -70.051804 -5.817276
180.55222 -70.158783 -6.25703
188.57297 -69.858932 1.008601
188.62378 -69.804474 0.56545198
188.63181 -69.862152 0.094152004
188.71236 -69.867928 -0.40555501
188.73192 -69.801407 -1.2612211
187.30894 -69.920242 -2.6322861
187.18472 -69.944366 -3.081713
188.77663 -69.910515 -5.6052518
180.58292 -69.818459 -6.6171961
180.58386 -69.896156 -6.8268142
188.50713 -69.785942 1.359866
188.69656 -69.747093 -0.26749599
186.75656 -69.689026 -1.5796551
188.73853 -69.758499 -1.688044
186.08012 -69.601242 -1.861128
185.802 -69.771194 -2.2322979
188.65524 -69.783333 -2.3093641
185.73795 -69.696564 -2.6436851
186.79665 -69.660316 -2.6829441
186.9743 -69.709084 -2.6235931
185.82056 -69.733711 -2.905159
186.13382 -69.794601 -3.214025
183.90497 -69.724869 -3.829227
184.0365 -69.777336 -3.915704
184.26114 -69.66832 -4.2049489
183.78177 -69.650421 -4.5532241
185.1209 -69.761658 -5.3991041
185.43915 -69.772888 -5.3075151
180.74202 -69.754692 -5.427557
180.68048 -69.776825 -5.6471291
180.65015 -69.760574 -6.2320948
180.37828 -69.738693 -6.6620688
181.81253 -69.625687 -7.6487522
181.87253 -69.662643 -8.1416922
181.27788 -69.782204 -8.8945417
183.1853 -69.588486 1.76231
185.76764 -69.557838 -2.595309
185.62518 -69.550507 -2.9554729
186.27931 -69.425407 -3.259176
184.62843 -69.514534 -5.3227601
180.71744 -69.495476 -5.5910568
180.81543 -69.493225 -5.4371548
180.7778 -69.507935 -5.9376249
180.78265 -69.530327 -6.7116961
180.58653 -69.458412 -8.849782
185.87747 -69.267151 1.812839
186.32765 -69.238823 1.829298
186.70961 -69.22979 -0.245019
186.43671 -69.353775 -0.478136
186.32336 -69.214523 -0.99025601
186.57162 -69.382019 -1.0834399
186.49463 -69.271111 -1.315701
187.89291 -69.322418 -1.438833
186.30754 -69.317368 -2.239959
185.41754 -69.323982 -2.4979179
183.72102 -69.239197 -3.788414
185.67717 -69.261139 -3.8796771
183.70474 -69.383858 -4.1406941
183.80666 -69.37851 -4.5236039
188.68387 -69.265205 -4.5153098
183.90399 -69.278931 -4.891511
184.59421 -69.251114 -5.6655431
180.47145 -69.261856 -8.6897039
182.02008 -69.355522 -9.6893044
193.46852 -69.071342 1.66473
186.27618 -69.034119 -1.0092421
186.50052 -69.078064 -1.4258029
186.33554 -69.072182 -2.242795
185.47183 -69.080322 -2.645448
186.24236 -69.033028 -3.032598
183.84119 -69.051407 -3.850091
183.81502 -69.091934 -4.3629909
183.77097 -69.050011 -4.5075588
183.86421 -69.062935 -5.0142488
192.21936 -69.004539 -6.5435119
189.74387 -68.940506 1.756912
191.43787 -68.85614 1.0885381
191.42531 -68.874535 0.68308902
186.33871 -68.953857 -1.29994
191.6275 -68.855827 -1.373997
185.74237 -68.856071 -3.0659261
185.79369 -68.825409 -3.2309029
183.9579 -68.919777 -3.50545
183.55428 -68.878464 -4.0161772
191.45883 -68.678513 1.106266
191.5213 -68.605042 0.596183
191.51122 -68.627594 0.25448799
191.39409 -68.611183 -0.867522
186.52817 -68.622299 -1.0163209
186.70609 -68.707642 -1.2872519
191.58772 -68.739914 -1.768003
187.54358 -68.797112 -2.3017571
185.61165 -68.703568 -3.066144
185.70137 -68.604263 -3.2391
183.51285 -68.666466 -3.40611
183.94388 -68.742462 -4.527452
183.76195 -68.705933 -5.1345921
184.10519 -68.647842 -8.9910603
191.43024 -68.524353 1.432469
186.27441 -68.442581 0.021601999
186.19643 -68.470551 -0.064418003
191.55405 -68.547668 -0.20155901
186.44772 -68.497292 -0.45511499
191.54353 -68.584625 -0.45266601
191.6882 -68.443176 -0.43665901
185.07599 -68.472061 -1.850124
185.12764 -68.535843 -2.281816
182.5152 -68.426208 -2.563617
182.21243 -68.497154 -3.105864
182.7281 -68.488419 -3.3951769
182.81808 -68.486633 -3.508831
183.72676 -68.593674 -3.5487931
183.40735 -68.556549 -3.850647
183.71678 -68.436417 -4.284039
183.16718 -68.408897 -5.6637712
183.27522 -68.595314 -5.8200712
180.25821 -68.576118 -8.1501617
180.23045 -68.463821 -8.4535618
184.5134 -68.525528 -8.5137968
180.73421 -68.518089 -9.3172617
191.49539 -68.336121 1.593796
186.54207 -68.254128 -0.463018
186.23999 -68.230675 -0.97802001
186.20789 -68.300179 -1.33251
186.61267 -68.260849 -1.4368809
182.47859 -68.324554 -2.936198
186.07683 -68.268105 -3.2574589
183.73093 -68.238708 -4.3302879
183.21812 -68.311752 -5.597105
183.16129 -68.228195 -5.6699028
183.79411 -68.205353 -7.0295749
182.88841 -68.233887 -13.071603
186.85872 -68.062035 0.071993999
186.29477 -68.111755 -0.28820699
186.38509 -68.152069 -0.50268
192.16873 -68.071152 -0.87656802
185.13585 -68.162491 -1.295053
185.27721 -68.036377 -1.494997
185.12338 -68.118279 -1.778863
182.89569 -68.080811 -2.331934
185.252 -68.187531 -2.2594111
182.62573 -68.14624 -2.549448
185.32181 -68.193542 -2.5581529
185.84073 -68.075806 -3.275286
182.96199 -68.198738 -3.408309
183.0705 -68.183487 -4.0328512
184.54254 -68.116058 -4.5612688
180.22954 -68.154831 -8.165616
184.53996 -68.196747 -8.4809799
180.48724 -68.173767 -9.0683107
186.69241 -67.830414 -0.36642501
185.82666 -67.887947 -0.59118199
184.96645 -67.823669 -1.7869509
182.72086 -67.899544 -2.5093639
182.65399 -67.843605 -2.9674759
186.19057 -67.854927 -3.0195799
183.44557 -67.942886 -4.3246961
183.37825 -67.856079 -4.524857
184.34898 -67.847977 -4.581378
183.32492 -67.956543 -5.738791
183.73808 -67.812851 -7.0086908
185.40451 -67.641022 -0.58809203
186.69168 -67.798897 -0.45857501
186.36758 -67.744415 -1.133521
187.33083 -67.760071 -1.579987
183.5219 -67.739349 -1.807776
183.04724 -67.79834 -2.2152719
183.08319 -67.74395 -2.486835
181.95624 -67.77607 -3.1519921
183.08487 -67.71756 -3.820507
184.22282 -67.602295 -5.698823
180.33292 -67.776581 -7.9704628
194.34775 -67.508217 1.4383349
195.25206 -67.584 0.89462298
186.88545 -67.4534 -0.46680501
195.11226 -67.411964 -0.51351202
185.98586 -67.529579 -0.63256198
183.57465 -67.516602 -1.308093
183.69981 -67.456055 -1.447064
183.50906 -67.499031 -1.695911
181.34735 -67.536987 -3.477062
183.24872 -67.575386 -4.0419941
183.12569 -67.588448 -5.847713
186.42392 -67.224213 1.631304
194.76855 -67.314438 1.08585
194.85278 -67.297569 1.036168
194.74243 -67.391258 0.74086303
194.90982 -67.257767 0.619178
194.99741 -67.279449 0.24665099
195.45404 -67.373482 -1.822786
181.99232 -67.239555 -2.2005711
182.35574 -67.369247 -2.206717
184.12674 -67.317795 -5.7519798
194.69157 -67.079834 1.7127711
194.73782 -67.156845 1.517621
180.06369 -67.002342 -0.28374299
181.80258 -67.084396 -3.346065
182.63785 -67.079071 -4.185534
184.5495 -67.105072 -13.157495
185.93561 -66.835129 1.607165
186.33792 -66.965469 1.445259
186.24571 -66.918541 0.962075
186.25647 -66.937218 0.56956601
186.12068 -66.956581 -0.93568498
186.25989 -66.923889 -1.821698
186.21451 -66.610138 0.95092201
186.26486 -66.63958 0.56684601
186.31616 -66.693993 -1.391467
181.93578 -66.712959 -3.7731011
184.12672 -66.606499 -7.6221862
185.81339 -66.400528 1.59544
186.14867 -66.587456 1.4361
186.25685 -66.582909 0.144095
180.74472 -66.53949 -1.04153
180.061 -66.570381 -3.020071
184.99696 -66.416054 -3.3081429
180.54558 -66.452667 -3.760545
182.84198 -66.559235 -4.642293
186.21523 -66.221283 1.452929
186.36771 -66.361015 1.110063
186.51398 -66.337112 0.57246202
181.81104 -66.201958 -1.298938
180.07065 -66.3722 -2.7794831
180.29929 -66.275009 -2.9927571
180.12465 -66.305298 -3.808321
184.81898 -66.331436 -13.461605
181.65848 -66.158279 -1.034935
181.51401 -66.01123 -1.3685009
182.76689 -66.101074 -4.6347389
182.87947 -66.14518 -4.6242881
180.83789 -65.943916 1.61458
182.85175 -65.912445 -1.4836839
186.84634 -65.922302 -12.471653
185.80818 -65.715729 1.649044
180.58386 -65.725571 -1.771531
181.59293 -65.659111 -2.232646
185.69998 -65.487259 1.7020791
183.06143 -65.485374 -2.421731
180.07388 -65.591202 -3.285445
185.08604 -65.525818 -12.330057
194.25153 -65.267082 1.808617
185.2825 -65.224274 1.747811
190.3223 -65.383339 -0.62331802
180.88007 -65.274284 -2.266701
180.67461 -65.276901 -6.9985189
185.44315 -65.375519 -12.395451
185.95233 -65.279869 -13.173589
186.10593 -65.305534 -13.40661
188.32593 -65.246597 -13.848597
189.27055 -65.043304 1.730252
185.34781 -65.120163 -12.382907
185.00296 -65.058502 -13.056055
189.18112 -64.858978 1.757053
190.64928 -64.849876 -0.47570699
190.25912 -64.977974 -0.99936301
190.44992 -64.984451 -1.341342
180.1823 -64.897125 -5.607564
190.12137 -64.624702 1.421883
189.91844 -64.737511 1.380734
192.41788 -64.726135 -0.7277
189.97444 -64.737686 -1.126353
190.57422 -64.717026 -1.386672
192.03354 -64.660652 -1.3180881
185.52997 -64.622375 -12.387115
198.11673 -64.497406 -0.319168
198.13132 -64.517975 -0.48072299
190.0164 -64.462555 -2.565187
180.19073 -64.486694 -2.9734869
190.91722 -64.25795 1.510628
190.6622 -64.364792 -0.96273899
185.60477 -64.298813 -1.97161
182.38536 -64.297424 -3.093806
180.02763 -64.203125 -6.0514178
188.97134 -64.141724 1.706805
199.38525 -64.057175 0.57594401
185.43703 -64.191078 -2.357182
194.5766 -64.152573 -2.7859349
189.5582 -63.909088 1.437215
199.30574 -63.814159 1.290194
199.15955 -63.831146 1.031072
190.78214 -63.984764 0.84494299
199.27893 -63.841969 -0.158153
199.17584 -63.82019 -0.51285398
190.47577 -63.961456 -1.431749
184.11987 -63.833687 -2.356029
185.68596 -63.892406 -2.3236489
194.71974 -63.92313 -2.7756059
194.95912 -63.872189 -2.7210121
199.10483 -63.690346 1.570067
191.21849 -63.79121 0.73088598
199.19881 -63.619995 0.27871701
190.18982 -63.737469 0.162928
199.29031 -63.77607 0.190616
192.68515 -63.679554 -0.29007
192.34581 -63.631851 -0.71534902
190.3143 -63.73399 -1.488318
190.4317 -63.669724 -1.661407
199.39334 -63.552631 1.2341371
199.25677 -63.509148 0.073128
199.23218 -63.52158 -0.178399
199.23761 -63.520454 -0.57177198
194.95853 -63.498734 -0.99926502
192.65846 -63.460648 -1.1090291
195.22256 -63.506241 -1.862857
180.45709 -63.521 -3.057138
180.72403 -63.533569 -6.3020439
182.05214 -63.448822 -8.4698896
195.41721 -63.292404 -1.022777
190.33365 -63.307785 -1.656086
180.60588 -63.310524 -2.587168
190.23073 -63.397499 -2.4962749
180.2975 -63.392284 -2.963541
182.86528 -63.207775 -8.0854177
198.70045 -63.113556 -1.3760459
195.21063 -63.140846 -1.863603
180.99481 -63.185154 -2.342242
190.58861 -63.069283 -2.5090981
191.12201 -63.159058 -2.5205281
198.52219 -62.864265 0.94465297
198.6106 -62.828617 0.33097401
190.57576 -62.845688 -1.544431
195.0676 -62.871864 -1.408319
198.52977 -62.730812 0.95627898
198.56718 -62.613815 -0.56250298
183.94492 -62.680611 -2.280524
181.55096 -62.623398 -7.4177279
198.33795 -62.527817 1.252719
196.7502 -62.466141 0.21577799
198.49817 -62.571159 0.211161
196.6796 -62.466938 -0.51122999
196.89886 -62.472961 -0.52704698
190.50665 -62.58754 -1.241999
183.97559 -62.553917 -3.9662919
182.58948 -62.596912 -6.8311639
181.89206 -62.585999 -7.3584671
196.49895 -62.27911 0.97720999
196.52141 -62.224194 0.209649
196.60539 -62.239258 -0.25960299
196.5574 -62.21397 -0.52012199
194.87131 -62.129799 -2.1465709
196.43958 -61.843582 -0.26414099
196.27791 -61.80072 -0.51546001
196.45584 -61.90797 -0.50280398
196.31619 -61.826653 -1.15716
196.4203 -61.978603 -1.4998111
185.09808 -61.85524 -1.75855
183.74831 -61.904392 -2.9116819
184.00517 -61.97311 -3.3828509
196.28671 -61.765495 -1.407182
196.04933 -61.447655 -0.524831
196.05566 -61.481125 -1.190299
184.0791 -61.44976 -2.018909
183.61592 -61.245598 -2.0753
184.68085 -61.263885 -2.3133211
184.86096 -61.219093 -2.474972
180.12955 -61.209831 -4.1371822
195.81665 -61.052811 -0.51735401
183.76715 -61.086739 -1.5388
195.67702 -60.898872 -1.1733691
184.54364 -60.941818 -2.2438519
188.25174 -60.882843 -3.8809049
193.15323 -60.761559 1.377743
195.49393 -60.664642 -0.52555001
184.68109 -60.642765 -2.213299
192.83603 -60.56176 1.844069
193.51233 -60.478455 1.342085
193.45328 -60.545738 1.13126
195.30283 -60.421761 0.142271
195.34752 -60.427429 -0.255294
195.48604 -60.555584 -1.108381
195.31895 -60.508888 -1.611004
184.16978 -60.593498 -7.973351
195.30814 -60.36211 0.454678
195.31175 -60.30069 0.181172
195.23969 -60.306339 -0.071125001
195.2363 -60.23568 -0.23888101
195.27261 -60.341858 -0.50652897
184.46361 -60.22406 -1.406275
184.53757 -60.270702 -4.097734
195.14278 -60.152363 0.25923899
195.08017 -60.089691 -0.181633
195.0491 -60.037231 -0.53236097
195.0863 -60.111061 -0.94936198
195.22662 -60.116997 -1.123153
185.49533 -60.063339 -8.1495523
197.3792 -79.956039 -1.060076
197.49124 -79.915771 -4.5895972
197.45825 -79.980789 -5.3154979
193.13568 -79.859894 -6.1007009
191.51431 -79.907349 -6.9289432
191.64554 -79.994377 -6.905858
194.39233 -79.876678 -7.6192269
180.39706 -79.982834 -8.4542427
193.96317 -79.976501 -9.1986828
199.04738 -79.959824 -9.5345192
191.71623 -79.828896 -10.263921
193.14865 -79.664322 -5.7937722
193.30026 -79.656082 -5.7567301
191.61273 -79.764603 -10.818356
195.76559 -79.407822 1.183157
193.09277 -79.520462 -5.5103321
193.11943 -79.406303 -5.7259731
193.21677 -79.527267 -5.8017812
194.81183 -79.321999 -5.5351462
194.5318 -79.237579 -6.507586
196.92584 -79.26487 -6.4322929
195.92969 -79.343994 -8.8973961
194.53569 -79.033493 -6.445384
194.48349 -79.075294 -7.08744
192.09769 -79.171043 -9.9415483
196.73965 -78.990341 -7.6222148
194.45761 -78.80835 -10.515002
197.05101 -78.624725 -6.474627
197.06943 -78.738823 -6.896461
196.71368 -78.772339 -7.368937
196.056 -78.74794 -9.3317528
197.7821 -78.594109 -6.4913988
195.49324 -78.437157 -8.9732752
198.33423 -78.571114 -9.2496901
192.83269 -78.337059 -7.2235298
198.59616 -78.283745 -9.4759874
198.90034 -78.29599 -10.036942
197.95923 -78.145309 -6.3439169
197.95398 -78.19252 -6.853013
195.36441 -78.165749 -7.850327
197.3741 -78.007744 -11.706801
197.81621 -77.900795 -7.7211509
198.96506 -77.82119 -9.1465425
199.46643 -77.613182 -8.2895622
197.49158 -77.750687 -11.762375
199.39407 -77.517761 -8.5758514
199.66394 -77.360641 -8.2893162
199.9194 -77.139816 -8.3625107
184.88736 -74.670052 -10.361994
185.27284 -74.646172 -10.762603
185.20375 -74.621475 -10.976196
183.22861 -74.674385 -12.822383
180.92667 -74.427643 -7.7601261
180.85637 -74.430489 -7.8059249
184.84668 -74.59375 -9.5953913
184.86621 -74.568367 -9.8293428
182.98836 -74.559341 -11.714889
180.86472 -74.373322 -7.8459029
180.81923 -74.271423 -8.0683498
184.77142 -74.21022 -10.913052
180.69882 -74.17099 -8.1854029
180.69156 -74.035446 -8.9809132
182.49373 -74.106277 -10.153922
184.85396 -74.196205 -10.704628
183.15021 -73.829315 -8.1011066
180.71863 -73.891403 -9.2970695
184.93936 -73.836365 -10.653339
187.73511 -73.959198 -12.30272
183.39146 -73.831291 -12.436061
187.68495 -73.909721 -12.43011
180.81882 -73.781914 -7.8310142
180.62216 -73.751259 -8.182127
180.83145 -73.641792 -8.0485563
186.17654 -73.694771 -8.2733431
186.27065 -73.786102 -8.5155163
180.72679 -73.676056 -9.0641603
182.89487 -73.708748 -9.1012077
183.31844 -73.753021 -9.0598564
182.99211 -73.681313 -9.3103638
183.53049 -73.656822 -9.3747234
182.32924 -73.670235 -9.5564985
183.60422 -73.673561 -9.4688568
182.3611 -73.725372 -10.286444
184.63181 -73.743935 -10.926346
183.32544 -73.483643 -9.3485336
183.09094 -73.2724 -8.1434011
183.02167 -73.367546 -8.4722471
186.10692 -73.358803 -8.455266
180.53137 -73.399445 -8.7044058
180.72633 -73.29496 -8.932004
180.86281 -73.36264 -9.0830374
182.98669 -73.3554 -9.1392555
180.99968 -73.396645 -9.3612709
183.00443 -73.338646 -9.3312664
185.82416 -73.304626 -9.7448645
181.97867 -73.39962 -10.169438
182.21573 -73.270081 -10.868513
184.18137 -73.234924 -12.038001
183.11841 -73.115181 -8.5572548
188.97163 -73.107964 -8.8760872
182.99466 -73.008469 -9.6642904
185.61978 -73.125992 -9.7365875
181.86377 -73.02359 -10.286929
182.13016 -73.056396 -10.472244
182.10886 -73.083725 -10.862043
183.19135 -73.144569 -12.213035
181.73936 -72.852615 -6.524271
183.04378 -72.908745 -6.464529
182.46034 -72.834435 -6.947155
183.08337 -72.880966 -6.9647708
182.38779 -72.846657 -7.0703468
180.79364 -72.871727 -9.2131176
181.0365 -72.986626 -9.2622528
185.80518 -72.964439 -9.4975796
188.95433 -72.942451 -10.173725
180.99222 -72.916588 -11.312292
181.56422 -72.811836 -11.557715
183.4283 -72.999931 -12.247871
182.94371 -72.670921 -5.74647
180.0592 -72.675232 -6.3060989
180.26685 -72.610794 -6.2014279
181.4106 -72.603722 -6.2578111
181.68173 -72.721352 -6.3824372
180.10794 -72.604813 -6.5382972
180.09515 -72.676758 -6.6575379
181.68051 -72.712753 -6.634963
182.84427 -72.70607 -6.689508
180.33517 -72.612633 -6.890285
181.7569 -72.618301 -6.8471918
182.5424 -72.622887 -6.8979969
182.98914 -72.72995 -6.9139762
182.37808 -72.702721 -7.4541001
180.76855 -72.716904 -8.7463951
189.04242 -72.715912 -8.6751223
180.90546 -72.629692 -9.093112
188.79364 -72.754234 -9.8173656
188.9198 -72.720856 -10.145372
181.91197 -72.618042 -10.329944
182.06253 -72.651428 -10.578793
183.5488 -72.68 -11.927256
183.73851 -72.604774 -12.306151
180.12068 -72.415276 1.501965
180.53198 -72.414932 1.528625
181.84177 -72.530136 -5.1599712
180.14778 -72.448296 -5.5568051
181.68469 -72.513725 -5.5113182
180.17349 -72.469086 -5.7719851
181.65993 -72.543495 -5.63691
180.11456 -72.503853 -6.2585201
181.50562 -72.587128 -6.6249142
182.5988 -72.575432 -6.7238469
181.45218 -72.50444 -6.8373151
180.35846 -72.500336 -7.6053948
180.46983 -72.435158 -7.6402659
182.44194 -72.509521 -7.7765851
182.36829 -72.550293 -7.8519158
181.06912 -72.473846 -9.2326212
192.64584 -72.583168 -10.497875
181.30605 -72.50235 -11.476759
180.52475 -72.299255 1.492088
180.96678 -72.225883 1.480431
182.59015 -72.243828 1.271121
181.67526 -72.282349 -5.6191692
180.16293 -72.233887 -6.3283868
181.3334 -72.284775 -6.659194
181.3781 -72.266586 -6.8449731
180.41743 -72.251389 -7.599462
182.17146 -72.267204 -7.923274
182.29779 -72.21048 -8.1450939
180.38574 -72.397095 -9.2045536
181.8559 -72.388039 -10.386035
182.0275 -72.204094 -10.590705
181.31447 -72.215958 -11.497677
181.45715 -72.193542 1.444652
181.78888 -72.06057 1.426145
180.1275 -72.192673 1.3710639
183.57166 -72.166054 1.319599
181.73433 -72.178551 -5.177618
181.63788 -72.194107 -5.4615469
180.23851 -72.140167 -5.6912122
181.50226 -72.145538 -5.658545
180.08528 -72.117821 -6.5869212
180.08084 -72.119995 -6.7155819
180.1107 -72.074341 -6.8994088
180.27483 -72.199234 -7.4685588
181.46106 -72.188591 -7.799603
180.51213 -72.128632 -7.865624
181.76634 -72.13237 -7.8898249
180.61926 -72.072952 -8.0393295
180.90947 -72.197533 -9.0865316
180.99918 -72.176285 -9.2463598
181.87308 -72.175377 -10.28558
182.14098 -71.900093 1.396088
180.23224 -71.939812 -5.641367
181.31079 -71.972214 -5.6405058
180.11642 -71.892151 -6.2851858
180.1584 -71.841423 -7.4981871
180.59857 -71.869431 -8.0668831
181.5329 -71.842819 -8.1067905
180.83716 -71.893982 -9.2472744
181.79175 -71.842354 -10.309872
192.86372 -71.948349 -10.70821
180.04726 -71.762993 -6.5741029
180.26572 -71.76651 -7.9004922
181.89743 -71.797089 -8.196806
187.11823 -71.725952 -8.333952
187.07837 -71.761559 -8.5182152
181.84877 -71.67717 -9.0832434
180.43849 -71.582169 -7.1269312
180.34245 -71.548737 -7.5126061
180.26442 -71.421669 -7.667109
181.19775 -71.470512 -9.2665558
181.53728 -71.474503 -10.314953
183.71213 -71.445724 -11.008245
186.57784 -71.277786 1.4581881
183.55533 -71.396896 0.55379301
183.64575 -71.277748 0.177442
187.87021 -71.340828 -3.318125
188.13751 -71.370453 -3.3651919
188.42303 -71.297455 -3.346663
182.75284 -71.314049 -5.7413578
192.78568 -71.275604 -7.5576019
182.26012 -71.269661 -10.745026
181.66693 -71.250313 -10.953597
183.4722 -71.241852 -10.931742
181.29858 -71.065857 1.282048
181.40526 -71.014915 0.33116499
187.46011 -71.109985 -3.0149369
187.89343 -71.056602 -3.3499939
181.34775 -71.016304 -3.9311869
181.51263 -71.068184 -4.1959472
181.38583 -71.03186 -4.4266839
182.75302 -71.166199 -5.5147219
183.02325 -71.133072 -5.4142742
183.28738 -71.138718 -5.4486489
180.02435 -71.059372 -7.488523
183.00731 -71.191582 -7.43434
192.67522 -71.096436 -7.460855
192.72313 -71.069305 -7.7965622
181.43071 -71.05278 -7.8373542
180.44812 -71.161423 -8.1147203
182.67599 -71.175896 -8.1822128
192.65833 -71.005493 -8.1670723
180.32455 -71.00074 -8.4036531
180.32922 -71.06955 -10.249809
180.93901 -71.074532 -10.54264
182.0341 -71.159081 -10.632727
182.08568 -71.053574 -11.826172
189.03629 -70.832565 1.624958
181.17618 -70.895905 1.329878
181.28592 -70.914902 1.104104
181.31824 -70.968185 0.483318
181.27791 -70.899796 0.29846999
181.3253 -70.921082 -0.114151
184.21521 -70.865723 -0.063037999
181.3141 -70.958122 -0.65663999
181.31871 -70.929588 -0.90182298
181.3082 -70.897789 -1.3871419
181.27055 -70.916931 -1.892374
181.32304 -70.946877 -2.105171
181.29671 -70.986656 -2.6223769
184.82742 -70.803375 -2.7283289
181.28716 -70.95919 -3.0986259
181.30673 -70.882797 -3.3154659
187.00096 -70.889084 -3.3842449
187.40117 -70.949776 -3.3354731
184.91133 -70.808296 -3.4268711
184.87961 -70.830917 -4.097332
181.33264 -70.966675 -4.296061
181.29999 -70.886658 -4.5267129
184.91441 -70.832832 -4.6941452
181.3465 -70.99276 -5.0973868
184.877 -70.848473 -5.3442111
181.35808 -70.967163 -5.4986029
181.35034 -70.911339 -5.7392969
183.08769 -70.854218 -5.9584799
181.35185 -70.945564 -6.6354232
183.0011 -70.999725 -6.8805761
180.15793 -70.958466 -7.8806262
192.27313 -70.840103 -7.913383
180.33507 -70.983452 -8.0965996
181.1459 -70.995895 -8.1752586
181.26373 -70.968613 -8.1635838
192.12674 -70.94603 -8.1199036
185.00595 -70.948685 -8.5474586
180.70532 -70.92746 -10.328247
180.29196 -70.964691 -10.48457
180.7254 -70.949898 -10.596123
181.80179 -70.962341 -11.001192
189.28548 -70.651352 1.34961
181.16978 -70.78064 0.81613702
184.88287 -70.680656 0.50437999
181.62029 -70.740257 0.225306
184.96136 -70.715775 -0.692334
184.91891 -70.715073 -0.89881301
184.81866 -70.633728 -1.382475
181.28607 -70.696648 -1.840703
184.81696 -70.700699 -2.1017139
181.29413 -70.731239 -2.64604
184.88348 -70.715935 -2.9948831
184.74428 -70.660843 -3.1171291
184.83572 -70.7155 -3.3184791
186.72064 -70.751404 -3.391175
187.43617 -70.712006 -3.244627
181.29982 -70.763931 -3.903862
184.81898 -70.719803 -4.1138468
184.72432 -70.601158 -4.291903
188.19171 -70.600845 -4.2863441
184.70688 -70.605125 -4.6463919
184.86588 -70.798866 -5.465838
184.7101 -70.65554 -5.6661658
184.76025 -70.640915 -6.7287331
181.45309 -70.71019 -6.979589
192.51831 -70.76358 -7.5110941
192.20853 -70.639214 -7.7765741
180.26743 -70.70713 -8.1144943
192.3222 -70.721268 -8.1526327
180.24677 -70.722061 -10.550311
180.56927 -70.768021 -10.588238
184.6886 -70.460999 0.47729099
184.75723 -70.529282 0.022422001
184.75053 -70.545288 -0.71436399
184.74081 -70.529449 -0.87938499
184.77565 -70.49469 -1.334849
187.75288 -70.576927 -1.712626
184.73436 -70.555519 -1.864673
187.46214 -70.54245 -1.976288
184.75247 -70.537025 -2.08973
187.40775 -70.450081 -2.0294919
184.76556 -70.595299 -2.6998689
184.69489 -70.510895 -3.035701
184.77283 -70.593643 -3.367871
186.93425 -70.541779 -3.4027669
196.61287 -70.501167 -3.669096
184.7002 -70.514954 -3.924104
187.83807 -70.420776 -4.2153902
188.11534 -70.583916 -4.479825
184.67415 -70.578804 -4.89818
187.29205 -70.546616 -4.8117352
184.68921 -70.516083 -5.4110751
192.29797 -70.523308 -7.5113959
186.58081 -70.527237 -8.7555161
188.85054 -70.493774 -9.0416927
180.6223 -70.53817 -10.292362
182.95389 -70.280067 1.592845
184.90817 -70.314407 0.59974402
184.86981 -70.365952 -0.007191
187.42453 -70.335083 -1.868035
187.47293 -70.311394 -2.0854831
184.69849 -70.299988 -3.4132881
186.89294 -70.290375 -3.4020481
187.68121 -70.309326 -4.163641
184.73064 -70.34494 -4.247736
187.42435 -70.287796 -4.2579479
188.10065 -70.373077 -4.3035679
187.38268 -70.310745 -4.642468
188.9281 -70.213043 -4.7621942
184.71825 -70.317535 -5.6880651
180.15677 -70.261559 -6.4410462
188.89023 -70.227661 -7.5657849
188.77719 -70.30938 -8.7185116
181.86078 -70.298325 -8.9010868
181.52469 -70.295609 -9.1520462
181.17691 -70.233414 -9.4301853
180.17979 -70.334908 -10.338384
190.05232 -70.073692 0.85522598
188.70276 -70.064049 0.75412101
190.01495 -70.014565 0.69601899
188.62839 -70.035225 0.048257999
188.71927 -70.03199 -0.365457
190.01462 -70.017342 -0.315368
188.72066 -70.03656 -0.575863
188.70505 -70.015366 -1.452436
187.08237 -70.151581 -2.077529
187.72835 -70.110962 -2.0833559
188.69891 -70.03035 -2.107096
187.44354 -70.110374 -2.627748
188.68184 -70.016113 -2.751945
187.77809 -70.095398 -3.0522261
188.75821 -70.088669 -3.0655119
186.63358 -70.020279 -3.463558
196.02969 -70.096161 -3.549304
194.90771 -70.07724 -4.5946798
195.37482 -70.10376 -4.6254859
187.48419 -70.118851 -4.8439202
187.8632 -70.110855 -4.8716621
188.72928 -70.079506 -4.8450432
188.86887 -70.19239 -4.8757062
195.71704 -70.108177 -4.8627062
195.26118 -70.111191 -5.0625858
180.57809 -70.143768 -5.4863009
180.57019 -70.083488 -5.7727232
188.76057 -70.09639 -5.6973891
188.82903 -70.178345 -5.8100858
188.74716 -70.051559 -6.1773491
188.87411 -70.181076 -6.183146
180.07181 -70.137375 -7.4226699
191.16348 -70.138878 -7.5244861
191.20828 -70.189346 -7.790729
189.91701 -69.999405 1.124324
188.59448 -69.81945 0.656187
188.61572 -69.880615 -0.69958299
188.66103 -69.859627 -1.076573
188.70567 -69.945587 -1.367039
185.89708 -69.988983 -1.929101
187.02829 -69.855072 -1.915552
186.75862 -69.819 -2.105108
186.91209 -69.922241 -2.099973
187.44879 -69.987663 -2.378294
187.16765 -69.924377 -3.095469
186.6853 -69.988846 -3.4207561
196.02719 -69.959793 -3.7712359
195.26862 -69.992188 -4.725112
180.62711 -69.857162 -5.506495
180.41043 -69.924782 -5.787601
188.71176 -69.951256 -5.7872782
180.37106 -69.861938 -6.1169171
188.70502 -69.879295 -6.1587811
180.5898 -69.862762 -6.3034601
180.50581 -69.824951 -6.599843
196.5593 -69.814209 -6.4979181
182.21106 -69.87104 -7.123178
190.99887 -69.850647 -7.4605269
180.93169 -69.863098 -9.0966377
180.92944 -69.840012 -9.4931049
188.21031 -69.715981 1.707162
188.36755 -69.778717 1.572245
188.84685 -69.688538 0.37192401
185.71097 -69.684837 -2.128547
185.69267 -69.73127 -2.7117021
186.78879 -69.68895 -2.707201
185.77008 -69.714882 -3.0683241
186.23949 -69.778488 -3.118669
194.6716 -69.72718 -3.374413
195.71658 -69.724907 -3.5694139
183.57108 -69.672951 -4.3486118
184.20029 -69.799049 -4.218514
183.77 -69.727402 -4.6469488
184.2865 -69.698837 -4.711967
187.88513 -69.752769 -4.8335228
180.77563 -69.668823 -5.1686921
195.4473 -69.725304 -5.0804429
184.99066 -69.679459 -5.4614372
180.53928 -69.797272 -5.7806368
186.88757 -69.63884 -6.079432
197.29372 -69.763779 -6.2702661
180.32764 -69.768791 -6.5730319
191.00409 -69.700531 -6.459785
191.052 -69.796944 -7.7707729
194.25281 -69.658478 -8.1693964
180.64841 -69.622635 -8.8012199
181.80521 -69.725471 -9.6563454
188.3327 -69.470116 1.778424
188.54471 -69.533188 1.52191
185.73537 -69.570259 -2.72101
186.78304 -69.599457 -2.6257141
188.63126 -69.413536 -2.9913559
185.69113 -69.516602 -3.015765
186.20854 -69.516762 -3.385797
194.8335 -69.463982 -3.389365
186.02261 -69.50103 -3.6232951
184.11349 -69.559311 -3.9053431
183.59761 -69.549713 -4.3263092
183.7142 -69.407486 -4.2531352
186.80338 -69.583961 -4.2310948
188.5275 -69.40416 -4.5354948
180.84335 -69.513931 -5.357728
180.72662 -69.469254 -5.456275
184.54843 -69.453308 -5.454123
180.63075 -69.518616 -5.8092418
181.97852 -69.490768 -5.9004002
182.03528 -69.55024 -5.9010448
184.7269 -69.409454 -5.8675742
184.97168 -69.442284 -6.055532
196.16351 -69.451706 -6.7159929
190.86404 -69.486145 -7.796638
180.85718 -69.562233 -9.5267487
180.71704 -69.539673 -9.6687775
181.91342 -69.538887 -9.6744747
186.15573 -69.365479 -0.66099799
187.58377 -69.297661 -0.76947802
187.65414 -69.398941 -0.65663898
186.19458 -69.229378 -0.878263
186.45605 -69.300888 -0.89492798
187.3672 -69.312057 -1.140106
187.53873 -69.240952 -1.38081
186.26447 -69.397186 -1.868428
186.21417 -69.268326 -2.12339
185.93626 -69.32605 -3.4547429
192.45261 -69.367004 -4.3668208
183.87479 -69.325203 -4.6614852
192.28677 -69.233826 -4.6645861
192.35803 -69.220711 -5.0346031
195.33607 -69.273605 -5.125082
183.18901 -69.20649 -5.9606209
183.30087 -69.361908 -6.0174632
184.78017 -69.308113 -6.0437241
181.94032 -69.294922 -6.2173691
196.61002 -69.285629 -6.526937
194.62949 -69.297562 -6.7218161
194.58633 -69.245476 -6.8822999
194.27917 -69.295105 -7.9060688
194.1429 -69.378876 -8.0643005
180.70709 -69.242188 -9.4415092
182.0309 -69.384804 -9.7756453
186.18121 -69.05542 -0.85862398
186.53384 -69.035294 -1.678829
186.2278 -69.126495 -2.1409299
187.73503 -69.013206 -2.286864
185.44237 -69.016853 -2.745717
186.24886 -69.008118 -3.0517011
183.76559 -69.078171 -4.3154011
186.75049 -69.054985 -4.489337
183.74042 -69.003654 -4.722847
195.29274 -69.028473 -4.8892689
183.13606 -69.082169 -5.7186952
180.59337 -69.027161 -9.3294067
184.07401 -69.159752 -9.9680529
191.53514 -68.869034 1.084058
191.62286 -68.854591 0.74480599
191.62524 -68.864777 0.159823
191.71147 -68.873535 -0.61475301
186.36896 -68.959373 -1.400635
191.66418 -68.818596 -1.921396
191.65039 -68.805847 -2.1390629
187.7464 -68.86264 -2.5292389
185.54965 -68.899925 -2.9577789
198.1924 -68.88398 -2.953676
183.86221 -68.956467 -3.467582
194.56435 -68.98101 -3.408839
188.10408 -68.913033 -4.8580542
192.16644 -68.951286 -4.9966569
191.89673 -68.844131 -5.0424852
183.40576 -68.996353 -6.1497211
192.1781 -68.953568 -6.216145
192.12335 -68.905045 -6.4576898
182.29324 -68.836838 -6.7086592
182.29874 -68.946091 -6.9373002
196.55986 -68.981499 -6.8318539
180.4881 -68.861893 -9.050128
183.76013 -68.909851 -12.299407
183.10933 -68.922379 -12.829513
191.46408 -68.731781 1.031162
191.52106 -68.734917 0.75238198
191.55565 -68.607872 -0.201681
191.53662 -68.683449 -0.65616
186.44936 -68.606873 -0.88548899
191.55556 -68.60199 -1.411323
191.55478 -68.669624 -1.772231
191.53564 -68.616806 -2.111939
191.64572 -68.777344 -2.0886049
183.74973 -68.611275 -3.514919
185.75404 -68.611099 -3.642195
186.52173 -68.722054 -3.6755891
183.5553 -68.723991 -4.2041488
183.73683 -68.696442 -4.5512528
183.7764 -68.698456 -4.967658
188.22766 -68.705338 -4.95576
191.78917 -68.764038 -4.9756398
183.35443 -68.616692 -5.398499
183.30705 -68.62001 -5.75179
191.88063 -68.659424 -6.4678988
195.9389 -68.699951 -6.5223498
180.44321 -68.615334 -9.1337957
180.59958 -68.602737 -9.2759705
192.62585 -68.706924 -11.325858
191.52695 -68.59758 0.141993
186.21884 -68.455215 -0.030197
191.63301 -68.579323 -0.16672
191.65276 -68.488876 -0.52159202
184.97542 -68.448349 -1.350883
186.32788 -68.435783 -1.404155
185.1109 -68.553909 -2.077116
182.48236 -68.512321 -2.360388
185.21573 -68.54274 -2.2524559
185.49361 -68.57225 -2.9982929
182.22806 -68.428978 -3.091609
182.5314 -68.429703 -3.1287839
183.53217 -68.520706 -3.487071
194.98207 -68.494415 -4.7984319
186.86255 -68.44014 -4.8518538
183.15442 -68.453659 -5.669024
185.27586 -68.523483 -5.9427791
183.82986 -68.412941 -7.219089
190.38333 -68.496948 -7.4688978
180.23581 -68.458374 -8.2828875
180.24622 -68.483459 -8.4417229
180.26515 -68.534065 -9.228797
191.79718 -68.278976 0.56996298
186.55566 -68.257111 -0.48050201
186.25812 -68.334557 -0.84520203
191.87852 -68.238708 -0.88363498
184.96179 -68.393471 -1.14114
186.21698 -68.204971 -1.493772
186.55441 -68.31282 -1.889781
186.50375 -68.236069 -2.1066899
185.24409 -68.285553 -2.2083631
182.52731 -68.262177 -2.682441
185.37653 -68.205406 -2.7352059
182.49062 -68.235229 -2.8396039
182.80232 -68.382431 -2.817169
191.74088 -68.380035 -2.916796
185.53525 -68.271378 -3.092118
183.07021 -68.233299 -3.487385
186.13361 -68.26442 -3.415118
183.73677 -68.290565 -4.353816
183.69171 -68.304535 -4.612556
183.18311 -68.230911 -5.4643302
194.59143 -68.316986 -6.3156571
195.03012 -68.263969 -6.633708
180.21031 -68.260651 -8.3404865
184.45206 -68.284966 -8.73944
184.42719 -68.379242 -8.9175892
186.69101 -68.051125 -0.064255998
186.1606 -68.113983 -0.61392802
185.12666 -68.163925 -1.4224451
187.54092 -68.018433 -1.599254
186.35999 -68.184845 -1.7918299
185.01871 -68.10527 -1.839844
183.68698 -68.187561 -2.1425531
182.93843 -68.047081 -2.213191
183.54553 -68.096252 -2.2166719
183.21198 -68.078957 -3.523427
185.77747 -68.080231 -3.4802389
182.94168 -68.055222 -3.9560051
183.06262 -68.142654 -4.0712209
183.44194 -68.141945 -4.181004
187.24051 -68.0252 -5.6334009
183.25169 -68.130646 -5.9290199
197.26834 -68.078003 -6.8550258
180.23264 -68.013733 -7.8555951
180.23857 -68.13163 -8.4242821
184.38495 -68.141968 -8.5375843
186.85126 -67.96743 0.070262
186.27924 -67.870911 -0.89649999
183.63292 -67.811981 -1.840966
184.9171 -67.800705 -1.817665
185.22766 -67.80764 -2.1292529
183.50751 -67.860611 -2.223125
182.62508 -67.852089 -2.7200601
182.9299 -67.889908 -3.506516
183.37625 -67.94278 -4.2607508
183.30254 -67.800865 -4.5878878
184.51384 -67.818138 -4.672894
183.18634 -67.943779 -4.8167372
183.32932 -67.957581 -4.8418918
183.29309 -67.945053 -5.9084821
183.27679 -67.815857 -6.1089749
184.2439 -67.987106 -6.2184911
180.25 -67.90609 -8.1849861
186.78955 -67.767754 0.096914001
185.81274 -67.707489 -0.72557002
183.5372 -67.69809 -1.456346
183.48708 -67.72789 -1.829211
184.70184 -67.676826 -1.868095
182.92783 -67.794495 -2.203007
185.15138 -67.783859 -2.2011559
182.67981 -67.688873 -3.3161011
183.26044 -67.666504 -3.9861281
183.06841 -67.797501 -4.074883
184.25699 -67.780655 -4.5051818
183.71825 -67.640778 -4.830081
183.37639 -67.789024 -5.440495
183.05159 -67.709206 -5.9077778
183.0329 -67.660339 -6.1042581
183.53087 -67.694992 -6.8875222
197.16946 -67.679138 -6.871448
187.83771 -67.752602 -13.762428
186.57469 -67.477127 -0.61146498
186.20473 -67.464714 -0.91819298
183.57285 -67.487907 -1.3720551
183.66037 -67.533569 -1.49199
183.34647 -67.548859 -2.1051781
182.43301 -67.406693 -2.221149
182.84024 -67.508194 -2.982748
183.26817 -67.413239 -2.9919119
181.87717 -67.475128 -3.135464
182.19136 -67.401512 -3.125258
181.30896 -67.439621 -3.529444
181.75925 -67.465881 -3.468951
183.16222 -67.456352 -4.151927
183.32571 -67.462708 -4.1825042
183.99992 -67.594818 -4.4181929
184.62698 -67.52652 -4.7100301
184.54654 -67.511909 -4.878222
183.32828 -67.45961 -5.5067019
183.15741 -67.511124 -5.922349
197.16937 -67.566612 -6.799787
185.70279 -67.547043 -11.691703
186.164 -67.390457 1.838286
194.5524 -67.385117 1.703238
194.94247 -67.322365 0.930457
195.0471 -67.361465 0.124568
195.09018 -67.32901 -0.155026
195.16159 -67.397995 -0.55573499
195.26288 -67.311035 -0.62968099
180.14066 -67.217308 -1.931638
183.52026 -67.361176 -1.826242
195.42134 -67.33989 -1.887947
182.22498 -67.279877 -2.2520659
182.31502 -67.345955 -2.7636271
187.41534 -67.216347 -2.972487
187.36685 -67.287308 -3.2243631
182.0963 -67.253647 -3.4950759
182.50885 -67.291122 -3.5436709
182.84207 -67.36879 -3.4874351
185.91373 -67.315392 -3.623584
182.56435 -67.207291 -3.9483421
182.90179 -67.278969 -4.54602
183.31618 -67.356743 -4.582798
183.97884 -67.338806 -4.8590131
183.67662 -67.351982 -6.9959879
186.81757 -67.382301 -14.084309
185.8195 -67.054008 1.728175
186.2731 -67.068359 1.62345
186.44757 -67.022858 0.47936001
195.10509 -67.176392 -0.058724001
180.15587 -67.017525 -2.1084321
181.90485 -67.025078 -2.2897811
183.6817 -67.085526 -2.2121999
181.41736 -67.016541 -2.7460821
182.2988 -67.098869 -2.7582681
182.30713 -67.052383 -2.9906559
181.77017 -67.032211 -3.0595291
186.46286 -67.094147 -3.2273021
183.45274 -67.133148 -3.5724931
183.41844 -67.176193 -3.608803
182.612 -67.144577 -3.8532591
183.08331 -67.101921 -4.1993022
183.30719 -67.064896 -6.9006271
187.67508 -67.088196 -13.59976
181.19077 -66.83429 1.6754709
186.28789 -66.944244 1.324278
186.27713 -66.944519 0.883187
186.2692 -66.859062 0.47781
186.23593 -66.864365 0.16221499
187.14218 -66.985229 -0.135111
186.22951 -66.879959 -0.89933699
180.27391 -66.856239 -1.023814
186.29031 -66.909042 -1.8044651
180.55489 -66.913589 -2.303968
183.54303 -66.942741 -2.2574689
186.19633 -66.947311 -2.226614
180.616 -66.99971 -2.735399
180.25064 -66.870323 -3.185899
180.76407 -66.822426 -3.1071
181.39799 -66.957909 -3.0762661
181.2796 -66.892319 -3.3217571
186.36526 -66.944511 -3.2167461
198.4371 -66.980515 -3.390672
181.89743 -66.983665 -3.4411311
182.09146 -66.811119 -3.538836
182.5983 -66.974579 -4.140696
193.0215 -66.820984 -4.3492079
183.34286 -66.922943 -4.889452
183.11009 -66.878891 -5.4919629
183.34264 -66.999649 -5.5428491
187.3102 -66.922623 -6.0517802
186.53654 -66.850563 -6.2251229
183.81316 -66.949738 -7.5164981
183.85271 -66.968575 -8.3020058
184.76199 -66.988045 -8.5792103
184.33856 -66.978195 -13.538783
186.6113 -66.871292 -13.621103
185.75626 -66.747543 1.806124
181.50954 -66.759338 1.636238
181.73871 -66.627411 1.659582
185.60912 -66.650307 1.795851
186.17807 -66.628387 0.87209803
186.16618 -66.624054 0.466506
180.88637 -66.710732 -0.59243298
186.25688 -66.67099 -0.57650101
180.17615 -66.628548 -0.604559
186.23633 -66.688187 -0.92233402
180.34164 -66.718788 -2.3026321
186.23079 -66.700996 -2.2320721
180.99074 -66.771088 -3.171066
180.14389 -66.692108 -3.3793621
181.89491 -66.687088 -3.540242
181.93494 -66.703079 -3.699892
182.87207 -66.601791 -4.2280798
183.25917 -66.699417 -4.8688002
186.3638 -66.717995 -4.9627461
183.16644 -66.646118 -5.5486989
186.4711 -66.674881 -6.2318201
183.13084 -66.733734 -6.7877498
183.09496 -66.664421 -7.0954399
183.8522 -66.775146 -8.3442516
185.74335 -66.685387 -8.6806192
184.75351 -66.632332 -13.639128
185.07101 -66.429398 1.744471
185.44238 -66.579315 1.750011
186.3423 -66.562393 -0.379172
180.89174 -66.528435 -1.063838
181.41031 -66.594063 -1.05505
181.87982 -66.466919 -1.0555871
181.87311 -66.497108 -1.943523
180.12143 -66.506439 -3.000356
180.88673 -66.495712 -3.3891251
181.55864 -66.577835 -3.5838921
184.39636 -66.467873 -3.403703
184.9873 -66.435669 -3.4197299
181.54185 -66.573013 -3.6311319
186.41542 -66.545135 -3.668709
182.82916 -66.540588 -4.5811181
183.0336 -66.50856 -4.9022598
183.3528 -66.51133 -7.3626318
184.12152 -66.515335 -7.6311851
186.42186 -66.572998 -7.6821389
184.60172 -66.474037 -8.7004433
186.69843 -66.47345 -8.7902861
184.67232 -66.598068 -13.422388
186.04291 -66.386429 1.607136
183.81306 -66.339111 -2.930099
180.68314 -66.20459 -3.051528
182.95023 -66.217186 -4.7214708
183.15378 -66.246597 -5.5053172
183.26068 -66.207489 -6.2098551
183.28847 -66.295197 -6.8894892
186.69325 -66.302109 -9.0919275
186.76312 -66.297058 -12.452206
184.696 -66.156975 1.696802
183.63757 -66.16188 -2.1490979
182.08141 -66.060257 -2.3285251
180.61342 -66.177734 -3.5284369
180.20055 -66.177963 -3.711184
180.61299 -66.187782 -3.621413
181.16525 -66.136154 -3.629503
181.23068 -66.135422 -3.6158111
182.78336 -66.183388 -4.5852699
183.80145 -66.139526 -4.6512599
182.97342 -66.168671 -4.9178939
183.0351 -66.170815 -4.9696469
185.0193 -66.174492 -6.1397629
183.18375 -66.130676 -6.2652478
185.16852 -66.19841 -13.165693
181.7486 -65.876709 -1.386042
185.27225 -65.987137 -6.2317548
183.76381 -65.81427 -8.4038448
183.00659 -65.889496 -10.224277
186.0665 -65.914291 -12.801095
193.10962 -65.766144 1.770424
190.19603 -65.604202 -1.439803
190.8047 -65.739731 -1.536965
182.89954 -65.701309 -2.2951739
182.72563 -65.757225 -4.5450668
182.90694 -65.759033 -4.7399411
182.93951 -65.758163 -4.9476881
183.27538 -65.764038 -5.5155892
182.32562 -65.716141 -8.1793404
182.595 -65.642647 -8.4929771
184.9648 -65.782692 -10.458811
185.14449 -65.72744 -11.476649
185.66211 -65.7435 -12.444798
185.66568 -65.474945 1.727951
180.65192 -65.508591 -2.158797
182.89249 -65.489899 -2.199569
180.61368 -65.423492 -3.4521811
182.76213 -65.556473 -3.434027
182.79617 -65.596909 -4.7322402
182.73409 -65.551628 -4.9680662
182.80049 -65.577171 -4.806365
180.45728 -65.509583 -6.0111642
186.20224 -65.429047 -7.23629
182.97961 -65.420013 -8.7461014
184.99878 -65.412964 -10.50935
185.33948 -65.302513 1.747593
183.05467 -65.381462 -2.814925
180.3116 -65.335175 -5.9619379
184.88016 -65.249161 -6.2692938
184.81314 -65.258896 -6.4373999
185.67111 -65.323288 -6.4429669
184.17279 -65.387001 -6.996738
180.84979 -65.258224 -7.0620918
184.10069 -65.226578 -7.7669382
187.06506 -65.252167 -7.8648391
182.08765 -65.297455 -8.5653229
183.70541 -65.356728 -9.0331516
187.40918 -65.206818 -9.1342335
184.32681 -65.255081 -10.433392
192.00362 -65.031059 -0.462019
190.9254 -65.143753 -1.687408
183.24968 -65.0532 -3.7066441
181.23447 -65.036774 -5.8481951
184.64806 -65.142487 -5.8565102
181.00233 -65.127213 -6.1001401
185.43581 -65.10334 -6.0531459
184.54909 -65.032021 -6.3101888
183.86879 -65.046509 -6.9559789
184.25728 -65.196396 -7.0836711
184.19879 -65.026657 -7.486629
184.08191 -65.137421 -7.7171731
186.96201 -65.019676 -8.043438
182.1734 -65.155426 -8.2760429
182.24133 -65.127441 -8.7387829
184.26367 -65.191452 -10.456732
186.83295 -65.043854 -10.725739
198.13512 -64.853996 1.807198
180.48547 -64.837219 -4.95189
190.09714 -64.909729 -5.2713008
180.21959 -64.935425 -6.1917148
182.33563 -64.807816 -6.134841
180.54738 -64.936897 -6.212894
184.56398 -64.989845 -6.4488001
186.73126 -64.955368 -6.5606279
180.67001 -64.990158 -7.1074781
183.88348 -64.965073 -7.4044232
183.87195 -64.925171 -7.7340941
186.68666 -64.842285 -8.0316973
184.1443 -64.802124 -8.3837204
184.60391 -64.932281 -8.7455769
183.07999 -64.967728 -9.0136909
185.31206 -64.982697 -12.457518
181.22661 -64.721184 1.604425
192.4644 -64.632095 -0.952398
190.02612 -64.678635 -1.000021
192.4903 -64.664062 -1.21231
180.99323 -64.681709 -2.4846959
184.84033 -64.630875 -5.6728029
182.1875 -64.620415 -6.2520099
183.79317 -64.693504 -6.4220929
182.5296 -64.665207 -7.2388029
183.77347 -64.798203 -7.783627
186.59091 -64.677971 -7.9326968
186.5238 -64.633133 -8.0327482
182.87933 -64.626053 -9.0181665
182.56921 -64.733429 -10.143147
183.09239 -64.720795 -10.205835
185.4653 -64.729324 -12.439388
189.10141 -64.597336 1.715062
197.91568 -64.46833 1.761627
189.27109 -64.547592 0.195756
189.90768 -64.546814 -2.195487
185.38583 -64.456619 -2.3236079
181.37567 -64.466515 -3.1972101
182.0289 -64.477859 -5.030777
182.90436 -64.451744 -5.0508008
180.39084 -64.423874 -7.5678568
180.41971 -64.468513 -7.5489759
180.96854 -64.449905 -7.459774
183.33138 -64.457481 -7.5322351
180.7267 -64.435883 -7.6210399
183.46407 -64.59301 -7.7443609
184.47166 -64.429947 -7.7135372
189.53484 -64.383026 1.139812
185.43668 -64.281052 -1.9187551
185.33493 -64.245224 -2.370249
185.34538 -64.239891 -2.5636981
183.68112 -64.20665 -3.0634911
181.32251 -64.267616 -3.350126
182.76289 -64.348907 -5.0597229
183.1485 -64.226929 -6.399003
180.77284 -64.388977 -7.5795331
180.84766 -64.392525 -7.5998249
183.18443 -64.336716 -7.5600948
183.34651 -64.317894 -7.58815
182.90094 -64.227142 -7.7259521
183.42947 -64.258926 -7.7531309
188.97707 -64.092773 1.548092
192.67685 -64.177574 -1.155297
180.1053 -64.119301 -6.0687051
183.04192 -64.045746 -6.417872
184.68852 -64.193489 -9.5449238
199.26913 -63.844429 1.348732
192.35294 -63.818855 0.083143003
199.32669 -63.877468 0.14079
199.27351 -63.818737 -0.206637
192.53877 -63.865494 -1.038223
183.7879 -63.902809 -2.6165359
188.15419 -63.906551 -4.8499908
182.94466 -63.839767 -7.7531428
180.59824 -63.859207 -8.8232784
189.70456 -63.774422 1.150291
199.29593 -63.782452 1.0616601
199.29625 -63.765564 0.69784498
192.65437 -63.711128 -0.49839801
199.22433 -63.697048 -0.60378999
185.49106 -63.73555 -2.652072
180.79573 -63.714981 -6.0186749
190.22363 -63.507835 1.6984791
199.1683 -63.452568 1.046373
199.24445 -63.566887 1.038162
199.24792 -63.446892 -0.20985
192.76877 -63.578278 -0.53206998
199.06206 -63.439468 -0.61456603
190.18677 -63.433922 -1.818733
184.73225 -63.504326 -5.2246561
185.51086 -63.512997 -7.5411682
182.61746 -63.484978 -7.8186078
199.03564 -63.291439 1.406774
199.04269 -63.386436 -1.475538
180.87292 -63.226788 -2.4045551
185.1835 -63.381489 -2.6201999
190.87247 -63.065483 0.34245601
198.98215 -63.168854 -0.586577
180.98145 -63.135586 -2.458266
184.07664 -63.06456 -2.631947
180.2818 -63.127716 -6.1132832
180.44031 -63.185318 -6.4296808
183.41402 -63.005825 -9.0781231
180.38467 -63.083229 -12.132288
198.83344 -62.928299 1.389449
198.8981 -62.895561 1.047772
198.66162 -62.826538 0.19112
184.45573 -62.915684 -5.2130432
180.56232 -62.894848 -6.192903
182.65277 -62.902809 -9.1234608
183.05585 -62.972221 -9.0048141
198.5184 -62.699417 1.4043961
198.50252 -62.60215 0.99183202
198.52267 -62.698223 0.473726
198.50696 -62.619385 0.12733001
198.60349 -62.632694 -0.27627099
198.63423 -62.662296 -0.494203
194.82066 -62.790756 -1.418285
183.95245 -62.613972 -2.2454209
184.02129 -62.659187 -2.267117
180.77322 -62.699329 -2.572968
190.16483 -62.662514 -2.5764229
180.13052 -62.655647 -5.9864402
185.37146 -62.794502 -6.2269001
182.86038 -62.749832 -8.9790554
194.1837 -62.584721 1.859243
195.93176 -62.463512 1.789484
198.36749 -62.464958 1.112308
196.70575 -62.501717 -0.12588701
190.29356 -62.517761 -0.960464
180.06337 -62.484699 -2.4098289
187.85222 -62.555321 -6.591732
182.24695 -62.589462 -7.7547421
182.47601 -62.596962 -9.2412186
186.58844 -62.449223 -9.4590263
198.15088 -62.244171 1.341567
198.24451 -62.269981 0.955872
198.40797 -62.341446 0.015432
196.64392 -62.311153 -0.30385101
180.35271 -62.330544 -2.625282
193.52444 -62.268364 -2.8054039
186.84695 -62.30941 -5.3766041
188.12985 -62.312458 -6.5990882
181.92503 -62.398621 -7.6311722
185.48071 -62.267529 -7.8509569
182.58304 -62.303448 -9.2854795
184.29951 -62.22131 -9.4831657
196.53122 -62.191402 0.72807801
196.34369 -62.033642 0.28233701
196.46185 -62.112381 0.163662
196.52411 -62.126144 -1.373788
184.98927 -62.122375 -1.690812
180.44112 -62.144363 -2.6306081
183.59323 -62.169456 -3.512362
185.539 -62.0448 -3.8088
197.98029 -61.902676 0.95512301
198.03058 -61.952499 0.93943202
196.29749 -61.885826 0.69737399
198.08955 -61.933144 -0.68687499
184.98227 -61.922848 -1.716066
184.26424 -61.906563 -2.4928949
196.12148 -61.721157 1.723174
183.69846 -61.779991 -3.00598
184.10513 -61.460342 1.730772
184.03358 -61.413551 -2.072273
187.08368 -61.561367 -6.8302941
195.94107 -61.245544 -1.511077
183.86032 -61.309669 -2.0886641
184.05048 -61.230057 -2.4163599
181.46394 -61.359955 -9.4080677
195.7103 -61.022354 1.717327
184.61877 -61.041916 -2.2793281
180.11551 -61.050232 -4.3769779
180.1067 -61.008659 -4.455534
193.53571 -60.86216 1.725947
194.95459 -60.849617 1.774745
195.71222 -60.893719 -1.64589
193.48465 -60.642624 1.110443
195.52756 -60.65905 -0.64506298
184.02477 -60.610886 -13.057169
193.397 -60.594109 1.668419
195.3215 -60.457546 0.120072
195.51782 -60.586784 -0.85833699
184.52586 -60.483864 -1.650177
184.19971 -60.518692 -8.1841555
195.28711 -60.319931 0.71706802
195.20889 -60.233273 -0.234806
195.30179 -60.350567 -0.58117998
195.32634 -60.300419 -0.874075
184.4366 -60.243088 -1.333002
195.31137 -60.275051 -1.3508101
180.00584 -60.325783 -2.528945
188.00861 -60.262199 -9.5299215
187.45544 -60.265049 -11.137393
184.30891 -60.07024 1.764836
184.46823 -60.164398 1.790413
195.08456 -60.084553 0.88535899
195.07028 -60.037132 -0.58686
195.13373 -60.040798 -0.88154101
183.23422 -60.112801 -8.7878752
188.50087 -60.167538 -9.9798508
184.06664 -60.171097 -13.086554
197.52982 -79.927246 -2.3403139
197.41547 -79.961655 -2.7020271
197.55804 -79.921745 -4.9501052
197.75468 -79.90313 -6.528091
189.57025 -79.884422 -7.1641722
189.75099 -79.93821 -8.1825743
186.94458 -79.966705 -10.658122
193.26909 -79.732681 -5.8601031
190.21924 -79.799484 -12.948741
195.1765 -79.568985 1.1851259
193.64209 -79.539551 -5.9866319
196.8978 -79.24678 0.150809
196.99197 -79.228416 -6.2750139
194.58948 -79.307175 -7.1031928
194.50085 -79.315086 -7.3253708
193.57181 -79.296547 -7.6808691
193.10405 -79.327652 -8.4745331
191.80518 -79.36084 -9.922739
194.32291 -79.303032 -10.224611
197.71059 -79.270767 -11.372093
197.44516 -79.047356 -11.253115
196.8461 -78.923965 -7.3223009
196.72624 -78.978958 -7.5009398
191.87042 -78.971527 -9.3214951
194.43704 -78.857224 -10.233656
192.7486 -78.687599 -7.7215409
192.8752 -78.706749 -7.9698172
195.60269 -78.649864 -8.7429514
191.85971 -78.796684 -9.3240347
194.63869 -78.71106 -9.6891708
195.63934 -78.526161 -8.2262678
198.66339 -78.481201 -9.670742
192.44664 -78.284988 -7.285255
197.63063 -78.102707 -7.8937111
