# .PCD v0.7 - Point Cloud Data file format
VERSION 0.7
FIELDS x y z
SIZE 4 4 4
TYPE F F F
COUNT 1 1 1
WIDTH 1522
HEIGHT 1
VIEWPOINT 0 0 0 1 0 0 0
POINTS 1522
DATA ascii
181.89139 -97.279533 -8.5150938
185.37633 -97.025345 -1.1375999
183.79134 -97.158638 -1.791664
187.0141 -97.15654 -4.4687152
183.79706 -97.074936 -6.3039408
182.0661 -97.137253 -8.9083576
182.02385 -97.016655 -9.3529816
181.62367 -97.122337 -10.576864
183.3531 -96.827332 0.62746698
197.31796 -96.924973 0.32149199
183.4767 -96.904655 -1.870609
184.73566 -96.99366 -4.4572759
187.0594 -96.871735 -4.9529328
180.64468 -96.927742 -5.4584899
181.12196 -96.932114 -5.642364
181.9955 -96.993919 -8.674799
188.32631 -96.959839 -9.180028
182.44403 -96.844727 -10.93275
183.27014 -96.618256 -1.809244
185.58325 -96.740273 -4.4276862
185.62566 -96.760765 -4.4212999
181.47678 -96.722961 -5.2382569
180.38394 -96.762871 -5.475306
180.06668 -96.470901 0.65103298
183.21655 -96.573868 0.622931
185.42958 -96.571213 -1.238839
183.0325 -96.511909 -1.971337
185.52936 -96.376312 -1.177433
185.45531 -96.220642 -1.3196
182.85608 -96.243317 -2.164597
187.50984 -96.331528 -5.7076702
187.7178 -96.256157 -5.80475
181.73354 -96.258827 -9.9152384
181.35416 -96.306496 -10.517121
182.68869 -96.069359 -2.1868789
181.36218 -96.051743 -5.243928
184.02859 -96.158333 -6.337656
188.48192 -96.046974 -6.4138408
180.18106 -96.132523 -9.0213242
180.00801 -96.028946 -9.960062
197.64993 -95.933182 0.36368701
182.58295 -95.825439 -2.1542339
182.46446 -95.802872 -2.4223959
184.13571 -95.94416 -6.3509889
188.61919 -95.95063 -6.5393491
180.13049 -95.941742 -9.1165314
186.67833 -95.850433 -9.3572598
180.69421 -95.851303 -10.596682
189.53513 -95.680779 -7.210422
181.36871 -95.771248 -9.1603727
185.77573 -95.484726 -1.569612
182.35614 -95.464386 -2.309675
182.31006 -95.454529 -2.420423
186.53754 -95.531494 -9.2394676
184.26311 -95.234276 -6.6445799
189.36871 -95.22142 -7.760859
185.87961 -95.01384 -2.093899
182.21907 -95.063622 -2.7604511
180.13902 -94.825562 -0.162587
184.32167 -94.967987 -6.7014461
184.09737 -94.807289 -7.0370688
183.87631 -94.825165 -7.3480239
185.01646 -94.909576 -7.8889289
180.02316 -94.832657 -8.9578838
180.51624 -94.917725 -9.6355991
180.09955 -94.683159 -0.082094997
185.95871 -94.726662 -2.122968
189.79419 -94.611771 -7.272603
183.77466 -94.693451 -7.4166932
189.62451 -94.703049 -7.861465
190.01031 -94.799187 -8.0967379
180.56201 -94.605324 -9.0504255
180.58701 -94.615616 -9.344347
180.97467 -94.645821 -9.3495903
182.6131 -94.568741 -3.093776
184.20459 -94.580978 -7.274929
188.25629 -94.416222 -8.4545937
192.20016 -94.423538 -8.8603182
181.3338 -94.579117 -9.7445631
186.1714 -94.292625 -2.5081921
184.33618 -94.313126 -7.4824748
189.64409 -94.357819 -7.958982
180.10506 -94.288437 -8.4707413
180.35773 -94.232521 -9.0458813
180.19717 -94.124649 0.65895301
186.18195 -94.107574 -2.2255149
182.51898 -94.166229 -3.345401
189.97488 -94.104759 -7.3178458
183.75903 -94.027252 -7.7944541
180.05057 -94.174011 -8.3192225
184.14679 -94.19397 -8.4285431
180.61295 -94.186012 -8.8678942
180.33459 -94.142487 -9.287487
180.02907 -93.853127 -8.8429871
181.83142 -93.815773 -9.2814236
183.45807 -93.882408 -10.724495
185.0173 -93.860802 -11.182218
197.67796 -93.721054 0.47173801
195.6673 -93.676353 -0.54152101
186.23964 -93.764137 -2.560955
183.76619 -93.788902 -7.7838411
180.03882 -93.644295 -8.3765736
181.33704 -93.774712 -8.9745932
186.52467 -93.524727 -2.407469
186.1348 -93.451065 -2.748215
180.17206 -93.497986 -8.2321491
180.46603 -93.415489 -8.3444405
195.91946 -93.20826 0.36951599
182.04396 -93.376755 -3.5661011
183.26599 -93.246094 -7.7981691
182.46326 -93.224136 -8.0342827
180.3676 -93.31868 -8.4916983
180.42639 -93.317123 -8.4992218
181.85265 -93.396988 -9.308754
183.83748 -93.375069 -10.59876
195.85114 -93.075928 0.34409201
182.58379 -93.068565 -7.6664858
180.55786 -93.1166 -8.4417257
196.05267 -92.914375 0.324467
195.83221 -92.911148 -0.74588501
196.14491 -92.941208 -1.006091
181.90149 -92.979256 -4.4200029
180.08185 -92.85244 -7.359467
180.3504 -92.934853 -8.5110092
181.811 -92.948021 -9.0039024
182.08191 -92.978767 -9.1397829
196.08127 -92.647385 0.418127
185.7681 -92.605728 -3.4282999
180.61554 -92.728271 -4.281034
180.19615 -92.625977 -7.421062
181.02032 -92.684662 -8.6006927
181.0146 -92.591568 -8.2264366
181.39957 -92.587036 -8.6521273
182.05057 -92.476578 -8.7031651
184.63948 -92.587067 -10.295012
180.05765 -92.329208 -6.9837618
180.88828 -92.318314 -8.3063593
180.88391 -92.239235 -8.495513
185.13907 -92.22966 -9.8975964
181.96896 -92.091965 -4.63413
180.5318 -92.178795 -7.4591622
180.77545 -92.120323 -8.4717569
181.46301 -92.069031 -8.6626883
181.73862 -92.114098 -8.6751366
182.28116 -92.196594 -8.7549133
183.41483 -92.186272 -8.9321489
186.66397 -92.069481 -9.9560099
181.34818 -91.850098 -8.5803375
181.04121 -91.771446 -8.1085367
192.56171 -91.470169 -1.384979
185.44885 -91.498474 -3.891835
181.08528 -91.415833 -8.0843134
181.65486 -91.447372 -8.3417435
182.44049 -91.480392 -9.0749769
187.04086 -91.433067 -10.227814
188.78998 -91.244385 0.72969002
193.83093 -91.291611 0.12547401
193.62408 -91.341812 -1.206197
193.96179 -91.222145 -2.675302
185.4364 -91.344849 -4.111712
180.19296 -91.342682 -7.5025792
181.36444 -91.282669 -8.2568569
181.53143 -91.364456 -8.4559622
181.94205 -91.221001 -8.6718349
182.24063 -91.28727 -8.8954124
193.7955 -91.192078 -0.69325
195.57181 -91.128929 -0.62223399
182.56982 -91.074898 -7.0376701
180.68568 -91.048676 -7.9357882
181.39877 -91.095032 -8.2197704
181.25397 -91.173676 -8.4002419
183.67531 -91.02681 -9.4128237
191.23358 -90.869812 0.01805
185.68077 -90.94001 -4.6403131
182.06789 -90.992027 -4.867558
181.09995 -90.912468 -6.7763119
180.39767 -90.830078 -6.8638668
182.92975 -90.985786 -6.8277202
181.36487 -90.857697 -7.3804722
180.52107 -90.958633 -8.0328817
180.94635 -90.888306 -8.3047523
182.3277 -90.960045 -8.8935127
190.98486 -90.629524 0.005632
191.26291 -90.715302 0.137877
192.63589 -90.666374 -0.77168798
192.70099 -90.663872 -0.820364
192.63461 -90.633209 -1.364229
193.89824 -90.64595 -1.8978471
194.13295 -90.62561 -1.857087
185.56525 -90.680855 -5.096559
180.67352 -90.676102 -6.4803748
180.34097 -90.757889 -6.8842669
180.58376 -90.619553 -8.0805416
181.89 -90.680573 -8.5526896
182.00334 -90.643997 -8.4086056
191.17691 -90.433578 0.62635702
191.29805 -90.550537 0.77882898
196.35396 -90.504242 -0.868613
193.09665 -90.412109 -1.4312741
180.92177 -90.574829 -6.7780681
180.27243 -90.433105 -7.5894532
180.90176 -90.493622 -8.1832399
180.99666 -90.562782 -8.5473433
183.94832 -90.52903 -9.2540607
185.02776 -90.465775 -9.37638
184.58987 -90.449417 -9.4141312
191.3311 -90.333649 0.69994098
191.11435 -90.267212 -0.065315999
196.37541 -90.382202 -0.82049799
183.83592 -90.331245 -5.8268809
180.73486 -90.308716 -7.5983682
180.7574 -90.367477 -8.167408
181.21146 -90.228699 -8.2963095
181.20161 -90.213821 -8.4194527
182.85944 -90.316315 -8.8252525
183.83249 -90.232071 -9.2139931
191.22289 -90.194611 -0.093993001
192.91129 -90.141022 -1.146184
181.9501 -90.094681 -4.9238348
180.9808 -90.099533 -6.284215
180.94904 -90.167786 -6.5469251
180.30891 -90.167519 -7.825182
180.68666 -90.178467 -8.0671988
183.72687 -90.076614 -8.0069942
182.64861 -90.064545 -8.8002462
183.81561 -90.187103 -9.1691113
191.47147 -89.888458 -0.090241998
181.64648 -89.81781 -4.9689479
180.151 -89.873138 -7.5480661
180.07104 -89.858032 -7.6611609
181.24899 -89.912354 -7.620728
180.69489 -89.914917 -8.1134062
181.72113 -89.901627 -8.4496536
182.98492 -89.822632 -8.9454918
183.78979 -89.825554 -9.161272
184.00253 -89.843758 -9.1380663
183.80472 -89.953705 -9.242074
182.50566 -89.789703 -8.6363869
183.33392 -89.70665 -9.106493
183.41542 -89.756462 -9.2264214
184.98181 -89.559372 -5.8441792
181.39246 -89.412292 -6.0968361
185.57794 -89.413338 -7.1415291
183.24223 -89.486435 -7.2424841
180.90549 -89.402695 -7.7048841
183.26624 -89.506668 -9.0867205
196.69585 -89.449623 -11.696918
181.52515 -89.397476 -4.4553981
180.14087 -89.344475 -6.7596269
183.65347 -89.297935 -6.8833652
180.28401 -89.383629 -7.3044062
180.71844 -89.258102 -7.511992
184.92593 -89.257355 -9.1538715
195.45905 -89.13652 -0.90569502
181.33897 -89.186661 -4.4080439
185.81854 -89.155281 -5.2585859
180.19794 -89.124672 -6.5184889
180.18153 -89.009018 -7.3284502
181.70476 -89.05352 -8.2730885
184.92059 -89.008667 -9.1597509
196.53796 -89.055923 -11.739304
181.34265 -88.835037 0.85847998
192.69821 -88.821236 0.304138
192.54314 -88.849075 -0.10497
183.68271 -88.9524 -6.4528141
183.82353 -88.83065 -6.9511471
181.39099 -88.831482 -7.687326
193.85747 -88.841484 -10.316862
180.351 -88.68998 0.90843999
180.20837 -88.604385 -3.6682079
180.23767 -88.653297 -6.7425771
183.84729 -88.684586 -6.9166832
184.9924 -88.750359 -7.0145621
181.73645 -88.633751 -7.6698108
182.70947 -88.733444 -8.6220798
184.79944 -88.756386 -9.1489449
180.70314 -88.400688 0.91313499
180.93431 -88.461838 -3.568176
180.9458 -88.54187 -3.6661589
184.74117 -88.44339 -6.3701
180.24707 -88.589996 -7.008646
193.23648 -88.221649 0.60814798
180.77063 -88.238327 -3.419632
183.49208 -88.316925 -6.9467411
180.92078 -88.248688 -7.1717601
183.0676 -88.340309 -8.2970419
195.00861 -88.293198 -10.385105
194.99536 -88.247803 -10.658022
192.12122 -88.196503 0.56251597
192.27512 -88.175034 0.27243301
193.00214 -88.150742 -0.18333299
192.99652 -88.156021 -0.98752201
180.32727 -88.151581 -7.0375671
181.89247 -88.056961 -7.8427339
182.23822 -88.118034 -7.8989601
182.41841 -88.156563 -7.9241319
185.36942 -88.086029 -8.8439331
186.04953 -88.07589 -9.0861254
182.96843 -87.917915 -5.1296039
183.26375 -87.88208 -5.465836
188.70433 -87.958916 -6.625577
181.75276 -87.974632 -7.5935669
182.11812 -87.897812 -7.8876319
195.77982 -87.868828 -11.170298
180.11604 -87.781013 0.99457598
181.85904 -87.711548 -3.7795711
194.32364 -87.751328 -4.1908388
181.0054 -87.696655 -7.1889458
180.95721 -87.644348 -7.240623
181.89923 -87.756638 -7.8680582
181.93684 -87.455322 0.93212998
193.09045 -87.417908 0.1514
198.74771 -87.491272 -2.871171
190.86957 -87.468964 -3.941993
190.95084 -87.451263 -4.0964971
195.88223 -87.495438 -4.5817852
181.62048 -87.483124 -7.224442
195.37523 -87.230789 0.119899
192.64923 -87.380928 -0.145963
180.36452 -87.368118 -6.4027748
181.04474 -87.146164 1.0493751
197.1149 -87.000786 -2.135421
192.08305 -87.182388 -4.1950622
192.8092 -87.18045 -4.2239022
197.28247 -87.002296 -6.019033
181.44736 -87.060089 -7.1455498
181.40857 -87.10878 -7.2369728
182.39317 -87.02253 -7.9688959
185.54893 -87.054489 -8.9213228
182.27869 -86.969116 1.071684
198.56326 -86.850525 -1.3217289
181.76036 -86.960678 -2.465615
181.03641 -86.898117 -6.7699308
181.03944 -86.901154 -6.8830771
181.86736 -86.943123 -8.4822121
180.68517 -86.735497 1.068607
181.06506 -86.651093 0.98290497
195.66212 -86.636841 -0.074389003
198.48653 -86.644348 -1.034779
198.64728 -86.692154 -1.256294
192.2713 -86.651398 -2.7346711
182.30051 -86.683426 -8.1181173
181.91956 -86.611961 -8.378336
181.89117 -86.639114 -8.48592
197.86821 -86.478638 -2.902293
191.9314 -86.484589 -3.507973
197.64752 -86.593933 -4.572556
180.40399 -86.447403 -5.8140922
180.23669 -86.531807 -6.0950918
183.2618 -86.541641 -6.1731758
180.13544 -86.452698 -6.670629
180.25592 -86.500443 -6.9721208
180.45866 -86.51252 -7.0696812
182.42595 -86.521774 -7.3996181
182.4881 -86.54528 -8.0423841
185.66721 -86.44075 -8.4824228
195.44901 -86.331177 0.159853
197.8632 -86.250389 -0.49914899
197.77303 -86.211823 -1.048685
198.03238 -86.35434 -1.2152489
182.76793 -86.218117 -5.3688149
182.22275 -86.311592 -5.8125749
180.09346 -86.218048 -6.675427
180.16302 -86.2836 -6.9684649
182.31015 -86.360497 -6.9470649
180.18652 -86.262482 -7.3674898
181.48991 -86.257904 -8.2589722
181.39655 -86.236137 -9.0753441
198.11858 -86.117912 0.49755999
197.72556 -86.0439 -1.264641
197.71742 -86.123436 -1.71688
180.28778 -86.168442 -5.9467502
180.26068 -86.163147 -6.0549841
181.69099 -86.071121 -7.9713368
181.70963 -86.151718 -8.077774
181.45625 -86.163147 -8.4442921
181.28442 -86.183899 -9.3008347
194.18388 -85.847183 0.63135201
197.72878 -85.892723 -1.944194
182.13141 -85.932228 -2.0884399
182.14648 -85.930336 -3.8093729
182.70285 -85.827919 -5.215055
180.23276 -85.966324 -5.945322
180.11913 -85.893234 -6.0919232
184.24246 -85.841866 -6.2535849
180.33092 -85.927208 -7.8092198
182.8067 -85.965935 -8.0808086
181.25195 -85.961159 -8.3109312
181.07791 -85.89814 -9.390461
181.43776 -85.848099 -9.4937248
193.27815 -85.995514 -9.9828491
193.97139 -85.629288 -0.069156997
194.09407 -85.761765 -0.073866002
197.79533 -85.758934 -2.0912881
182.69897 -85.74601 -5.1456919
183.90656 -85.665253 -5.936121
182.96078 -85.621857 -6.0829272
183.96521 -85.661896 -6.2757249
181.1053 -85.739258 -9.0234289
184.90683 -85.657661 -9.6582794
192.28455 -85.666534 -10.727039
182.63052 -85.58857 1.612308
186.13162 -85.550697 1.168962
194.00572 -85.486671 0.078882001
193.93135 -85.418037 -0.035951
182.37959 -85.455811 -1.526409
182.45071 -85.502335 -3.8268931
183.98022 -85.462715 -5.9667392
183.11342 -85.431046 -6.0889592
183.92609 -85.413818 -6.06989
184.04297 -85.44722 -6.2899938
183.05501 -85.466743 -8.164032
191.90144 -85.456947 -10.656856
193.75449 -85.325516 0.52430898
193.7963 -85.325645 0.124229
194.11284 -85.29248 -0.22223599
193.6956 -85.292191 -2.0670919
183.73611 -85.396988 -6.573606
184.06537 -85.39151 -6.4915361
180.80927 -85.363564 -9.0156193
192.05966 -85.368225 -10.727329
193.84085 -85.031784 0.54448903
193.93442 -85.013779 -0.075902
193.35567 -85.064423 -1.346434
194.92047 -85.190834 -5.2125502
183.89491 -85.163116 -5.98386
184.07962 -85.019226 -6.1562948
191.8306 -85.010712 -10.744509
193.90723 -84.981857 0.080095001
194.15033 -84.936234 -0.24568
181.8688 -84.863007 -5.7563891
186.06836 -84.898094 -5.69173
181.46082 -84.924057 -5.874702
182.5759 -84.896057 -5.929131
181.44971 -84.981499 -6.1101608
181.64877 -84.864571 -6.0934272
182.71078 -84.979187 -6.1590948
183.93073 -84.867943 -6.0288501
180.72528 -84.913918 -6.760397
180.98621 -84.925209 -6.7474551
180.7836 -84.855133 -6.8808022
181.04344 -84.965271 -6.9101262
183.67511 -84.992554 -7.4406209
194.04875 -84.746445 1.224305
193.8049 -84.734352 0.043795001
181.68404 -84.698051 -5.793335
181.3418 -84.734711 -6.0990739
191.64264 -84.619095 -6.3707662
180.79611 -84.789864 -6.8411322
180.89386 -84.603317 -6.8811021
191.61096 -84.629654 -10.710848
194.23941 -84.5354 -0.082993999
192.57079 -84.457321 -2.822906
193.23581 -84.452003 -3.2875869
182.26901 -84.554138 -4.769475
182.24651 -84.539505 -4.8554759
182.45721 -84.456787 -4.8930378
181.8383 -84.584946 -5.2347121
182.26031 -84.54525 -5.3720288
182.55603 -84.47657 -5.4350748
182.37473 -84.543694 -5.6200662
181.39058 -84.523155 -5.853899
182.03296 -84.455322 -6.0752959
187.814 -84.557915 -6.3979969
181.54057 -84.547249 -6.6759052
182.45584 -84.476761 -6.6424379
193.31699 -84.348587 -1.413939
193.15451 -84.282104 -2.0829141
192.57004 -84.339157 -2.6665239
192.35487 -84.247704 -3.125967
182.49556 -84.30204 -4.7992449
181.2775 -84.340492 -5.733633
181.92032 -84.348572 -6.0976672
182.48151 -84.245193 -6.672575
181.44585 -84.205048 -6.9793429
186.20102 -84.239258 -7.1298542
181.2049 -84.325012 -7.5610032
196.57912 -84.056908 1.319335
180.7495 -84.095261 -7.9820418
183.67889 -84.103859 -8.0059156
199.55148 -83.941193 -4.5773568
182.9841 -83.965347 -7.3396239
192.14365 -83.817215 -13.163855
196.56631 -83.67778 1.308706
183.05228 -83.641701 0.86090702
183.05257 -83.603363 -0.36779499
198.64223 -83.632446 -1.5985841
193.68823 -83.640656 -1.715161
183.20929 -83.651367 -2.770571
194.80115 -83.725044 -2.907685
197.91614 -83.662247 -5.989367
183.11844 -83.606934 -6.3800998
182.92722 -83.402802 0.903907
183.01398 -83.480316 0.74001998
183.03603 -83.409271 0.16147099
183.04416 -83.461792 -0.48098999
183.04839 -83.417168 -1.515841
183.11911 -83.454712 -1.695467
183.13358 -83.514877 -2.8506739
183.08998 -83.40406 -4.930171
183.09431 -83.425369 -5.2876868
184.87756 -83.446259 -5.3254681
183.02229 -83.414314 -5.9460011
182.99393 -83.408371 -6.064446
185.03377 -83.436874 -6.097425
183.09657 -83.416336 -6.5438371
184.80655 -83.52623 -6.5050912
186.88962 -83.312927 0.97410601
186.86479 -83.225426 0.339389
183.02893 -83.371376 -0.34200701
183.06195 -83.370125 -2.657212
194.12189 -83.250793 -3.3125319
183.08647 -83.388222 -3.788677
183.28796 -83.237038 -3.624011
183.03702 -83.384644 -4.736753
196.11345 -83.293594 -4.6604052
184.94859 -83.238533 -5.0431652
182.42526 -83.230431 -7.8068328
184.10657 -83.271744 -10.916178
186.7561 -83.047501 0.56495798
186.84543 -83.010353 0.247861
186.78973 -83.021896 -0.98208803
186.85301 -83.00206 -1.021512
186.85179 -83.052658 -1.735821
186.72304 -83.028595 -2.4822919
186.88739 -83.114189 -2.9121139
186.92482 -83.09333 -4.091485
184.64766 -83.040924 -5.0680299
184.91451 -83.132339 -5.0238109
193.49103 -83.026253 -5.9462352
182.14694 -83.038223 -6.2975831
186.95746 -83.001801 -6.3011422
185.3152 -83.045364 -7.5702848
182.38176 -83.017281 -7.7843041
182.00858 -83.178329 -10.293082
184.04425 -83.159477 -10.799907
183.52376 -83.02887 -10.98575
183.60573 -83.157303 -10.840685
184.20825 -83.148132 -11.007691
186.75531 -82.927582 0.92055398
186.84366 -82.975548 0.48863801
186.78931 -82.913307 -0.209949
186.85194 -82.985466 -0.27874699
186.87585 -82.958359 -0.630615
186.82739 -82.978241 -1.500787
193.94569 -82.927246 -3.38395
186.91766 -82.991203 -3.9459181
185.42932 -82.886696 -5.0455542
186.90262 -82.970428 -5.1656761
184.75439 -82.98912 -5.3114152
186.89883 -82.928337 -5.429595
186.94714 -82.932983 -5.766109
184.45772 -82.896271 -6.111999
181.6774 -82.908737 -6.223639
182.00458 -82.920418 -6.4080992
185.60138 -82.965454 -7.2351732
194.20355 -82.716827 -2.2269721
186.854 -82.778656 -2.756135
185.34607 -82.663963 -5.3051262
193.48633 -82.668602 -5.6884422
181.65279 -82.601669 -5.8870201
181.66748 -82.67717 -6.1258988
184.52817 -82.799072 -6.089282
199.18781 -82.607742 -6.1415892
181.90295 -82.614304 -7.0771661
182.18753 -82.661774 -7.3212242
187.1546 -82.688583 -7.9277658
186.82022 -82.618286 -10.1538
186.15439 -82.742126 -11.444473
189.8855 -82.605278 -12.662998
180.90172 -82.508682 0.87142402
181.44733 -82.531197 0.90078801
182.00882 -82.518448 0.93015802
190.20456 -82.432571 0.180887
190.17532 -82.42765 -0.145495
190.18011 -82.438034 -1.071897
190.24747 -82.430054 -1.488306
190.21727 -82.497375 -2.5328591
190.28622 -82.44455 -4.1892109
190.25656 -82.46785 -4.5363331
181.89966 -82.581444 -5.1391611
188.69124 -82.581734 -5.9225259
191.91602 -82.452682 -5.8258319
181.73669 -82.589684 -6.7045989
182.96046 -82.425102 -6.7592211
183.14551 -82.568283 -7.4351578
183.95583 -82.562775 -7.5085301
180.49271 -82.567154 -8.9138851
180.039 -82.528503 -9.2866678
189.77164 -82.518631 -13.022417
182.68826 -82.220367 1.0938669
181.72916 -82.279205 0.96651697
183.47466 -82.211578 0.98198903
190.12573 -82.265366 0.97635299
190.1292 -82.309914 0.49191999
190.18054 -82.270653 0.32224599
190.1926 -82.369934 -0.201147
190.17821 -82.288727 -1.052567
190.1738 -82.297287 -2.652844
194.46295 -82.352661 -2.9760661
181.71085 -82.252182 -4.970222
190.28017 -82.279243 -4.8441539
190.32722 -82.308693 -5.4253058
181.53566 -82.243149 -5.703908
183.20103 -82.273254 -5.640748
191.89191 -82.289337 -5.7370138
181.68826 -82.32505 -6.0703368
182.10504 -82.314957 -6.5591488
185.61703 -82.365936 -12.096501
188.65546 -82.336548 -13.338175
189.30164 -82.33625 -14.032951
183.86935 -82.191673 1.057598
184.96327 -82.029922 1.0371979
183.29884 -82.135124 -4.9458909
183.17426 -82.14006 -5.0423279
181.74124 -82.19368 -5.4075751
192.05351 -82.05394 -5.4967971
188.56577 -82.166794 -5.8592868
192.02045 -82.154015 -6.2519441
182.63809 -82.180084 -8.6914444
180.45619 -82.154472 -8.8946028
187.00101 -82.135124 -10.905399
189.55209 -82.148193 -12.585329
190.52905 -82.185776 -12.765401
189.32234 -82.08461 -13.394417
186.99748 -81.863914 1.046002
197.55527 -81.860062 0.93477601
197.58286 -81.805969 0.58725899
183.31656 -81.861282 -5.0407948
188.9872 -81.970871 -9.6208305
189.92429 -81.95565 -13.131362
189.43892 -81.913673 -13.494635
193.88541 -81.646965 1.2410001
187.33994 -81.707306 1.052024
193.78438 -81.627457 0.85617799
193.88876 -81.625435 0.51436698
197.45801 -81.668472 0.238555
193.96509 -81.617081 -1.0125639
194.06972 -81.603867 -2.6952281
187.48329 -81.73896 -8.5699444
192.50009 -81.632538 -8.5437126
184.64018 -81.748795 -8.8802567
184.94678 -81.656708 -8.9555607
186.79077 -81.601723 -10.543282
186.85669 -81.669174 -10.689775
190.49478 -81.666901 -12.253687
197.71124 -81.599983 1.1238
193.8891 -81.530548 0.448367
193.93599 -81.523361 -0.12846801
193.96417 -81.43222 -1.102941
193.95505 -81.459808 -1.4052171
193.93344 -81.420319 -2.2332139
194.04584 -81.514816 -2.633327
193.96642 -81.432938 -2.969332
183.47348 -81.595558 -4.9532499
183.31572 -81.559708 -5.287004
196.17896 -81.539337 -6.5986991
188.97798 -81.550911 -7.3624678
188.74573 -81.476685 -7.5553508
186.2955 -81.448349 -7.7883501
180.48923 -81.46637 -8.7086029
180.32806 -81.446159 -9.4674063
189.1232 -81.524635 -9.9981956
190.52631 -81.422829 -12.159714
194.02522 -81.391434 -1.270813
193.96585 -81.389931 -2.6408269
194.06674 -81.368332 -2.9971189
192.48412 -81.255447 -5.4439631
186.51054 -81.277084 -5.7372651
186.32755 -81.289955 -6.3072662
183.96677 -81.32061 -6.6174812
184.09634 -81.385941 -6.904655
186.3432 -81.318497 -7.2494922
186.59052 -81.205521 -7.295969
180.35324 -81.255264 -8.6583672
190.02615 -81.228729 -10.161599
186.81561 -81.335518 -10.656359
186.71326 -81.012817 -5.5293851
192.53767 -81.0093 -5.4797502
184.45409 -81.090637 -6.3473339
186.39713 -81.17421 -6.3977089
186.28207 -81.175507 -6.5527959
194.63345 -81.096527 -7.144577
184.34109 -81.046295 -7.789731
181.96565 -81.048126 -7.8392868
180.20915 -81.072426 -8.815589
186.65952 -80.943642 -6.335577
186.59309 -80.999672 -6.9243431
184.33179 -80.918777 -7.513155
184.2926 -80.901337 -7.7412658
187.81393 -80.91394 -7.8814211
182.16895 -80.908714 -8.5012341
180.28558 -80.894142 -8.8484821
193.89542 -80.905762 -9.406004
186.70453 -80.852531 -10.59591
190.24162 -80.98381 -12.597973
192.90788 -80.752838 -0.96039498
192.87354 -80.659103 -1.430715
192.89346 -80.749115 -1.727998
192.86397 -80.68779 -2.5190101
195.09608 -80.644226 -5.04984
192.37915 -80.638382 -5.7491531
186.66423 -80.740326 -6.368495
193.05779 -80.798531 -6.5441332
193.31796 -80.777832 -6.430048
187.96298 -80.618492 -7.905849
188.29883 -80.693573 -8.473217
180.58923 -80.653763 -9.2115164
193.88174 -80.665756 -9.6741066
192.37479 -80.574219 -5.5415411
180.20529 -80.498589 -8.5640392
189.72717 -80.481186 -8.5858994
189.56683 -80.527802 -8.6042624
194.26945 -80.571167 -9.097271
197.32242 -80.208099 0.54840499
188.64038 -80.383583 -7.262867
180.21365 -80.231186 -8.2886734
180.55331 -80.269897 -8.842206
189.83157 -80.327621 -8.9505978
190.18425 -80.341919 -9.712719
190.40613 -80.377068 -12.151324
197.29968 -80.168404 -0.096098997
197.38503 -80.090546 -0.60453397
197.32669 -80.12001 -1.092299
197.38321 -80.194809 -1.443669
197.36578 -80.169083 -1.684855
197.39989 -80.113449 -2.2661791
197.35754 -80.161011 -2.6060309
197.52209 -80.128853 -4.6607242
195.26822 -80.150879 -5.3564219
193.0433 -80.062614 -5.9515772
195.25711 -80.020157 -5.8017931
189.82901 -80.132133 -7.157392
191.85106 -80.084991 -7.760685
189.72084 -80.170311 -8.438405
182.73373 -99.87236 0.449981
182.86055 -99.825523 0.362331
183.52744 -99.804893 0.25142801
183.82837 -99.831093 0.123862
186.4442 -99.834129 -0.25711399
183.42717 -99.855003 -1.8550169
182.26212 -99.996536 -3.305675
186.12399 -99.991394 -9.1066275
185.83554 -99.770538 0.214632
186.12762 -99.699547 0.175188
183.82837 -99.761566 -0.066526003
184.15146 -99.654221 -0.13486101
186.37422 -99.632309 -0.13656899
186.42688 -99.690903 -0.70321101
184.47447 -99.66716 -0.96929002
184.4534 -99.692764 -1.021958
184.03496 -99.726944 -1.249781
183.65787 -99.669197 -1.731228
185.91251 -99.756256 -1.915174
188.46512 -99.777725 -2.910058
181.02365 -99.682251 -10.653278
183.90317 -99.464622 0.199751
186.26804 -99.451874 0.084119998
183.90288 -99.536835 -0.20755
184.58325 -99.504982 -0.731839
186.24007 -99.411903 -0.73446703
184.50797 -99.479523 -0.903561
186.41479 -99.530373 -1.008346
183.90511 -99.539024 -1.335374
182.21884 -99.537735 -4.336514
184.85603 -99.507835 -8.9699965
183.43304 -99.342979 0.43046501
186.13695 -99.333305 -0.098281004
184.10625 -99.345345 -0.206365
185.12785 -99.225845 -0.396694
184.89381 -99.315536 -0.59459603
186.27956 -99.333061 -0.966564
186.30768 -99.279625 -1.3367521
184.12045 -99.259186 -4.498518
182.21788 -99.37558 -7.499063
186.29309 -99.161758 -1.048637
184.07144 -99.112366 -4.6029038
183.9924 -99.141022 -8.7735119
183.57817 -98.876205 0.32356399
184.5114 -98.91169 0.19068401
185.88727 -98.97998 -0.18183801
185.57468 -98.844933 -0.219789
185.4695 -98.963898 -0.74485898
185.70604 -98.895935 -1.002239
186.25462 -98.945267 -1.287672
187.00082 -98.932297 -1.447649
187.34662 -98.975838 -1.813688
183.98349 -98.979004 -4.903101
183.6786 -98.859848 -5.8932219
183.37576 -98.621765 0.494223
183.75002 -98.717278 0.41392899
184.63831 -98.62014 0.29106399
185.05676 -98.71109 0.14548101
184.78696 -98.613556 -0.71724498
185.34792 -98.746437 -0.76479602
185.01634 -98.632401 -0.99683899
185.35458 -98.719193 -1.007488
187.1615 -98.626068 -1.2755899
189.48938 -98.768723 -5.7562461
183.68045 -98.607635 -5.8195682
189.76065 -98.649033 -6.5146132
184.89661 -98.581787 -0.73274601
188.14613 -98.426544 -2.022552
182.17371 -98.537292 -6.9623508
181.8797 -98.458694 -7.387073
190.72661 -98.435265 -7.744195
181.7298 -98.537346 -7.8306842
184.94577 -98.364273 -4.4374962
181.50601 -98.214844 -7.6445022
181.09673 -98.282013 -8.5696259
181.75836 -98.360954 -8.5246162
191.15445 -98.094574 0.175249
192.68311 -98.127121 0.145496
184.55968 -98.196358 -1.009968
184.37883 -98.03521 -1.293321
184.60506 -98.048767 -4.5595708
180.22975 -98.068878 -11.434954
180.37054 -97.895859 -5.2965932
188.86096 -97.928314 -7.0595832
180.89816 -97.990486 -8.3438683
180.71272 -97.985764 -8.4235373
182.13893 -97.617508 0.62342501
184.31329 -97.739853 0.45310599
184.69843 -97.711464 0.30344
185.28659 -97.70491 0.287056
194.19968 -97.656662 0.213248
184.15134 -97.612617 -1.120569
187.16582 -97.701469 -3.8890769
187.23447 -97.744614 -3.977613
187.21384 -97.709412 -9.0724936
180.70181 -97.585747 0.593633
194.25989 -97.528641 0.48904699
184.63719 -97.526283 0.31591401
184.94855 -97.404861 0.31389999
185.33713 -97.483452 0.33202901
194.18405 -97.481354 0.234686
184.05389 -97.546104 -1.306399
187.14207 -97.552315 -3.979043
185.01782 -97.487625 -4.481668
196.87946 -97.554893 -6.5233002
196.74017 -97.448006 -6.8008618
181.85449 -97.434647 -7.926198
190.49269 -97.560524 -9.7837887
183.96707 -97.545204 -9.817338
184.92056 -97.234634 0.44805101
185.36409 -97.394226 -0.99808699
183.93011 -97.35434 -1.290837
181.88651 -97.263237 -8.6147461
187.93991 -97.346359 -8.7056141
187.9341 -97.273659 -8.9092369
182.30371 -97.190918 0.62181997
185.07559 -97.025101 0.45100501
185.22464 -97.023636 0.32533899
183.72264 -97.069992 -1.743138
196.78072 -97.06012 -6.170454
182.07368 -97.145447 -8.9767284
187.95514 -97.134064 -9.0330191
181.56097 -97.041489 -10.208884
181.5759 -97.003281 -10.506037
181.99527 -96.961075 0.69752699
183.52618 -96.931824 -1.414122
184.04733 -96.896896 -1.558104
185.07103 -96.922592 -4.3252578
181.89267 -96.896149 -4.892715
180.48288 -96.748627 0.64295298
196.70187 -96.648438 -7.2799048
181.41724 -96.675194 -8.5148745
184.87178 -96.752602 -9.5202446
180.14716 -96.4496 0.64661503
182.05981 -96.506577 0.69134903
181.4859 -96.581963 -4.9351339
188.91568 -96.581451 -9.56145
182.9584 -96.376587 -2.401526
186.20457 -96.238792 -4.1033511
181.52655 -96.270447 -5.0714931
183.99136 -96.384056 -6.3311
197.6001 -96.106277 0.218858
196.59775 -96.169426 -7.24297
181.62917 -95.876953 0.67895103
182.76634 -95.842583 0.71368003
185.8291 -95.831055 0.57997602
185.61217 -95.892441 -1.789606
185.33372 -95.986237 -3.792526
184.14613 -95.918785 -6.22049
189.50302 -95.806107 -7.205584
186.65541 -95.736481 -3.134501
184.1048 -95.746353 -6.4897709
189.13013 -95.742767 -7.7276359
181.28854 -95.475342 0.69213098
182.20187 -95.448303 0.69721699
185.74255 -95.522118 -1.5830491
185.58286 -95.503723 -1.8255889
182.34192 -95.457008 -2.291044
194.185 -95.432449 -7.0019932
180.41893 -95.475914 -9.1483984
185.73004 -95.374802 -2.09484
184.21954 -95.315872 -6.6687489
184.29129 -95.285332 -6.8375711
181.41664 -95.190613 0.69668502
180.60701 -95.007736 -9.6838913
186.0193 -94.929466 -1.837913
185.93381 -94.924347 -2.1989169
182.44368 -94.842163 -2.88748
180.15077 -94.880432 -8.1251516
186.77907 -94.880096 -9.9117422
182.63373 -94.998871 -10.096252
180.05789 -94.661194 -0.052536
185.96449 -94.606133 -2.1823771
180.9201 -94.602844 -8.9081316
180.01547 -94.527298 0.14906999
186.09482 -94.56356 -2.4877441
180.55789 -94.531319 -8.9788675
187.39386 -94.42688 -9.16751
182.1852 -94.421585 -9.8510361
187.51442 -94.421555 -10.12409
183.63892 -94.367851 -7.5665698
180.26144 -94.257812 -8.5973682
180.88637 -94.218918 -9.3097944
187.52193 -94.33197 -10.062619
187.80203 -94.397736 -10.099775
180.1803 -94.081573 0.55248499
186.13005 -94.111214 -2.2386971
184.51511 -94.000534 -7.9986711
184.72916 -94.10022 -9.3187113
183.49762 -94.176064 -10.293032
184.39394 -94.041084 -10.203269
185.99756 -93.957298 -2.531702
199.95306 -93.96846 -5.8899488
180.91228 -93.624123 -4.1602101
181.61407 -93.780586 -6.0644259
182.14087 -93.649796 -9.1676502
182.21909 -93.467834 0.727786
184.21472 -93.540436 -4.2695451
199.617 -93.502045 -5.885869
181.55769 -93.578056 -6.9291768
180.4406 -93.408646 -8.2041874
182.61542 -93.546265 -9.2107782
195.74843 -93.36895 -0.891747
182.1044 -93.308929 -3.7398541
198.80078 -93.260353 -5.4234848
182.45041 -93.222733 -8.0254049
180.96295 -93.381668 -8.5761786
181.37473 -93.336151 -8.8674641
186.02501 -93.371017 -9.0696058
181.64938 -93.03949 -1.397727
182.0202 -93.130142 -3.945868
180.22574 -93.137566 -4.241282
197.25488 -93.012016 -7.5014238
196.03204 -92.881393 0.809273
195.95943 -92.941406 0.53978699
180.59589 -92.8629 -4.2568049
181.353 -92.905701 -4.3950572
180.0477 -92.841141 -7.2863159
181.23128 -92.806366 -8.4127007
184.29715 -92.971893 -10.34409
180.06042 -92.639214 -6.3657751
183.5291 -92.549644 0.76650298
197.51114 -92.483376 0.035433002
196.32762 -92.554977 -0.54760402
194.18347 -92.453545 -0.64439499
180.50549 -92.248352 0.76362401
192.95761 -92.24971 -0.67842698
194.34424 -92.256981 -5.6872149
181.62215 -92.240074 -6.9210968
180.48817 -92.309929 -7.102746
180.56116 -92.201965 -8.1204929
195.075 -92.12841 -5.0686769
180.18546 -92.025742 -5.3063822
180.39384 -92.069588 -8.0899925
180.94708 -92.197174 -8.2562265
182.16508 -92.185577 -8.7096844
185.04791 -92.167969 -9.9008274
196.95032 -91.823479 0.84556198
180.08456 -91.918076 -7.087184
193.41415 -91.69915 -0.138927
195.80212 -91.630585 -0.27262899
193.3811 -91.760178 -1.639812
181.09442 -91.748573 -8.2190752
184.56207 -91.785561 -9.516037
187.92288 -91.436249 0.889386
193.72986 -91.416443 -0.59209901
181.10339 -91.438423 -6.6710401
180.87505 -91.440742 -7.9375558
190.22246 -91.595551 -8.5442467
193.79102 -91.228882 0.581734
193.81537 -91.268143 0.23724601
193.72664 -91.379539 -0.122868
196.12025 -91.398758 -0.032853
195.91844 -91.241737 -0.85351402
180.75081 -91.348267 -7.9617791
184.35921 -91.319374 -8.0956078
181.53728 -91.350395 -8.3197422
181.67371 -91.356659 -8.3729382
194.03156 -91.155785 -0.66362399
193.04262 -91.096558 -8.2638483
183.5722 -91.046371 -9.3227015
186.85529 -91.167778 -10.031515
184.10187 -90.855743 0.813366
191.21851 -90.873474 -0.019089
192.77878 -90.89624 -1.8213871
185.37 -90.933411 -4.1943269
182.87547 -90.846855 -6.638618
182.89577 -90.898094 -6.814671
180.20677 -90.818108 -7.0172729
181.36551 -90.838249 -7.3469782
180.58084 -90.914703 -8.0239077
181.95728 -90.973679 -8.6430035
181.17419 -90.623405 0.81099898
191.31317 -90.60659 0.49215701
191.33759 -90.741074 0.246884
192.73074 -90.691635 -0.86447102
193.8098 -90.691772 -2.1350491
180.51569 -90.794975 -5.6277008
180.95958 -90.663696 -8.3155899
185.21777 -90.418678 -4.4021502
185.88293 -90.452171 -5.206954
194.51584 -90.445778 -7.394485
183.77838 -90.528488 -9.1983891
196.28888 -90.330635 -0.779773
180.93956 -90.215652 -6.8258772
193.07153 -90.222977 -7.280839
180.54451 -90.067551 0.85900098
192.93593 -90.142532 -1.110181
198.14969 -90.130867 -6.2274709
194.85196 -90.100586 -7.301898
180.75793 -90.194809 -7.4440279
181.32135 -90.069687 -7.6664972
188.34058 -90.093201 -8.3466444
185.8035 -89.964546 -3.731343
199.3862 -89.975937 -4.7098889
180.13066 -89.814941 -7.4826908
193.79062 -89.863251 -7.5381169
180.94336 -89.806183 -7.6174622
180.93704 -89.947052 -8.2830181
181.841 -89.90094 -8.5023842
184.7532 -89.739449 -4.7853098
185.58797 -89.60479 -7.5843258
197.26833 -89.423416 0.84593999
192.75668 -89.404449 -5.6965699
183.9608 -89.257332 -6.220417
180.17294 -89.292526 -6.6160212
182.90823 -89.376175 -8.5692167
192.332 -89.018852 -0.02712
181.59315 -89.196648 -3.3968229
180.19339 -89.122757 -6.5035272
194.52505 -89.00489 -7.1047969
182.09975 -89.186668 -8.1856155
192.75081 -88.996956 0.46427
182.33127 -88.991867 0.37323099
180.09827 -88.859207 -5.870604
185.09239 -88.946014 -6.3101048
183.7908 -88.868637 -6.978909
180.23807 -88.999046 -7.2957921
181.09756 -88.899498 -7.4984651
181.73404 -88.841454 -7.8217001
192.7948 -88.679909 0.150791
181.34897 -88.682129 -7.370924
183.38965 -88.670135 -8.3271027
196.43013 -88.728859 -11.86057
181.59735 -88.596367 0.86412001
194.2894 -88.563202 -5.9945579
183.08545 -88.494118 -6.7570648
192.42195 -88.5709 -8.0634108
193.11957 -88.24044 0.49569499
193.21732 -88.267563 0.57987398
192.57283 -88.333694 0.37768799
192.93924 -88.23632 -0.949772
195.17015 -88.320396 -5.2997379
184.87199 -88.277817 -6.2873182
181.82423 -88.154343 0.88784999
184.28281 -88.087296 -6.2542348
181.55968 -88.185692 -7.474031
181.69173 -88.189659 -7.589613
187.12422 -88.190689 -8.0826874
182.64055 -87.908081 0.91370201
181.68271 -87.867111 -7.534306
193.4059 -87.655746 -0.036653001
191.2101 -87.645508 -5.0144429
182.39441 -87.782631 -8.1181049
180.67912 -87.510735 -3.6624589
194.12296 -87.445763 -3.941256
183.77121 -87.487488 -6.3723402
185.16708 -87.428223 -8.9066181
193.82483 -87.256279 -5.7889109
184.04532 -87.391373 -6.906075
182.55804 -87.21209 -8.0344267
185.39056 -87.361916 -8.9370909
195.20105 -87.039062 0.55515999
180.321 -87.047821 -6.4326272
183.0587 -86.935425 1.079519
195.35413 -86.938492 0.117359
198.61194 -86.951546 -2.0797501
182.14563 -86.978371 -3.6177239
181.41234 -86.908112 -7.039001
198.40881 -86.739861 -0.74416
197.13898 -86.746117 -2.84956
182.72586 -86.727989 -5.4826288
194.19647 -86.560509 -3.6327009
193.67349 -86.521118 -5.5490332
180.21268 -86.467346 -6.8631272
181.89693 -86.539749 -8.2594032
182.55423 -86.569458 -8.203495
197.84114 -86.272461 -0.55436599
191.93121 -86.214111 -3.319488
192.81538 -86.335716 -4.0192862
195.6857 -86.294701 -5.783268
181.69106 -86.274216 -8.1898794
181.43684 -86.239319 -8.2718925
195.75732 -86.14489 0.099044003
194.44577 -86.092171 -3.943965
193.44409 -86.103439 -5.4357519
194.01782 -86.10759 -5.9514942
180.2059 -86.165207 -6.1173692
181.74771 -86.16481 -7.9791651
182.80197 -86.119957 -8.1455793
180.17834 -85.833023 1.2832381
198.36726 -85.960144 -0.97963101
194.60403 -85.942154 -4.0427299
181.45892 -85.985687 -8.1914072
181.05811 -85.825211 -9.0439043
187.43085 -85.731613 -8.9161301
184.90495 -85.710548 -9.7059803
192.25432 -85.693726 -10.655863
193.65779 -85.405052 1.0733711
194.06172 -85.450836 -0.14303499
183.1369 -85.465668 -5.927217
183.21745 -85.470985 -5.9084721
180.85727 -85.444603 -9.4605207
184.51572 -85.547745 -10.421854
193.63043 -85.319061 1.220906
193.56866 -85.235443 -2.0452631
184.02982 -85.341705 -6.2535191
180.7074 -85.300743 -9.0639448
184.75674 -85.318207 -9.5950136
181.40154 -85.272064 -11.175486
184.37869 -85.175972 1.694714
182.84698 -85.129272 1.504112
193.12605 -85.133118 -1.681267
193.74435 -85.00605 -2.093029
195.33911 -85.149338 -4.3056841
183.92201 -85.109222 -5.956738
187.07324 -85.136711 -8.9258442
194.12558 -84.971909 -0.260775
183.75693 -84.844154 -2.8694091
182.15811 -84.810127 -5.0913939
182.70819 -84.87114 -5.4947329
181.49823 -84.896576 -5.911581
195.38969 -84.970779 -5.8488431
181.47966 -84.858154 -6.1576238
181.65564 -84.862648 -6.0958991
180.85609 -84.885345 -6.6228461
182.70491 -84.96534 -6.9704309
180.67778 -84.903938 -9.1566458
188.74719 -84.935562 -11.102731
181.78426 -84.63707 -5.4517632
182.57315 -84.616623 -5.5150242
182.3259 -84.644852 -5.7139311
182.63181 -84.68998 -5.8592138
182.52408 -84.739914 -6.1398511
181.0256 -84.604248 -6.566206
186.84204 -84.639305 -8.103529
180.55725 -84.707565 -9.1689405
191.53522 -84.670593 -10.875579
188.31451 -84.695847 -11.485729
193.72717 -84.404686 -1.314299
193.28751 -84.519714 -2.3870809
193.9174 -84.576233 -3.445889
181.60547 -84.539162 -5.147891
187.86589 -84.498268 -5.442205
181.44067 -84.539566 -5.799367
181.31953 -84.592812 -5.9499698
193.3042 -84.46347 -7.08992
185.14049 -84.48111 -8.5046797
180.70132 -84.458427 -11.160871
193.76566 -84.238365 -1.121364
193.55612 -84.335617 -1.760259
192.4841 -84.388687 -2.816817
182.04114 -84.349152 -4.9852862
182.27393 -84.278931 -5.8016891
182.13412 -84.312111 -6.1019349
188.18439 -84.20739 -6.606421
191.40776 -84.26516 -10.886078
189.39282 -84.354561 -11.593589
181.78329 -84.007187 1.26043
182.10941 -84.024811 1.292542
181.55545 -84.00795 1.1862
192.92032 -84.009285 -2.5334561
195.68491 -84.071167 -5.2392402
181.55023 -84.132553 -6.3771329
188.30879 -84.040657 -6.3425951
181.38924 -84.10099 -6.971704
182.47137 -84.077492 -6.9141092
182.27573 -83.98542 1.2318749
183.80113 -83.81842 1.340039
180.62059 -83.838226 1.15474
196.57358 -83.984436 -5.8755579
181.46915 -83.956917 -6.645247
183.12296 -83.901756 -6.8565092
185.10861 -83.85421 -6.9403672
182.50531 -83.864281 -7.3736129
180.82504 -83.89045 -8.1440802
192.97141 -83.908615 -10.438007
183.18022 -83.609283 -3.913595
184.63644 -83.750626 -6.2707391
190.16441 -83.688683 -9.9915295
192.25964 -83.777473 -13.147303
193.12817 -83.75676 -13.213065
180.56836 -83.470909 1.156925
185.5675 -83.531479 1.1432379
182.97029 -83.471245 0.90537798
183.02199 -83.494621 0.52027601
182.78586 -83.466446 0.27572301
183.0379 -83.486137 0.202702
182.9931 -83.423111 -0.29105401
183.06432 -83.512688 -0.64869601
183.07527 -83.50425 -0.97252703
193.79256 -83.5812 -1.713199
183.04607 -83.415977 -3.7918279
183.07361 -83.44883 -4.5178208
183.26733 -83.569344 -4.4810162
184.54582 -83.463379 -6.6489701
190.17285 -83.454643 -10.106164
183.66982 -83.518051 -10.758169
183.90994 -83.526993 -11.331165
181.90814 -83.39222 1.207203
186.95485 -83.219711 0.28290001
183.20409 -83.335381 0.14450601
198.50401 -83.202957 -4.0096388
182.94531 -83.312653 -5.7422609
198.56854 -83.200584 -6.1608729
183.12445 -83.287064 -8.761816
180.05362 -83.337128 -9.476882
181.03906 -83.280952 -10.084536
187.18921 -83.315674 -10.982834
186.88388 -83.261276 -11.437653
185.32712 -83.249695 -12.136051
192.17773 -83.377525 -13.113796
196.28224 -83.007294 1.408917
186.84729 -83.122734 0.66261798
186.8539 -83.084846 0.328242
186.82724 -83.039825 -0.25845
186.87326 -83.103668 -1.065899
186.81311 -83.039597 -1.461351
186.85992 -83.042007 -1.73781
186.86798 -83.020363 -3.890465
186.89035 -83.068954 -4.1244688
198.47833 -83.009705 -4.3393221
184.68036 -83.022728 -5.087656
183.26909 -83.043716 -7.1449552
182.64619 -83.043816 -8.0024576
181.9386 -83.179871 -9.2418413
183.50848 -83.129463 -10.755558
191.76331 -83.117905 -13.093127
186.72163 -82.97921 0.96445298
186.82388 -82.956459 -2.3347631
193.7417 -82.928192 -4.7085471
193.68036 -82.858658 -5.007422
193.81783 -82.901764 -5.7149949
184.62769 -82.996941 -6.117837
182.08249 -82.952286 -6.2949109
182.12444 -82.947899 -6.6325188
186.77554 -82.854248 -6.8869529
188.17757 -82.908737 -7.9107862
180.42641 -82.826569 -8.8495798
191.4274 -82.88446 -13.061039
187.02461 -82.750809 -2.332341
194.44626 -82.637749 -3.3990591
181.74547 -82.692108 -5.4772539
193.68517 -82.764542 -5.5574169
188.73325 -82.653145 -6.1693811
187.12378 -82.698769 -7.2693958
180.36659 -82.65416 -8.7345715
186.19479 -82.715813 -11.427752
180.91403 -82.510391 1.007758
190.17361 -82.49836 0.91759902
190.18362 -82.437241 0.493256
190.21844 -82.472847 0.32750201
190.21707 -82.500404 -0.43988499
190.26956 -82.470566 -1.041431
190.20663 -82.427361 -1.46174
185.35211 -82.549507 -5.0645852
190.27811 -82.435974 -5.3706818
190.4024 -82.589279 -5.6237831
182.07906 -82.533501 -7.1438332
183.72339 -82.422775 -8.062067
180.24805 -82.516945 -8.3278875
185.69766 -82.569351 -11.845983
186.08783 -82.431 -12.012298
196.70647 -82.349678 1.4914989
183.85349 -82.252975 1.00608
180.25723 -82.301163 0.97441399
180.95363 -82.276749 0.96865499
183.0184 -82.282204 0.93461001
190.07263 -82.246872 0.90764302
190.11749 -82.249077 0.53336102
190.16667 -82.289703 0.34899399
190.16 -82.349609 -0.17841101
190.12558 -82.279938 -0.50534701
181.68063 -82.272102 -6.1341929
183.61612 -82.289078 -6.2632031
185.2756 -82.257919 -6.2942762
182.9892 -82.339218 -6.8613081
190.28629 -82.293953 -6.893877
183.55923 -82.291138 -7.482039
182.59286 -82.236847 -8.567091
190.51399 -82.27803 -10.483369
185.55151 -82.342552 -12.224577
189.06143 -82.325798 -14.115166
183.74324 -82.14357 1.215862
184.19519 -82.123734 1.023566
184.52994 -82.173973 0.99326497
185.45544 -82.09491 0.92948103
181.68304 -82.196381 -5.3725529
183.07358 -82.052902 -5.4569192
188.84799 -82.063858 -6.0185032
183.66327 -82.144958 -7.476676
188.9196 -82.068024 -10.02841
185.76706 -81.918579 1.04804
186.90997 -81.883583 1.081809
183.90057 -81.947098 -7.664165
189.02357 -81.85627 -9.5161533
189.76427 -81.931061 -13.290371
188.62865 -81.985153 -13.545777
187.37231 -81.75071 1.100793
188.17279 -81.700775 1.099655
193.83408 -81.696312 0.92651999
197.53932 -81.751381 0.89108098
194.0406 -81.624748 -0.50721699
196.09871 -81.626007 -5.595634
196.2713 -81.718307 -5.8236918
183.851 -81.610519 -6.1990991
192.19966 -81.78051 -6.8698459
186.39595 -81.625168 -8.2558088
182.29492 -81.780624 -8.636982
189.23047 -81.779564 -9.5819244
187.33243 -81.668243 -9.9857082
193.84471 -81.488663 0.957932
193.8959 -81.523209 0.58911997
193.90378 -81.470161 0.163214
193.88077 -81.477448 -0.218509
193.9469 -81.476997 -0.70158798
193.95166 -81.498566 -1.829424
194.03024 -81.554077 -2.5499899
194.08206 -81.407242 -4.2854929
183.31036 -81.563393 -5.2619791
186.49622 -81.407188 -5.4780178
194.08005 -81.478958 -5.5761442
183.45097 -81.518517 -5.9937568
183.93748 -81.540665 -6.863328
192.75461 -81.478683 -7.070375
188.711 -81.478928 -8.057148
190.33199 -81.506729 -12.096407
193.95398 -81.396118 -4.1842718
183.88263 -81.344589 -6.3206372
186.33955 -81.286987 -6.306397
189.6413 -81.21904 -6.9857979
193.04411 -81.353073 -7.0914679
186.59488 -81.294312 -7.8146749
189.59763 -81.222946 -8.6733017
180.43762 -81.280579 -9.5620041
180.40308 -81.295761 -9.6026192
183.44287 -81.33934 -9.9508591
183.68451 -81.029053 -10.495646
190.2475 -81.046211 -12.520889
192.7993 -80.805328 -0.34944001
182.04128 -80.856003 -8.0077066
180.53587 -80.97641 -9.4408321
191.83261 -80.61544 1.082113
192.89632 -80.787567 0.371158
192.72534 -80.65358 -4.7279
192.73372 -80.686867 -4.972239
192.56453 -80.688637 -5.7094641
195.18231 -80.771744 -5.8681641
181.9678 -80.635078 -7.913456
187.93413 -80.692963 -8.1318645
190.34511 -80.609154 -12.100327
192.61594 -80.452316 1.085789
195.2303 -80.575432 -5.8615808
188.29921 -80.42453 -6.703949
188.56186 -80.493057 -6.7451348
188.20096 -80.461807 -6.940484
188.10747 -80.562874 -7.330605
181.97205 -80.488647 -7.8260579
181.97055 -80.429222 -8.4084358
189.79286 -80.56723 -9.0361614
196.85257 -80.419601 -9.0398741
186.39651 -80.575188 -10.444298
186.88858 -80.535049 -10.968622
190.67542 -80.538071 -11.851249
190.28729 -80.523987 -12.614188
197.30673 -80.21563 0.93651801
197.34299 -80.268463 0.63208401
197.36116 -80.200081 -0.62438601
195.24619 -80.213066 -4.6823368
195.12985 -80.211319 -4.8757539
192.60448 -80.361313 -5.6300182
188.49908 -80.368835 -6.614511
188.62477 -80.399979 -7.1162791
191.52965 -80.208755 -7.2796869
189.58987 -80.301086 -8.1313868
189.72652 -80.229095 -8.1824551
197.33521 -80.186432 0.094555996
197.28094 -80.102707 -0.19367
189.54587 -80.080933 -7.3349209
180.51987 -80.114349 -8.7124233
190.0726 -80.011353 -8.8702021
194.09006 -80.189178 -9.1461182
186.82051 -80.144386 -10.627063
190.27351 -80.138237 -12.654322
186.50385 -99.820679 -0.21432699
183.33794 -99.84407 -2.1526501
185.41542 -99.924576 -2.3424001
185.06992 -99.864685 -2.658227
182.43333 -99.97261 -8.4597673
180.14064 -99.698883 0.53588003
185.17545 -99.733803 0.195675
184.12582 -99.634064 -0.114192
186.371 -99.624168 -0.55765599
184.71544 -99.700096 -0.97680998
186.48398 -99.75367 -1.244269
183.74115 -99.731483 -1.4729331
185.72495 -99.777245 -2.185061
187.8147 -99.652946 -2.365001
188.84543 -99.680908 -3.8479249
182.26053 -99.681656 -4.3545818
184.84348 -99.423531 -0.55094099
186.21802 -99.407753 -0.53536302
184.47971 -99.469933 -0.93547702
186.40404 -99.430298 -1.250089
186.18372 -99.538254 -2.0326991
180.76978 -99.591423 -8.7136803
182.31377 -99.58033 -8.6840563
183.04192 -99.385536 0.45095199
183.42656 -99.34433 0.29130599
186.82767 -99.265762 0.046909001
185.28949 -99.227936 -0.76009399
186.31921 -99.283592 -0.925309
185.0448 -99.313202 -1.0401061
186.61485 -99.301529 -2.2006791
184.30548 -99.279442 -3.8481841
189.24931 -99.300873 -4.5576038
189.16489 -99.341026 -4.700696
183.7106 -99.182877 0.263863
186.23454 -99.180687 -0.98444802
186.65213 -99.06926 -2.1938691
182.91895 -98.949738 0.52765602
189.96359 -98.897476 0.172563
187.15724 -98.960732 -1.679641
185.32658 -98.988968 -4.5804529
189.4379 -98.951233 -5.8552389
196.63919 -98.842087 -6.2974238
184.03403 -98.845886 -8.6583748
183.65169 -98.664124 0.31955799
185.68158 -98.71862 -0.237057
184.99921 -98.648636 -0.90959001
185.34589 -98.706863 -0.97849399
183.64897 -98.741325 -4.049778
182.89775 -98.635849 -4.2758489
185.16637 -98.600288 -4.579669
185.53145 -98.613693 -4.8612981
183.53035 -98.653648 -5.9266028
196.95906 -98.745415 -6.7810841
183.90877 -98.755859 -8.7757988
187.33548 -98.707191 -9.6882944
180.31642 -98.571884 0.60708702
181.80524 -98.497597 0.64031202
183.30466 -98.534332 0.50975001
191.46623 -98.433197 0.059303001
184.73628 -98.412872 -0.79771602
187.85339 -98.485565 -2.1603529
188.54004 -98.519836 -2.4361441
186.81526 -98.470139 -2.9498191
190.60983 -98.402466 -3.592802
190.86578 -98.514923 -3.730238
182.174 -98.441872 -4.2044959
183.49304 -98.534668 -6.0262251
183.62492 -98.406387 -6.0814748
182.3271 -98.526459 -6.6799908
184.57129 -98.45118 -9.2411966
184.87852 -98.443367 -10.554822
182.83247 -98.361969 0.62131
191.40413 -98.24736 0.24242
191.70796 -98.251343 -0.041019
184.73209 -98.295959 -0.76783401
186.90555 -98.335632 -2.6048319
186.90259 -98.209457 -2.9744489
196.6627 -98.268417 -5.7976561
183.03787 -98.386642 -6.3610182
182.16203 -98.351776 -7.0491719
181.62274 -98.203247 -7.714941
181.5748 -98.398857 -8.9137821
181.11948 -98.356018 -9.4356394
185.65532 -98.238602 -9.5627785
180.08543 -98.148438 0.57429701
184.34473 -98.127678 0.288656
184.28741 -98.06015 -1.0720119
195.58272 -98.135681 -4.4491992
183.61526 -98.161591 -6.119339
181.8457 -98.116829 -8.9789963
185.57387 -98.188225 -8.9612894
182.46213 -98.067352 -10.711275
181.60017 -98.013489 -11.715478
180.48045 -97.855179 0.588108
183.90901 -97.869202 0.477274
192.89555 -97.863495 0.41841
184.46155 -97.955711 -0.96587002
195.5851 -97.88575 -4.4218249
181.29156 -97.955658 -5.3049068
191.32068 -97.969269 -8.0084229
187.08365 -97.887894 -9.2358379
181.73238 -97.805496 -9.6681261
189.09363 -97.870995 -11.05072
182.10783 -97.676033 0.64494699
182.41412 -97.67128 0.63449103
183.44135 -97.646652 0.55318999
193.12437 -97.610359 0.077064
183.82526 -97.753914 -4.3385372
180.1062 -97.729492 -4.7156768
183.66547 -97.726807 -6.1067309
182.3026 -97.402077 0.68413502
184.0723 -97.532776 -1.306944
183.9678 -97.530708 -4.3190351
