# .PCD v0.7 - Point Cloud Data file format
VERSION 0.7
FIELDS x y z
SIZE 4 4 4
TYPE F F F
COUNT 1 1 1
WIDTH 1520
HEIGHT 1
VIEWPOINT 0 0 0 1 0 0 0
POINTS 1520
DATA ascii
186.14143 -103.84769 0.27248299
196.07709 -103.90121 -0.57785302
196.42691 -103.91631 -0.92236102
183.68921 -103.92068 -5.3009629
180.57962 -103.93347 -8.0941315
180.33763 -103.82067 -8.4152222
180.19836 -103.76985 0.325863
197.15784 -103.73515 -2.1007111
183.66339 -103.43613 0.31611499
180.09024 -103.52893 -8.7320538
182.71695 -103.27742 0.142103
182.80794 -103.25761 -0.31327301
181.16411 -103.31198 -8.1084137
180.31993 -103.13194 0.350218
182.64522 -103.15253 0.22201701
185.77148 -103.1891 0.233537
183.70406 -103.03434 0.192526
184.20683 -103.04099 0.16523001
181.4369 -102.87151 0.293174
181.73627 -102.94112 0.32847399
181.38454 -102.62962 0.33317599
185.42862 -102.6948 0.29100201
185.79724 -102.72482 0.15725701
180.19205 -102.65005 -8.1596413
181.86548 -102.59128 0.25577101
182.078 -102.58095 0.205971
183.22189 -102.40359 0.16580001
181.75383 -102.5436 -7.4777131
182.817 -102.53961 -8.4710445
181.05267 -102.21736 0.345458
183.13724 -102.30773 0.24937201
185.38934 -102.34241 0.201294
185.73898 -102.27662 0.142801
180.10648 -102.34515 -6.9942389
182.35248 -102.23078 -7.0658441
182.19379 -102.35334 -7.5352559
180.24042 -102.24252 -8.402112
180.85283 -102.12806 0.49758399
181.4873 -102.19725 0.365136
182.79793 -102.05023 0.24055099
184.37662 -102.06776 -4.2623839
184.22653 -102.18286 -4.7009459
184.56969 -102.03645 -4.7233181
182.65646 -102.14878 -5.7476869
180.23016 -102.16927 -8.3704653
181.02209 -101.89603 0.50630498
185.73044 -101.87697 0.179928
186.12497 -101.90431 0.140228
180.34146 -101.84462 -8.4023752
181.45428 -101.6897 0.34207699
182.15201 -101.78621 0.19147199
180.55917 -101.7715 -6.559175
180.28403 -101.77164 -8.2945461
180.54968 -101.65226 -8.214694
182.24033 -101.51173 0.286962
186.22313 -101.45162 0.178951
181.80656 -101.43281 -5.7781582
180.60934 -101.46664 -6.2591429
180.55737 -101.54716 -6.5478592
180.80589 -101.46492 -8.4707422
182.50366 -101.31123 0.235219
180.47885 -101.26021 -7.48421
180.70146 -101.36423 -8.1575489
184.194 -101.39563 -8.8868523
181.81534 -101.14658 0.470891
182.64693 -101.06572 0.233968
186.71239 -101.14735 0.153715
186.8329 -101.16649 0.133891
181.32553 -101.02595 -5.6658058
181.60226 -101.19406 -5.8503008
180.60716 -101.061 -7.0712891
180.49178 -101.10229 -7.3060951
183.04877 -100.94097 0.164354
183.21188 -100.95648 0.13606399
180.64417 -100.86576 -6.1684108
180.74619 -100.99164 -6.705822
180.80942 -100.86994 -7.3574128
182.27943 -100.66301 0.45787999
183.00989 -100.66767 0.26988599
186.51997 -100.61822 0.30415201
186.93826 -100.66919 0.160466
187.41531 -100.62716 0.13067
180.92448 -100.63955 -5.6449609
180.65552 -100.66325 -6.0651312
185.26624 -100.67648 -7.9652648
181.32043 -100.44493 -4.557292
181.30603 -100.47443 -4.8757939
181.3987 -100.28356 0.559659
181.86253 -100.36535 0.52876699
182.39656 -100.36327 0.47580001
182.63452 -100.2495 0.44647199
183.13065 -100.33308 0.224934
182.27017 -100.25531 -3.3764391
181.51204 -100.24981 -4.3875241
181.41928 -100.28741 -4.5488691
181.06989 -100.34818 -5.0918531
181.02437 -100.29852 -5.2315731
180.70671 -100.27987 -5.670671
183.02718 -100.39168 -9.1821947
183.43994 -100.15863 0.203995
183.69 -100.04183 0.13944501
183.08014 -100.06799 -2.2568259
185.47661 -100.05475 -2.3009369
185.29407 -100.01566 -2.43416
182.50583 -100.09868 -3.053417
182.4082 -100.1412 -3.4545341
181.73299 -100.19186 -4.089448
180.72478 -100.1799 -5.4786201
182.41032 -100.11346 -8.3492231
180.12325 -119.86454 -1.4432679
180.16364 -119.8855 -1.607209
181.19588 -119.80354 -3.2719901
180.17236 -119.39639 -1.361674
180.91125 -119.35592 -4.411644
180.63017 -119.02014 -1.507322
180.48921 -119.04729 -2.4222
180.84642 -118.88707 -0.71540499
184.48456 -118.94704 -0.79636401
184.49194 -118.94389 -0.84084201
180.53247 -118.85425 -2.1832471
184.4294 -118.765 -0.47431901
180.09122 -118.72209 -0.84970301
180.7886 -118.75035 -0.86236501
184.31656 -118.67673 -0.85437602
180.53439 -118.66452 -1.746863
180.29521 -118.62556 -3.4086461
180.49609 -118.73189 -4.912324
180.46844 -118.53439 -3.7685261
184.41873 -118.42562 -8.072032
180.50931 -118.27747 -1.136755
180.69882 -118.24274 -1.723217
180.62689 -118.31476 -2.2609899
180.52252 -118.23867 -3.805299
180.16487 -118.19761 -0.85689598
185.76584 -118.16048 -0.90798801
181.01862 -118.08355 -1.550238
180.64799 -118.14202 -3.1460149
180.62233 -118.12954 -3.27121
180.70959 -117.93723 -1.506047
180.72571 -117.97372 -4.486855
180.87283 -117.79767 -0.39712301
181.83582 -117.77341 -1.494243
181.83269 -117.73244 -1.775637
181.95435 -117.49638 -1.765798
180.19122 -117.34273 -0.41529
184.5401 -117.37032 -3.598491
184.15524 -116.81391 -0.72174299
184.73193 -116.72478 -3.6176541
185.40149 -116.54989 -4.727304
182.91675 -116.0345 -0.89461499
181.52213 -115.92217 -2.5021551
185.19751 -115.89976 -4.3207221
180.07117 -115.86813 -5.6788678
191.41727 -115.64818 -0.171856
182.34113 -115.61086 -1.52222
182.72618 -115.52186 -1.878491
183.00784 -115.53709 -1.878515
194.8118 -115.24734 -0.343384
180.68193 -115.30113 -0.86967999
180.75681 -115.28426 -1.449367
180.81776 -115.22271 -3.906496
180.84984 -115.20082 -4.7919931
180.56296 -115.15494 -0.73150402
180.59393 -115.11803 -0.90824002
180.57622 -115.09384 -1.448445
180.70886 -115.09078 -3.348376
180.65005 -115.05688 -3.7885859
180.63023 -114.88971 -5.0626488
181.75037 -114.634 -1.351086
181.10666 -114.74632 -1.7808
181.57092 -114.27752 -0.89720702
182.29315 -114.27491 -0.88295901
180.53265 -114.24222 -1.881258
180.85156 -114.31154 -1.902649
184.35678 -114.14082 -0.770724
181.6698 -114.14882 -0.92103302
181.81192 -114.17889 -1.284323
181.65462 -113.96817 -0.808209
182.26494 -113.85995 -0.90136802
182.66554 -113.80634 -0.97542202
180.72462 -113.85042 -2.0495441
196.76067 -113.64796 -0.263946
181.19936 -113.40905 -1.227224
181.28978 -113.36098 -0.54947001
181.39059 -113.27353 -0.89478999
183.82535 -113.38158 -0.87073898
184.06778 -113.27903 -0.84329498
180.5826 -113.0129 -0.97667003
183.92465 -113.15943 -0.86571503
181.94058 -112.94124 -0.34175199
181.96432 -112.81114 -0.428978
182.13107 -112.95469 -0.420818
181.03645 -112.89573 -0.91340101
180.97537 -112.95473 -1.238392
180.88503 -112.74094 -0.94604403
182.12555 -112.68028 -1.41115
182.81787 -112.67125 -1.618711
180.21155 -112.47734 0.125304
181.84064 -112.57785 -0.29462701
181.54527 -112.56395 -0.449898
184.08073 -112.5748 -0.59548903
181.96852 -112.59665 -1.241136
183.02057 -112.50012 -1.414413
181.51108 -112.20846 0.092193998
183.3765 -112.31949 -0.16199
183.83582 -112.36706 -0.160478
181.82861 -112.09727 -0.176136
182.0242 -112.16688 -0.71142298
183.80171 -112.03811 -1.0003459
181.26526 -111.83582 0.076681003
181.75645 -111.97473 -0.41429099
187.69563 -111.81692 -0.72247601
181.76036 -111.79681 0.051828999
186.05676 -111.7933 -0.30946001
181.64285 -111.44324 0.086911
185.80241 -111.55362 -0.30668199
182.40375 -111.28735 0.099937998
181.53607 -111.0959 0.084243
182.83369 -111.12669 0.112148
187.12012 -111.10286 -0.87851
181.72983 -110.89187 0.082304999
182.26541 -110.89672 0.087412
185.29256 -110.94268 -0.32107699
182.67432 -110.6467 0.099307001
183.20117 -110.62967 -0.0081460001
185.763 -110.72705 -0.18032201
185.65955 -110.67383 -0.83827901
181.85396 -110.59728 0.093404002
182.57338 -110.20728 0.090540998
185.77953 -110.28808 -0.352568
185.77576 -110.20061 -0.76032501
183.05725 -109.96629 0.0053079999
181.40773 -109.81495 -0.58303797
181.47775 -109.75255 0.121256
186.18066 -109.74503 -0.366613
180.20956 -109.77513 -0.95489597
186.5683 -109.66277 -0.917741
183.53523 -109.55065 -0.11108
186.45824 -109.51289 -0.50357699
180.27237 -109.58974 -1.063396
182.49774 -109.27391 0.074878998
194.05179 -109.30939 0.021408999
183.6066 -109.28845 -0.118925
186.17265 -109.34953 -0.880898
186.43796 -109.37694 -0.8743
184.05396 -109.21684 -8.4482441
183.34605 -109.03822 -0.0056269998
182.16701 -108.95312 0.16350999
183.75613 -108.63608 -0.107364
182.60101 -108.59486 0.108464
196.02681 -108.4248 -3.966696
184.21523 -108.3177 0.025789
180.77692 -108.21546 -0.90835899
180.88281 -108.20367 -0.880445
196.15283 -108.21093 -3.938082
181.70755 -108.14217 0.292638
183.62897 -108.17947 0.11699
196.75279 -108.09105 -3.365638
184.73125 -108.0602 -8.2564325
183.90749 -108.04111 -8.7735386
182.92293 -107.97086 0.182862
185.96806 -107.80811 0.055282
184.82147 -107.77449 -6.159019
197.24994 -107.48789 -2.4583459
180.51085 -107.35541 -1.655177
196.0031 -107.26004 -3.797194
180.44087 -107.31782 -4.5309839
180.68683 -107.13018 -0.091599002
181.88757 -107.14547 -0.65721899
180.78186 -107.04713 -0.993411
181.82417 -107.01843 -0.98751402
180.73932 -107.17361 -1.504041
180.91518 -107.09395 -1.425877
184.81935 -107.00555 -5.957489
185.27121 -106.90955 0.013183
180.76331 -106.99694 -1.767686
181.01691 -106.94907 -2.100445
180.05215 -106.8381 -2.9400301
184.59021 -106.90217 -6.030386
182.74976 -106.82419 -9.4128342
194.61963 -106.63499 -4.91431
182.17853 -106.59579 0.040989
181.39182 -106.59061 -1.545285
197.17699 -106.57677 -1.898802
188.00287 -106.53375 -4.226284
181.12823 -106.58789 -7.097846
183.7812 -106.50285 -8.6669817
184.91049 -106.30064 0.083571002
197.28412 -106.28659 -0.49977401
197.10469 -106.21375 -0.98387098
180.44936 -106.31924 -1.5941271
182.58014 -106.17455 0.069141999
197.04044 -106.13205 -0.61411101
180.29216 -106.10292 -1.489448
180.50366 -105.94135 -0.68080997
180.51939 -105.96943 -0.914505
195.70116 -105.8119 -2.0167651
194.50018 -105.88377 -2.43681
193.82831 -105.94883 -3.9500229
180.09825 -105.87822 -7.0368252
184.2688 -105.79041 0.218592
180.48126 -105.6068 0.033557002
196.89343 -105.75774 -1.361836
191.10965 -105.44367 0.28963
180.02306 -105.45151 0.169662
181.70406 -105.42633 0.040918
195.09386 -105.45685 -3.72123
181.35297 -105.29727 -0.118513
181.75204 -105.34367 -0.053564001
196.45026 -105.21018 -2.0457599
196.00563 -105.29086 -5.0260119
180.1763 -105.0422 0.13232701
183.4223 -105.05656 0.085165001
196.96198 -105.117 -0.59129399
195.4884 -104.9866 -0.61894202
195.08051 -104.82842 -3.61518
196.3477 -104.70538 -0.57782102
182.57913 -104.48003 0.24163599
183.81064 -104.46812 0.216694
194.23743 -104.32322 -0.083287001
197.49438 -104.35324 -0.101722
195.49289 -104.26001 -0.52428597
180.0127 -104.11189 0.227982
182.70386 -104.04776 0.047982
183.02119 -103.98434 0.29102299
182.63918 -103.93004 0.128497
182.93059 -103.96961 -0.031842001
196.91171 -103.9321 -1.102235
197.29889 -103.95549 -3.5159471
183.92603 -103.7906 0.175908
197.6993 -103.76216 -1.105893
196.90457 -103.47155 -2.2035279
182.73979 -103.25656 0.10904
182.91537 -103.2833 0.091302998
185.88843 -103.24478 0.18259899
186.08612 -103.31758 0.136062
197.57268 -103.35772 -1.363466
181.35098 -103.17711 0.40463999
182.68298 -103.15882 0.19478901
183.77249 -103.02899 0.100205
184.26227 -103.09392 0.16703101
196.42392 -103.18518 -1.995688
194.70038 -103.1766 -3.4404099
193.23828 -103.15553 -5.3914642
181.3717 -102.85349 0.345624
182.12201 -102.95024 0.32801101
182.97246 -102.92829 -0.15427101
186.55006 -102.91256 -0.030693
197.34828 -102.82619 -3.8727829
183.13435 -102.95467 -5.3507819
181.98141 -102.98024 -7.4680858
197.10587 -102.69523 -3.7268751
183.02179 -102.70741 -5.38868
184.42647 -102.64802 -5.919446
183.80634 -102.69471 -6.8315258
181.31055 -102.54449 0.378158
183.25806 -102.45202 -0.129279
180.66545 -102.34044 0.50363398
183.23688 -102.35902 0.104493
185.48361 -102.24228 0.178093
183.30963 -102.26278 -0.097014003
181.4292 -102.13661 0.378791
184.34933 -102.09276 -4.2848172
185.75528 -101.87365 0.163048
180.9684 -101.89261 -9.0816832
181.47794 -101.77497 0.369425
185.4765 -101.7962 0.23855001
180.56123 -101.70795 -8.2436638
182.89163 -101.44196 0.22192
185.45372 -101.58366 0.37966999
187.11499 -101.44132 -0.118446
180.8616 -101.48426 -7.907618
182.5184 -101.28717 0.204992
185.77065 -101.39882 0.31086099
182.5433 -101.34042 0.060942002
182.38762 -101.27979 -0.087765999
180.79199 -101.31226 -8.4711313
183.90536 -101.38972 -9.0193453
181.79213 -101.18209 0.337363
182.42712 -101.05988 -0.238299
180.59364 -101.01556 -7.0343032
180.62424 -101.14223 -7.8971872
183.48738 -101.19098 -8.8855658
182.06564 -100.90242 0.44101599
183.09265 -100.89292 0.149579
180.70799 -100.96185 -6.2767782
184.75439 -100.9612 -7.858953
182.98691 -100.67825 0.28328401
186.67511 -100.70261 0.23202699
181.21004 -100.79375 -5.4509301
182.293 -100.56409 0.440777
182.9527 -100.47999 0.254105
186.27913 -100.51666 0.236487
183.46289 -100.42462 -0.17608701
181.50134 -100.41944 -4.3758922
181.36856 -100.47474 -4.6260252
181.28653 -100.50487 -5.0610819
180.63921 -100.50851 -5.849968
185.27264 -100.5873 -7.9223008
183.16283 -100.32397 0.235375
183.28593 -100.2417 0.28701901
183.46432 -100.27448 0.10288
181.27368 -100.29777 -4.8836422
181.08893 -100.33373 -5.0517812
181.62813 -100.27554 -8.3600693
185.50127 -100.35805 -8.2021284
180.01006 -100.2655 -8.8256435
181.05157 -100.04509 0.54436702
182.86133 -100.062 0.44196299
185.77892 -100.09412 0.37849
186.20715 -100.15144 0.207785
199.95599 -100.06936 -6.5284772
192.09412 -119.8736 -0.84786499
183.17807 -119.90208 -1.069429
180.08224 -119.88228 -1.399428
183.04335 -119.84158 -1.30849
180.26855 -119.65659 -1.1671669
185.20865 -119.73149 -4.643404
180.17163 -119.53545 -1.1447639
180.16948 -119.48027 -2.0261199
181.26279 -119.43457 -2.199347
181.03326 -119.45496 -3.3738029
181.95473 -119.25968 -1.078879
184.85287 -119.02943 -0.57375401
184.39566 -119.02864 -1.040043
180.58289 -119.00769 -4.094171
181.1691 -119.15497 -6.6594181
184.47069 -118.96625 -0.71547103
184.52377 -118.82317 -2.0814941
185.02986 -118.9184 -4.8027778
181.10794 -118.71185 -0.745287
184.35559 -118.70038 -0.67676502
180.98438 -118.7093 -0.88092899
184.28781 -118.79185 -1.250558
181.05896 -118.52058 -0.347433
180.17619 -118.59348 -1.863683
180.19518 -118.4786 -2.062969
182.28682 -118.54535 -3.0890591
180.47305 -118.57336 -4.2425261
184.4017 -118.49199 -7.9058709
180.52188 -118.30301 -4.260004
184.72801 -118.08094 -0.185413
186.47681 -118.0935 -0.89458299
181.39197 -118.11771 -1.558724
180.80617 -118.09811 -2.2589359
180.6351 -117.91877 -2.581161
181.02945 -117.86139 -3.3310831
181.59924 -117.91006 -3.4489391
180.38353 -117.95575 -5.4905081
188.00343 -117.91061 -8.4989538
180.65808 -117.78363 -0.94123697
182.01768 -117.64001 -0.96859199
185.87955 -117.6295 -2.145133
182.086 -117.40892 -1.304167
186.31224 -117.55612 -3.4723699
180.09283 -117.32664 -0.35361901
185.48048 -117.26629 -0.57122397
196.44127 -117.37935 -0.75601399
181.14771 -117.29565 -2.4678371
180.11951 -117.33947 -6.6768732
183.97653 -117.04707 -1.888342
184.19907 -116.92994 -0.72626102
184.19049 -116.67915 -0.86867899
184.12842 -116.77732 -1.472764
184.70555 -116.53299 -0.13867401
181.76135 -116.18011 -2.4660909
187.18617 -116.15485 -3.732866
189.87764 -115.66012 -4.2456942
182.21733 -115.55624 -1.597319
182.58978 -115.55047 -1.750128
189.0081 -115.59649 -7.8880248
180.80984 -115.28812 -0.415591
181.82161 -115.35978 -0.787117
180.7063 -115.30456 -0.86978698
181.75162 -115.05264 -0.76020402
183.13092 -115.19752 -0.84849602
181.73575 -115.17889 -1.340257
180.61191 -115.12769 -1.80553
180.98015 -115.13776 -7.1384311
184.0945 -114.94705 -1.604363
180.74074 -114.88483 -7.103786
184.14615 -114.57187 -0.724635
181.61308 -114.40691 -0.86076999
184.20222 -114.54189 -0.81779402
180.56627 -114.55651 -1.84561
180.39783 -114.42624 -3.100246
181.56006 -114.28515 -0.71810901
181.35696 -113.66267 -1.133752
184.14783 -113.54694 -0.35210201
181.30292 -113.25595 -0.89182198
182.95352 -113.18316 0.083998002
183.92023 -113.1711 -0.88821602
180.05307 -112.83585 0.029052
181.11293 -112.87302 -0.68067199
181.36786 -112.90846 -1.569527
181.40723 -112.86276 -1.829285
181.07423 -112.7634 -0.79317403
182.13655 -112.68483 -3.337528
183.9967 -112.46418 -0.61434698
182.18567 -112.47519 -2.2345569
183.26505 -112.28317 -1.617838
180.47061 -112.18756 0.064078003
181.75958 -112.15965 0.070312999
183.40469 -112.07918 -1.432586
187.82965 -111.76482 -0.88213801
194.67747 -111.67585 -8.3720016
185.62712 -111.40797 -0.40180099
187.24655 -111.2211 -0.84649199
185.17369 -111.13618 -0.59708101
186.76642 -111.03339 -0.863074
181.49309 -110.99534 0.163132
182.22179 -110.98215 0.133265
183.97406 -110.80212 -0.113809
184.47598 -110.99509 -0.066569999
182.69955 -110.61528 0.076196998
181.89622 -110.51195 0.13040499
182.293 -110.51231 0.082927004
185.54904 -110.55999 -0.262398
185.49274 -110.56424 -0.656012
185.50041 -110.45551 -0.82578403
181.35571 -110.2863 0.222037
185.72098 -110.27495 -0.299243
185.56284 -110.34275 -0.66874802
181.83185 -110.10114 0.137796
182.60486 -110.19023 0.075866997
182.94995 -110.02743 -0.029393001
186.24127 -110.17 -0.91992098
180.25046 -109.82027 0.15339699
182.08281 -109.97281 0.17693201
196.45012 -109.92008 0.103675
180.16095 -109.83341 -0.193514
186.06284 -109.88837 -0.32000199
180.16414 -109.76156 -0.69930899
181.41837 -109.79359 -0.66712397
182.61722 -109.40066 0.068026997
182.47449 -108.89876 0.10128
183.03445 -108.8314 0.098650999
184.00693 -108.5927 -7.4986148
183.36507 -108.18208 0.113844
180.78186 -108.19586 -0.72255301
194.15929 -107.88315 -0.0080800001
187.05078 -107.86706 -0.210437
196.80466 -107.84883 -4.8210378
196.42987 -107.80778 -5.60255
196.87038 -107.68925 -5.4119391
180.32411 -107.44302 -4.505178
180.76175 -107.24693 -0.91851002
183.46742 -107.05214 0.20602
196.54565 -107.10748 0.042412002
182.0338 -107.04607 -0.59075397
181.91554 -107.15189 -0.63441902
181.57309 -107.14594 -0.98524302
180.81409 -107.09474 -1.08776
180.69688 -107.10314 -1.539773
180.9279 -107.00239 -1.731418
194.64401 -107.07753 -2.302922
180.8764 -106.9874 -1.401405
197.25818 -106.89302 -1.909574
195.35767 -106.90868 -2.4768
180.90559 -106.71658 -2.206126
195.5752 -106.61192 -2.299824
182.12555 -106.56358 0.12909099
185.12514 -106.51646 0.000186
197.16425 -106.50055 -0.96314901
195.87083 -106.48949 -2.460041
180.38329 -106.47533 -5.3617201
180.26422 -106.39981 -0.33085099
198.35678 -106.287 -0.46223101
197.24026 -106.35971 -1.198765
196.08936 -106.3329 -1.936657
181.02687 -106.08984 0.023417
181.13339 -106.03809 -0.013731
194.15668 -106.0823 -4.125937
180.34541 -106.11831 -5.3574648
194.11864 -106.05984 -5.4507432
180.48296 -106.10892 -8.2409048
181.14076 -105.86459 -0.037824001
181.25833 -105.89502 -0.073829003
180.98267 -105.80135 -1.0577379
194.45688 -105.9431 -5.5142341
196.05028 -105.6746 -3.375478
180.96959 -105.73563 -7.639029
182.44553 -105.45426 0.103149
197.88193 -105.51453 -1.063379
195.9493 -105.49153 -1.914992
195.5726 -105.26889 0.036382999
185.40578 -105.36232 -8.3316154
185.30309 -105.01973 0.23572101
180.19653 -105.12441 -6.9490108
183.16223 -104.6785 0.19511899
183.2366 -104.69974 0.11776
183.16957 -104.77812 -0.100058
195.55087 -104.78584 -0.49894401
197.01205 -104.61606 -2.4481201
194.29211 -104.27833 0.095091999
196.7403 -104.31455 -1.053867
196.24942 -104.04727 -0.656488
197.09438 -104.15681 -1.406718
195.14516 -104.17002 -3.6263449
185.45255 -104.12468 -6.2561488
182.77132 -104.11678 -7.7099352
184.02332 -103.83744 -0.073472001
186.51801 -103.73332 0.148426
197.2345 -103.76765 -0.009784
185.60609 -103.70707 -5.5708671
183.27579 -103.63076 -7.3631649
183.60083 -103.47437 0.43652099
181.73975 -103.28339 0.36160401
182.74677 -103.24144 0.18503401
181.3083 -103.08293 0.43774199
183.7749 -103.03226 0.176285
186.59125 -103.04706 -4.9923148
185.26675 -103.08604 -6.5173421
181.15689 -103.18938 -8.0588503
181.74921 -102.92641 0.34415099
181.97101 -102.91109 0.31996
182.96318 -102.96756 -0.18852399
185.03932 -102.95636 -6.5771341
182.45364 -102.96064 -8.5597076
186.41805 -102.79804 0.109204
183.11143 -102.75532 -0.21652099
184.56195 -102.71367 -6.0776262
181.49548 -102.68532 -9.5135403
181.26778 -102.52649 0.39232701
181.94043 -102.59652 0.31221399
181.50273 -102.4189 -7.9818778
182.07915 -102.32822 0.16649599
183.22223 -102.32487 0.14560901
185.70953 -102.2662 0.119134
186.16273 -102.31786 0.040626001
183.73816 -102.22143 -0.122564
184.5555 -102.20129 -4.583971
182.10052 -102.14861 0.31056899
184.24789 -102.11945 -4.660676
182.64458 -102.08601 -5.7274618
181.21153 -101.84893 0.33942899
187.27441 -101.81705 -0.060543001
184.297 -101.91776 -4.8296618
182.20584 -101.81352 -5.7252421
182.53128 -101.67228 0.15849601
181.57706 -101.49216 0.33998001
182.90703 -101.51585 0.25496101
186.89133 -101.42795 0.116593
182.60585 -101.36309 0.213257
186.65819 -101.39948 0.156195
182.55458 -101.29637 -0.049079001
184.33626 -101.36312 -4.4434862
180.64211 -101.28771 -7.7580471
180.63962 -101.35401 -8.1607819
183.50497 -101.23571 -8.4872017
183.22186 -101.02991 -0.217738
182.08603 -100.80579 0.335181
183.97249 -100.97795 -8.6842461
186.16611 -100.64141 0.28186899
187.30846 -100.63792 0.1096
180.75728 -100.6469 -5.4416089
180.67151 -100.76894 -7.2397218
185.19469 -100.7775 -7.9236212
183.05891 -100.66594 -8.9026775
183.35641 -100.5038 0.14471699
181.10327 -100.46489 -5.145226
180.54924 -100.46154 -8.9113531
182.6492 -100.50229 -8.9385357
183.2157 -100.40189 -8.9381676
182.56013 -100.20647 0.438214
186.62167 -100.30087 0.198164
183.45618 -100.27509 -0.131928
181.9399 -100.20535 -3.707974
181.76904 -100.22795 -4.0994072
181.18719 -100.34805 -4.5107841
181.01532 -100.2878 -5.2419529
198.67984 -100.21397 -5.3930912
180.71089 -100.25424 -5.6432681
186.297 -100.18362 0.206176
183.18124 -100.00632 -1.8618931
183.23874 -100.08463 -2.0468049
182.99094 -100.06923 -2.2643681
182.69681 -100.13467 -2.691983
191.92648 -100.11877 -8.8423204
186.89771 -100.16317 -9.4243336
181.79526 -100.06786 -10.644324
183.07988 -119.90305 -1.153928
183.2467 -119.98798 -1.014542
187.49219 -119.80262 -1.053001
180.23849 -119.85622 -1.681343
182.71072 -119.65823 -1.049697
180.12927 -119.47792 -1.479158
181.11089 -119.4843 -3.4527841
181.21516 -119.50263 -3.4783511
181.91246 -119.25443 -1.016809
180.75912 -119.24063 -1.621029
181.03387 -119.31789 -2.330426
180.68692 -119.26515 -3.5317061
180.9713 -118.81629 -0.354123
184.44452 -118.94881 -1.2362241
180.61253 -118.98459 -1.522334
180.09819 -118.80248 -1.980224
184.55145 -118.84504 -2.2148719
180.30746 -118.80275 -3.4355309
180.51755 -118.92929 -4.7025471
184.46426 -118.82149 -6.4417472
187.27475 -118.63068 -0.31227401
184.43562 -118.76093 -1.236891
180.99918 -118.76293 -1.420891
184.25227 -118.73332 -2.4552159
184.52457 -118.62774 -4.2669382
183.60355 -118.69945 -4.5360351
180.47241 -118.74509 -4.8562121
189.93118 -118.74825 -4.9613762
189.97362 -118.61539 -5.357388
180.60379 -118.55307 -2.284291
186.48907 -118.26007 -0.96373999
180.47568 -118.28902 -4.2477388
180.05249 -118.05196 -1.260255
180.53821 -118.19781 -2.148443
180.56519 -118.17985 -3.424041
180.63945 -118.07779 -4.6531892
180.54955 -117.90444 -0.73727
180.57919 -117.81085 -1.356512
180.5966 -117.93786 -2.0386789
181.04599 -117.91019 -4.199388
180.89688 -117.76626 -2.041508
181.09427 -117.75435 -3.3655961
199.44116 -117.55174 -0.32343301
180.47523 -117.59247 -0.82534498
181.96616 -117.56089 -1.304929
196.27911 -117.39095 -0.74491698
181.89841 -117.19125 -0.310642
181.86404 -117.13714 -0.74444902
184.13007 -117.03197 -0.90555
184.42886 -116.77612 -0.93835098
185.85152 -116.41783 -4.5610142
180.44427 -116.08183 -1.208122
183.93793 -116.04847 -2.2085299
181.74599 -116.14522 -2.4451439
180.0009 -116.08945 -5.4805312
183.17784 -115.81796 -2.194015
185.8933 -115.99182 -4.7685418
180.72174 -115.4007 -0.70030099
182.2662 -115.50578 -1.456239
181.03979 -115.49094 -2.552532
180.7231 -115.28226 -0.97916698
191.09485 -115.0977 -0.080485001
180.61264 -115.17668 -0.57755297
181.28442 -115.0118 -2.0259161
180.64435 -115.11803 -2.923058
180.71997 -115.08633 -3.30439
180.72177 -115.12386 -3.7196729
184.14413 -115.04654 -3.7662029
180.75055 -115.00896 -6.152637
180.67006 -114.94021 -5.6518631
182.48236 -114.9016 -8.0794668
180.26399 -114.62438 -0.59907597
182.27461 -114.62053 -0.78779203
182.44615 -114.54523 -0.879691
181.80695 -114.44488 -3.1259251
182.04813 -114.49834 -4.3690019
181.60945 -114.20072 -0.39630401
181.55824 -114.30213 -1.2889121
181.7047 -114.28278 -1.776213
181.75595 -114.17802 -1.252231
180.92685 -114.17525 -2.072042
183.62122 -113.91068 -0.70783001
185.02679 -113.88454 -0.73777902
182.04239 -113.8632 -1.363131
184.66638 -113.44937 -0.69288099
197.11581 -113.53284 -0.90495998
180.83778 -113.41586 -2.1448319
181.36128 -113.4312 -2.1423111
184.146 -113.27222 -0.75876498
181.2571 -113.28647 -1.9563299
180.52423 -112.68215 0.0048150001
180.58859 -112.75748 -0.01185
181.37067 -112.6725 -0.97823399
195.10596 -112.65238 -0.94512701
182.11896 -112.6047 -1.430537
194.39343 -112.61815 -8.5348349
183.90131 -112.49739 -0.96048301
182.86409 -112.42357 -6.3916221
180.31108 -112.21888 0.055541001
183.80016 -112.10397 -1.673
184.00325 -112.0177 -1.6630239
180.92245 -112.01172 -11.200164
180.28854 -111.89244 0.129124
184.20364 -111.91552 -1.4447989
199.02187 -111.87862 -15.085101
194.24451 -111.69418 -8.3376055
180.53812 -111.51624 0.13348199
180.9805 -111.40951 0.15236799
184.21759 -111.45676 -1.70031
198.91724 -111.54426 -13.682106
184.06454 -111.2159 0.122238
185.19569 -111.38432 -0.75908101
198.01596 -110.80772 -0.662112
181.34454 -110.69217 0.21665899
184.20528 -110.70995 -0.148267
183.07173 -110.4206 -0.016690999
186.54671 -110.58971 -0.96788102
182.84158 -110.50909 -3.1413391
185.47777 -110.32908 -0.830001
182.05409 -110.18367 0.105098
186.31148 -110.11858 -0.59612399
186.54803 -109.84225 -0.215616
181.34679 -109.81785 -0.91292799
183.07611 -109.62461 -0.035455
184.14394 -109.71124 -0.267079
186.57649 -109.64605 -0.90352398
180.76492 -109.78397 -1.217436
186.61913 -109.60017 -2.155062
182.3548 -109.63954 -4.1944642
184.66357 -109.53642 -5.5003762
183.66908 -109.37703 -0.147926
186.11334 -109.32822 -0.784073
186.18556 -109.36242 -0.89644098
186.61012 -109.3678 -1.073674
196.13177 -109.2949 -4.2155271
198.66107 -109.26791 -5.1392751
183.76225 -109.14243 -0.164322
198.7142 -109.14626 -4.8823161
182.23074 -108.96548 0.17397501
186.76244 -108.90181 -0.113138
184.11899 -108.99144 -0.25602001
182.61539 -108.67968 -3.5471339
183.77106 -108.58892 0.064032003
184.02322 -108.43038 -0.13534699
194.55313 -108.47745 -5.3594651
183.08948 -108.21873 0.12519901
194.79605 -108.22667 -5.3138289
180.85803 -108.15269 -0.90781897
195.76495 -108.04439 -4.0834112
186.01544 -107.67191 0.053978998
196.86026 -107.77704 -3.346777
184.71115 -107.43307 0.161183
181.50145 -107.52527 -1.348439
180.06665 -107.51569 -7.0303302
192.44498 -107.4781 -7.1595392
181.83334 -107.24706 -0.64983702
181.90668 -107.314 -1.105653
180.77408 -107.39381 -2.0550339
180.71811 -107.10349 0.13095801
180.74501 -107.06602 -0.74776602
180.82236 -107.13559 -0.76800299
196.85022 -107.04271 -2.350364
194.86426 -107.15333 -2.4606559
184.17383 -106.9903 0.180457
197.31976 -106.89627 -0.51366901
181.96278 -106.65433 0.064608999
181.2471 -106.60809 -1.097378
181.13414 -106.79727 -1.580639
185.11526 -106.43601 -0.099146999
197.97945 -106.5022 -0.52090597
195.75101 -106.56711 -1.527648
195.71735 -106.54784 -2.348376
182.99623 -106.59754 -8.5864849
182.08014 -106.39532 0.048133999
180.31194 -106.35376 -0.59246999
181.82794 -106.33788 -0.58099598
197.25342 -106.23483 -0.497585
180.42177 -106.32936 -0.77113998
181.33215 -106.27406 -0.96056098
195.74475 -106.20265 -2.2228129
181.37704 -106.23241 -4.9254832
181.0867 -106.29738 -5.0765462
180.67848 -106.22231 -7.1689739
184.87672 -106.19099 0.13673601
182.54906 -106.1767 -0.092740998
185.01669 -106.14649 -0.106133
196.49356 -106.0448 -1.282161
181.47148 -106.05073 -1.738708
195.83929 -106.19654 -1.870491
188.1532 -106.16887 -3.4043961
193.87871 -106.12016 -4.0506248
196.34235 -105.95651 0.011389
185.08669 -105.89091 -0.104669
180.53644 -105.90601 -0.70425498
180.57672 -105.97897 -0.96860701
182.04495 -105.93141 -8.4596357
183.61578 -105.62779 0.017384
195.70416 -105.71744 -0.61377001
194.72638 -105.69772 -3.4739981
180.10272 -105.67383 -5.1104231
194.37988 -105.63528 -5.1874709
195.66638 -105.48303 -0.88897699
195.93716 -105.53613 -3.3172979
195.57918 -105.40502 -4.9081721
194.82004 -105.45032 -6.1501069
185.65448 -105.39922 -0.080958001
195.61099 -105.21533 -0.39036
185.05331 -105.00998 0.238196
195.45818 -105.07375 -3.9854591
195.99434 -105.09854 -4.937367
184.3999 -105.05003 -5.6305432
180.18236 -104.68961 0.15878899
182.18442 -104.62399 0.038952999
197.37949 -104.61956 0.012214
183.33899 -104.64181 -0.139731
187.3493 -104.73494 -4.9327679
180.1348 -104.61432 -6.0276208
195.33112 -104.50892 -3.629385
190.74797 -104.27453 0.282341
195.16171 -104.26878 -3.4954021
182.66324 -104.0546 0.038063999
183.05505 -104.10298 0.092946
194.51797 -104.10247 -6.3532639
180.11853 -104.17099 -8.0095463
183.66748 -103.91844 -5.2870698
182.77521 -103.80989 -7.7169461
180.49025 -103.7047 -8.437376
183.63437 -103.42259 0.31405401
197.12804 -103.56229 -2.4971049
192.25919 -103.54848 -4.5521779
180.54745 -103.5955 -7.9526868
181.08409 -103.44391 -8.2081451
182.9425 -103.30793 0.067368999
186.06142 -103.29777 0.16463199
197.48407 -103.35667 -2.508415
183.34465 -103.30605 -5.259829
183.9455 -103.01812 -0.096598998
196.91864 -102.84987 -3.716939
182.09698 -102.67415 0.27813199
183.43826 -102.73373 -5.8144011
180.6387 -102.51288 0.50971001
180.91357 -102.5964 0.35239601
185.36829 -102.57768 0.33725399
194.55125 -102.59441 -1.768358
180.04515 -102.46301 -7.1452088
182.42137 -102.48718 -7.7383022
180.91141 -102.48293 -8.1348896
180.11549 -102.5832 -8.2506046
180.57376 -102.25737 0.51071298
183.08255 -102.33136 0.093261003
183.29288 -102.30609 -0.194215
187.13394 -102.23403 -0.032768998
191.47884 -102.20012 -5.080555
180.57924 -102.23511 -8.504324
182.42477 -102.0607 -7.3551192
181.28961 -101.84504 0.49129301
187.1355 -101.80113 -0.043869998
180.5947 -101.99261 -8.8617706
182.28828 -101.73816 0.29793599
182.80939 -101.64128 0.22644401
182.3546 -101.73631 -5.5263391
181.62781 -101.76547 -7.280827
184.02138 -101.6139 -8.9676256
185.45409 -101.56996 0.338462
184.21053 -101.40846 -4.8268738
180.60461 -101.46159 -6.308661
180.5643 -101.55624 -6.5123372
185.74622 -101.5414 -6.925643
180.02713 -101.49974 -7.945035
187.25238 -101.34737 -0.072113
180.2514 -101.34785 -7.1612248
180.24165 -101.39123 -7.2287679
180.08292 -101.35017 -8.5048208
183.06087 -101.08854 -0.015947999
182.42194 -101.08738 -0.202566
191.05223 -101.02386 -6.12291
180.51898 -101.11921 -7.2600961
180.58966 -101.07595 -8.4303417
182.93048 -100.95906 0.224704
180.81418 -100.96922 -6.5880628
180.80716 -100.92673 -7.3358412
183.81952 -100.88567 -8.8596363
180.99965 -100.92436 -9.1273184
181.576 -100.7108 0.517555
190.48758 -100.7474 -6.0805488
180.89859 -100.68982 -7.1924629
181.40094 -100.71168 -7.7388911
182.27954 -100.5211 0.33266199
182.01825 -100.46103 -3.5202229
180.92999 -100.47342 -5.469656
185.36172 -100.48864 -8.1778574
184.08295 -100.58801 -8.8165359
181.40692 -100.29267 0.56523597
181.87787 -100.3447 0.53470898
181.9675 -100.31888 -3.596575
181.53775 -100.23705 -4.2670202
182.33841 -100.30688 -8.1232376
182.49359 -100.17509 -3.0255761
182.40646 -100.19557 -3.379838
199.60129 -100.05545 -5.9285641
180.8131 -100.18619 -10.776543
180.13811 -119.83729 -1.3177381
183.06644 -119.90526 -2.11129
180.19592 -119.74445 -1.163433
181.46326 -119.75463 -5.695765
181.30377 -119.40582 -2.2608089
180.80231 -119.40499 -2.5010581
181.41907 -119.45789 -5.378603
191.84935 -119.27074 -0.092046
180.17596 -119.37406 -1.809947
180.88142 -119.29002 -5.3280792
184.86584 -119.06698 -0.13508201
180.50003 -119.02113 -2.9077711
183.12003 -119.06413 -4.725749
180.70523 -119.17117 -5.6432509
181.40582 -118.94437 -1.127025
180.61438 -118.94487 -2.198663
180.15683 -118.80431 -2.9179969
180.50475 -118.8738 -3.944922
180.16113 -118.60065 -0.61550301
180.13779 -118.66844 -0.88090402
180.76608 -118.66269 -0.87708199
180.55147 -118.6752 -1.512114
180.53662 -118.65979 -1.756467
180.29883 -118.6357 -3.4580691
184.48566 -118.69541 -3.4480779
180.99557 -118.70583 -6.1389389
184.3947 -118.61102 -7.4798741
180.44606 -118.49898 -2.4270451
180.45465 -118.54195 -3.811671
180.00821 -118.27959 -0.74585098
180.2236 -118.17194 -0.90913302
180.60815 -118.19104 -1.765844
181.5719 -118.03119 -3.9857709
181.0257 -117.82199 -1.541386
180.94492 -117.91559 -3.7236021
181.90442 -117.60368 -1.191883
184.64236 -117.76486 -3.402931
181.37971 -117.74281 -4.65061
186.58928 -117.71825 -4.8618002
181.95317 -117.50694 -1.8281471
181.13931 -117.49822 -3.266628
185.48741 -117.46673 -6.9386559
183.84882 -117.09765 -0.999493
183.58655 -116.9136 -0.91949397
184.16443 -116.93575 -2.047745
180.24426 -116.93077 -6.9395041
187.44885 -116.6159 -4.8614058
189.5778 -116.79234 -7.385129
181.91957 -116.5265 -2.4293351
185.77286 -116.25732 -3.6704559
182.89507 -116.09709 -0.86945599
182.77069 -116.09076 -1.059292
182.59152 -115.81293 -0.42535299
181.39771 -115.82779 -2.5176771
181.14513 -115.61348 -2.5491171
183.00417 -115.40793 -2.3479011
181.58344 -115.59277 -7.249146
188.47742 -115.4846 -7.847188
180.80626 -115.24054 -2.222486
190.15401 -115.35701 -4.3066268
180.60889 -115.15811 -0.89164299
182.23395 -115.04082 -0.90098399
180.6402 -115.14249 -1.78704
180.81158 -115.04153 -6.0374908
181.90921 -114.86845 -2.38203
180.68127 -114.85181 -7.0271029
180.7637 -114.96147 -7.2825809
189.20998 -114.87666 -7.9467158
181.08255 -114.5784 -1.870494
181.58218 -114.24478 -0.370058
181.64456 -114.22566 -0.969221
180.61496 -114.2348 -1.920059
180.33615 -114.31206 -3.102371
181.53497 -114.31271 -3.1246281
181.61952 -114.19344 -0.71334499
180.41095 -113.71394 -3.036401
197.93967 -113.53616 -12.860109
183.86261 -113.29733 -0.97238398
184.03491 -113.26215 -0.82320303
181.19949 -113.34978 -1.25324
182.30945 -113.33376 -1.22313
180.64005 -113.37689 -2.21787
183.03577 -113.22305 -2.428612
180.5209 -113.10895 -0.42582399
180.59482 -113.06702 -0.97529203
182.13092 -113.18771 -1.8317699
194.84039 -112.83841 -0.131615
180.91217 -112.97778 -1.265875
182.14297 -112.8634 -1.2343529
194.87494 -112.67635 -0.080485001
181.50899 -112.63741 -0.31328401
182.05081 -112.69893 -0.871701
181.82581 -112.65416 -1.402475
181.7213 -112.6249 -2.3713551
181.983 -112.68154 -6.3245702
181.327 -112.46359 0.013783
183.35387 -112.42639 -0.021617999
184.05923 -112.5751 -0.56050402
181.88992 -112.54525 -1.90771
186.63957 -112.25986 -0.273514
181.70715 -112.39664 -0.40664899
183.43031 -112.23378 -4.6278119
184.31935 -112.19576 -0.165159
181.29573 -111.81934 0.089956999
181.77417 -111.87231 0.090602003
198.70557 -111.94196 -0.81722897
183.40343 -111.86427 -1.430982
183.88324 -111.81176 -1.475323
181.6093 -111.95686 -2.30497
184.3027 -111.88921 -6.4781351
182.83829 -111.75299 0.119572
197.57372 -111.79321 -0.53391498
183.18068 -111.43628 -7.2669668
182.85568 -111.32345 0.082530998
181.04042 -111.0993 0.149176
182.88205 -111.04987 0.097630002
183.80261 -111.01305 0.080876999
185.32886 -111.07708 -0.86723
185.83792 -111.16452 -0.80614102
182.06448 -111.05048 -3.1204281
185.72174 -110.631 -0.65145701
194.50357 -110.63779 -8.0705795
199.79425 -110.49857 -0.74182498
183.3699 -110.23375 -0.139337
186.22678 -110.11398 -0.32639799
196.45139 -110.1333 -4.7799911
181.40852 -109.82818 0.17943101
186.30721 -109.99181 -0.89182901
182.67719 -109.78842 0.060182001
181.35629 -109.76918 -0.067704
185.92551 -109.77533 -0.54922098
185.97446 -109.77483 -0.83438802
185.97145 -109.61281 -1.2861
184.48425 -109.64886 -5.7053518
182.28348 -109.41414 0.104377
193.63943 -109.43194 0.01254
183.52654 -109.48254 -0.087975003
186.57077 -109.42281 -0.703861
186.74207 -109.41341 -2.2571659
181.96469 -109.28867 0.159738
184.66739 -109.35313 -0.28258401
183.16472 -109.34927 -3.353874
196.85687 -109.00761 -0.16484299
186.56235 -109.15533 -0.83888
186.87933 -109.05083 -1.796666
183.41873 -108.99571 0.052356999
198.37399 -108.91995 -4.7940841
183.77502 -108.68694 -0.12554701
182.62169 -108.61636 -6.1620302
182.35713 -108.58386 0.15624
183.32396 -108.41948 0.102022
195.7148 -108.40639 -4.4501419
184.45381 -108.33997 -0.14395399
196.05394 -108.20591 -4.1158919
195.09729 -108.297 -5.5197692
184.97124 -108.34136 -5.738523
180.91826 -108.19131 -0.62403601
181.24449 -108.03329 -0.82119602
183.4494 -108.02142 -8.6208305
182.22202 -107.96018 0.146623
185.57806 -107.82424 -4.9070001
181.08823 -107.72783 -1.0361429
180.35638 -107.7009 -1.656184
181.74747 -107.62115 -4.625926
184.27542 -107.50757 0.14939301
183.76871 -107.40826 -2.9091029
184.44824 -107.4898 -2.9335251
180.1851 -107.49155 -4.2975841
185.60638 -107.32574 -0.067966998
180.96844 -107.35548 -1.4266011
180.29602 -107.36163 -1.705734
194.59586 -107.27979 -2.3264501
184.88275 -107.07204 0.166591
185.38322 -107.04292 0.011858
180.6541 -107.07299 -0.230754
195.84773 -107.08895 -2.338285
182.83061 -107.00015 -9.4898605
196.65102 -106.97289 -0.44378099
197.34518 -106.94711 -2.009973
195.80458 -106.85276 -3.621114
187.72656 -106.96927 -4.5679169
185.08257 -106.9913 -7.4861922
197.29837 -106.73513 -0.44601399
180.04764 -106.71545 -3.011519
194.54565 -106.65851 -5.7072439
194.63994 -106.50424 -0.228376
180.61948 -106.58162 -1.58702
181.81429 -106.41864 -6.3976321
197.11215 -106.23571 -0.65381598
196.49747 -106.09035 -0.98735797
180.6003 -106.14417 -1.040557
180.27948 -106.19113 -1.44567
184.91368 -106.03572 -5.4302211
191.20073 -105.83795 0.27677399
196.54141 -105.90628 -0.98776698
195.72299 -105.85973 -1.88945
194.43633 -105.85661 -2.3386519
193.96829 -105.95885 -4.0561419
182.44037 -105.60829 0.26127401
180.29312 -105.66942 0.076650001
184.99469 -105.67147 0.110176
195.64697 -105.77294 -0.13663501
195.74612 -105.79242 -0.89139599
195.54379 -105.71407 -1.947667
194.82191 -105.64166 -3.3293369
184.37111 -105.46574 0.32619399
180.11594 -105.47388 0.102866
196.90442 -105.55461 -0.55240297
197.00653 -105.44989 -0.980609
195.46257 -105.509 -2.2010541
195.55914 -105.52527 -4.7008319
183.38493 -105.21858 0.199224
181.43556 -105.38316 -0.19817699
195.44579 -105.3821 -0.61211801
180.16257 -105.1387 0.095491998
181.37086 -105.11482 0.030795
181.42451 -105.04807 -0.022381
183.43745 -105.0393 -0.085964002
195.5498 -105.07378 -0.394757
195.52264 -105.04732 -0.58644998
184.75403 -104.74654 0.33633801
196.70845 -104.78011 -5.6068492
196.38562 -104.44135 -3.8273449
180.52379 -104.43059 -7.0894051
195.46008 -104.32935 -0.192047
195.67882 -104.20572 -0.47903499
196.81088 -104.22176 -1.097603
180.69327 -104.20288 -8.0275536
183.03809 -104.11676 -0.15685301
191.8969 -104.02757 -0.01393
182.64554 -103.90421 0.086315997
197.09338 -103.84105 -2.4928291
183.63216 -103.82623 -5.160779
180.12561 -103.77792 0.33528399
181.84097 -103.76952 0.38107601
192.21228 -103.78419 -4.543117
180.11017 -103.73396 -7.8813429
180.60973 -103.79227 -8.0962725
197.0717 -103.53868 -0.60228997
183.46939 -103.46071 -5.1422892
184.96078 -103.59397 -7.8975711
184.82965 -103.42442 -8.0189486
180.06816 -103.49286 -8.7263222
182.78732 -103.22256 -0.15255401
182.91516 -103.3094 -0.21268199
182.86673 -103.10741 -7.9733572
181.16296 -102.86995 0.46637899
180.8069 -102.95586 0.35973901
185.41803 -102.82233 0.348259
185.7229 -102.9596 0.197668
183.67133 -102.81698 -6.886302
185.15405 -102.60126 0.497623
181.08725 -102.6595 -7.9358368
181.7065 -102.4825 0.33263201
184.71959 -102.44168 -7.5979271
183.16473 -102.39917 -0.033877999
180.181 -102.28107 -8.3654766
180.9631 -102.19974 0.48310199
182.13542 -102.04303 0.159557
182.64209 -102.16882 -5.54845
180.42589 -102.19131 -6.7448821
180.46149 -102.16228 -6.8374648
180.30464 -102.1692 -8.4053268
181.90813 -101.8839 0.283537
186.14432 -101.80852 0.091182001
184.55942 -101.90082 -4.7360539
180.33673 -101.82979 -8.2850571
180.32253 -101.81934 -8.404562
188.77473 -101.74998 -7.90592
181.67285 -101.59981 0.40277001
185.82812 -101.4971 0.246407
181.8512 -101.41791 -5.6846271
181.0246 -101.26698 0.53554702
182.5296 -101.31007 0.236476
181.52013 -101.06554 0.51214701
181.8707 -101.1656 0.436719
186.09073 -101.09502 0.405108
182.56995 -101.15788 0.245895
187.15756 -101.1647 -0.123878
180.67398 -101.19768 -8.3502407
180.23622 -101.12413 -8.5280876
181.0939 -100.96867 0.544083
186.45105 -100.80055 0.419332
186.89203 -100.92389 0.144896
180.97263 -100.84715 -5.7281752
186.71402 -100.70962 0.227367
180.65123 -100.68982 -6.1455278
191.17236 -100.68596 -8.2095156
183.83797 -100.71164 -8.696353
183.71164 -100.78674 -8.9234104
182.25804 -100.56049 0.43555501
186.901 -100.538 0.20836499
181.36127 -100.56577 -7.0653028
182.23608 -100.22981 -3.325279
181.28265 -100.32983 -4.6714978
180.84933 -100.31602 -5.852252
182.9313 -100.28075 -9.0328388
180.2417 -100.19418 0.53275001
182.54477 -100.12959 0.32916999
185.88324 -100.10735 0.315081
185.48808 -100.03621 -2.287796
185.67374 -100.04779 -2.381875
182.17491 -100.09628 -3.609314
184.76228 -100.03115 -7.820302
183.06036 -119.90881 -1.295833
183.11063 -119.98762 -1.729574
180.22522 -119.69474 -8.6319618
182.29709 -119.43189 -1.049323
182.36906 -119.4785 -1.2419651
181.07381 -119.47942 -6.6346202
180.64919 -119.30335 -2.211385
180.63614 -119.25084 -2.4593489
180.82193 -119.39008 -2.896553
180.73172 -119.32649 -3.6386609
180.87369 -119.35448 -3.8735771
181.01196 -119.3868 -4.6656809
184.86392 -119.01192 -0.52237898
186.89676 -119.0956 -3.6812129
184.53732 -118.9062 -0.185597
181.00696 -118.93722 -0.496995
184.51602 -118.8969 -0.60030502
184.54204 -118.90551 -0.93948501
180.57529 -118.89597 -1.739432
180.44812 -118.91223 -2.4683111
180.44695 -118.90025 -3.5432601
180.60654 -118.95719 -4.988533
180.50516 -118.89413 -5.5458388
184.41986 -118.78189 -0.193317
184.36774 -118.69591 -0.56356102
184.43085 -118.7405 -0.482416
180.96194 -118.72084 -1.031178
193.91077 -118.61221 -1.106344
184.43994 -118.74314 -1.980484
184.35793 -118.75169 -2.1561329
184.48228 -118.76104 -2.451133
184.36504 -118.63478 -3.49137
184.42732 -118.65247 -3.669379
184.55547 -118.68638 -4.7461839
184.5546 -118.63165 -6.120996
184.6167 -118.62233 -7.350997
193.15686 -118.5717 -1.058064
180.23247 -118.51343 -2.9868929
183.5835 -118.49158 -4.5319681
180.47249 -118.44757 -4.6665201
184.49278 -118.59325 -6.954977
180.56348 -118.27403 -1.099834
180.29735 -118.24731 -1.8875951
180.50546 -118.25381 -3.7360251
184.23032 -118.37341 -5.3053398
182.12656 -118.0886 -1.39543
180.11035 -117.85262 -1.212194
181.90375 -117.82722 -1.367118
181.15173 -117.84898 -1.7889169
181.30499 -117.84501 -4.3911958
181.05194 -117.88336 -4.6102648
185.68079 -117.82994 -6.4268289
198.88403 -117.65887 -0.25784001
182.05194 -117.75932 -1.310989
185.72159 -117.64786 -3.4715719
180.38356 -117.51701 -0.84307897
182.12401 -117.51698 -1.198612
180.51254 -117.3336 -0.41244799
183.88512 -116.92614 -3.383795
183.55672 -116.99255 -3.5628021
184.66376 -116.98602 -3.610245
185.27501 -116.51423 -3.644567
189.41234 -116.20665 -3.8273699
186.05243 -116.3124 -4.5749269
182.2968 -116.39748 -8.5812626
180.25601 -116.14169 -1.299885
191.63409 -115.84639 -0.46623999
180.60544 -115.96575 -1.1739939
182.17818 -115.67837 -0.91302502
182.3429 -115.60724 -1.418149
194.60483 -115.47337 -0.21156
182.38785 -115.2901 -0.77345097
181.92297 -115.36329 -0.91495502
182.18756 -115.24417 -0.91593498
182.44287 -115.21308 -0.916013
184.09769 -115.20578 -4.3571348
180.82001 -115.22713 -5.3708401
180.80325 -115.18305 -0.79553401
181.91556 -115.00708 -1.052632
180.83965 -115.0334 -7.2985482
182.17102 -114.98802 -0.782013
180.18784 -114.88783 -0.80401498
181.47485 -114.80596 -1.3468601
183.63681 -114.65485 -0.769916
180.34818 -114.6996 -0.86444098
182.33316 -114.68861 -0.93079799
180.36896 -114.62021 -3.5550699
183.70264 -114.65317 -3.644083
181.9082 -114.74445 -6.2215509
181.69774 -114.41507 -1.956331
180.85808 -114.49263 -2.119226
184.34247 -114.59207 -2.3300569
182.31808 -114.27498 -0.75150901
181.5849 -114.28842 -0.87857199
182.31938 -114.29118 -0.85987598
185.00562 -114.1226 -0.702402
182.72682 -113.8958 -0.099798001
182.23749 -113.87152 -0.87464499
180.25084 -113.80376 -2.138056
197.3004 -113.83132 -11.290153
181.84557 -113.51894 -1.960058
182.54707 -113.52304 -3.9330609
181.91672 -113.40031 -4.4512849
180.343 -113.3765 -0.456707
183.9176 -113.25875 -0.74491203
181.64359 -113.28648 -0.87493598
182.24338 -113.28659 -0.90670002
180.9021 -113.27694 -1.0742871
181.20653 -113.34978 -1.370388
181.19958 -113.26478 -1.821164
182.10965 -113.29803 -1.967001
182.87225 -113.06625 -1.302006
180.79387 -113.16691 -2.2943389
181.96603 -112.85564 0.036047
180.98904 -112.97285 -1.031418
181.96991 -112.68826 0.111966
180.87509 -112.77866 -0.96506101
182.47607 -112.73428 -1.842142
180.65799 -112.69989 -10.104482
181.26978 -112.70661 -10.33254
182.12967 -112.59695 -0.197062
184.09778 -112.50529 -0.38073599
181.38818 -112.25121 -0.26662201
182.47714 -112.38531 -3.3536301
181.82037 -112.09563 -0.147753
187.74275 -112.01058 -0.65003598
183.14853 -112.036 -1.718576
184.22992 -111.98534 0.091645002
183.8387 -111.92003 -1.635474
184.09241 -111.91422 -1.6572599
186.06454 -111.79231 -0.40187001
183.22522 -111.63894 -7.2545781
182.30003 -111.53069 0.098917
187.15817 -111.42628 -0.72123098
187.74191 -111.53264 -0.65869701
181.38644 -111.28259 0.122953
185.53729 -111.33891 -0.316966
185.38367 -111.34078 -0.65171403
185.34183 -111.20966 -0.88627398
187.20413 -111.15156 -1.023504
183.46973 -111.08411 -3.518575
181.82179 -110.92791 0.123424
182.42471 -110.99923 0.096440002
184.13406 -110.93493 -0.06151
185.33516 -110.9811 -0.65757501
183.34319 -110.68383 0.063785002
183.659 -110.62874 -0.120914
183.29524 -110.52802 -0.077496998
185.72021 -110.54323 -0.86939102
183.13983 -110.39363 0.041932002
184.5311 -110.29662 -0.225541
186.48505 -110.11179 -0.59333497
185.81946 -110.19783 -0.85102803
181.86441 -109.9692 0.115257
186.28172 -109.8521 -0.479229
186.4892 -109.88723 -0.56387699
183.45114 -109.73363 -0.145034
180.98062 -109.64845 -1.072534
180.32533 -109.78425 -1.22895
187.0127 -109.62282 -1.5012389
187.52032 -109.62083 -4.3587399
183.48322 -109.63837 -6.5046959
183.2457 -109.4263 0.054738998
186.48897 -109.5069 -0.35987899
183.16611 -109.3837 -0.0040159998
186.63193 -109.29349 -1.759717
183.46301 -109.11884 -0.034781002
182.83328 -109.0613 -3.5474081
196.29843 -109.06401 -4.0693798
182.79686 -108.94913 -3.537971
196.38162 -108.89006 -3.9594729
184.93291 -108.98531 -5.8381371
183.45602 -108.79178 -0.007342
182.50624 -108.58929 0.171866
182.96024 -108.55945 0.099370003
180.31102 -108.57609 -10.592481
195.28726 -108.24664 -4.692924
182.70961 -108.01767 0.171538
184.14536 -108.00266 -3.1032491
196.82692 -108.00916 -3.2848361
182.97235 -107.91363 0.210483
181.34482 -107.88399 -0.59528202
181.45676 -107.9062 -1.286495
184.21957 -107.84106 -3.622963
195.12782 -107.91092 -5.56144
183.87811 -107.79538 0.13475101
181.01537 -107.67639 -1.488302
192.31583 -107.64365 -8.0862455
180.02211 -107.48141 -1.135358
181.70258 -107.46879 -4.642139
184.31848 -107.4292 -6.163084
181.13254 -107.52641 -7.441226
183.42233 -107.3427 0.233317
196.4474 -107.34225 -0.21852601
194.67734 -107.21291 -2.404552
181.01631 -107.20926 -4.74578
196.51613 -107.17119 -0.33044699
184.68283 -106.90926 0.14773799
197.31812 -106.8046 -0.361846
182.11403 -106.62152 0.17681
195.88731 -106.78858 0.016656
195.89049 -106.65266 -1.912569
194.59692 -106.63051 -4.1410308
180.33658 -106.49608 -0.67744899
180.3793 -106.56337 -0.86728799
180.43745 -106.4959 -0.97727799
180.49371 -106.44437 -1.668187
183.05064 -106.48577 -8.2641439
184.49374 -106.2566 0.130015
181.45909 -106.28481 -0.40448999
180.50967 -106.27786 -1.681599
196.4156 -106.12021 -3.810091
181.06172 -105.90605 0.039122999
196.98128 -105.91341 -0.71930802
193.90802 -105.89558 -3.921561
180.92783 -105.84829 -5.0870109
183.44688 -105.7007 0.124961
196.95169 -105.67862 -1.025426
195.5498 -105.72339 -2.2281699
182.36856 -105.47639 0.087219
185.03479 -105.52186 0.108951
195.66872 -105.5206 -0.66098899
195.65933 -105.52293 -3.96786
198.45782 -105.5472 -3.940167
181.68875 -105.38314 0.11255
195.56987 -105.30849 -0.120209
195.61206 -105.24323 -0.63773
196.05472 -105.32671 -1.921628
196.07884 -105.32185 -2.283093
184.53104 -105.36328 -8.7305222
195.62015 -105.13525 -0.57234001
196.95137 -105.06939 -0.55366099
195.7012 -105.03944 -0.80227399
194.61546 -105.0071 -6.5361328
