# .PCD v0.7 - Point Cloud Data file format
VERSION 0.7
FIELDS x y z
SIZE 4 4 4
TYPE F F F
COUNT 1 1 1
WIDTH 1521
HEIGHT 1
VIEWPOINT 0 0 0 1 0 0 0
POINTS 1521
DATA ascii
184.33029 -173.36139 -5.4229741
184.25362 -173.30963 -6.1956878
184.26828 -173.25537 -6.4963078
184.33301 -173.2757 -7.3372931
184.3299 -173.38708 -9.815279
183.17538 -173.12515 -2.0785899
184.06775 -173.09079 -3.459636
184.08087 -173.07115 -4.119493
184.10936 -173.0887 -5.272378
184.50786 -173.17313 -5.2586441
183.28009 -173.09038 -5.463254
184.08556 -173.12218 -5.7727699
184.2012 -173.10793 -5.6038852
184.13297 -173.06799 -6.1883988
183.99026 -173.00009 -6.5376391
184.08815 -173.12405 -9.3588228
183.78502 -172.87277 -3.547806
183.76163 -172.81784 -4.1624451
183.8045 -172.85651 -4.652617
183.69151 -172.80121 -5.0975699
184.20128 -172.96075 -5.0140448
180.24765 -172.90906 -5.216177
183.88373 -172.88733 -5.4224958
183.91502 -172.91693 -5.7691412
183.94153 -172.94131 -6.1789241
184.11981 -172.97881 -6.6041069
183.43556 -172.73705 -2.715591
183.66867 -172.7402 -3.7397809
183.48308 -172.66534 -4.1636968
183.5314 -172.62381 -4.6588349
183.88821 -172.79314 -4.967927
183.66743 -172.72614 -5.4026999
183.76422 -172.75095 -5.7477279
183.73633 -172.74454 -6.209394
183.48978 -172.63359 -6.4280748
183.78413 -172.7222 -6.5046558
183.7197 -172.69427 -7.13065
183.44806 -172.63695 -8.0316792
183.71696 -172.74469 -9.4116068
183.44107 -172.58929 -5.032279
183.40848 -172.58191 -5.3686228
183.47762 -172.56287 -5.7603998
183.43466 -172.59338 -6.174129
183.58891 -172.58127 -7.1273298
183.54025 -172.48982 -7.6668081
183.79922 -172.59512 -8.3896351
183.43036 -172.55151 -8.7006187
183.33289 -172.51447 -9.448204
183.22614 -172.29254 -3.0576961
183.26227 -172.23779 -4.6345711
183.26126 -172.26822 -5.0173302
183.3546 -172.37231 -5.4268169
183.28378 -172.23987 -5.751214
183.32172 -172.30788 -6.1802368
183.3609 -172.27048 -6.5095291
183.40407 -172.30145 -8.3414927
183.22334 -172.28261 -10.929329
183.15137 -172.26332 -11.144177
183.03375 -172.09273 -2.3156719
183.00749 -172.12022 -2.9600811
183.14105 -172.17876 -3.4293711
183.23398 -172.16733 -4.1747451
183.10133 -172.08234 -5.4260998
183.04283 -172.03806 -5.7738199
183.17072 -172.02599 -6.5196929
183.42122 -172.14383 -7.6706872
183.16843 -172.05193 -8.6945238
183.31952 -172.17496 -8.6798697
182.95197 -172.0265 -10.032715
182.63629 -171.80281 -1.839564
182.92625 -171.8232 -5.4349508
182.95049 -171.89911 -5.771843
182.95047 -171.87335 -6.1766949
182.95374 -171.80771 -8.678586
182.73456 -171.78246 -2.1697979
182.75107 -171.75941 -3.5011411
180.4019 -171.7921 -4.4064908
182.91721 -171.66745 -4.9424782
182.72058 -171.64308 -5.5530858
182.72006 -171.65796 -6.009295
182.89729 -171.77039 -6.5071988
182.74718 -171.65132 -6.605536
182.63423 -171.67947 -10.0069
182.25577 -171.53348 -1.904436
182.26097 -171.40132 -2.8748701
182.50754 -171.51009 -3.4752901
182.67239 -171.45564 -5.0290618
182.56226 -171.43449 -5.3853421
182.58725 -171.49454 -5.7528729
182.54578 -171.41818 -6.175426
182.61813 -171.44472 -6.9424758
182.32887 -171.31271 -3.4955001
182.26068 -171.26486 -3.931411
182.34265 -171.26871 -4.1945639
182.32166 -171.27849 -4.6153712
182.34045 -171.30508 -5.0281119
182.36983 -171.34433 -5.7687321
182.51302 -171.38838 -6.4853692
182.09178 -171.12018 -1.545537
182.13364 -171.10013 -3.565568
182.17776 -171.12527 -5.0303369
182.18666 -171.09491 -5.4061031
182.1803 -171.0229 -6.1670251
182.18498 -171.02574 -6.5077758
182.16405 -171.00974 -6.8146071
181.97046 -170.974 -3.508327
182.06348 -170.92831 -4.2200928
181.90567 -170.8389 -4.604701
182.15947 -170.98885 -5.77284
182.11615 -170.99356 -9.6806126
181.70917 -170.65924 -2.7387409
181.68823 -170.66455 -3.063657
181.78033 -170.68765 -3.478646
181.85855 -170.7326 -4.6899581
181.76138 -170.64565 -5.4155378
181.94751 -170.75754 -6.810307
181.83453 -170.64227 -7.7274232
181.50519 -170.55704 -1.988378
181.55779 -170.51993 -2.118752
181.53099 -170.50403 -2.5212569
181.40829 -170.46999 -2.9800079
181.58328 -170.50856 -3.281291
181.55675 -170.41122 -3.6364889
181.5434 -170.50806 -4.0107431
181.69043 -170.57716 -4.2682381
181.53473 -170.50327 -4.6110172
181.74738 -170.52969 -5.757833
181.83434 -170.55954 -6.6414652
181.83203 -170.57196 -7.5494761
181.74731 -170.58223 -9.6236324
181.31155 -170.35223 -2.1810939
181.33766 -170.22215 -3.3881171
181.36243 -170.22322 -4.3245831
181.33191 -170.23007 -4.666245
181.45537 -170.2682 -5.4857178
181.42453 -170.22388 -5.7685199
181.43977 -170.29991 -6.5407548
181.59999 -170.33989 -6.8281898
181.46599 -170.27287 -7.832469
181.3374 -170.26913 -9.5076256
181.46364 -170.30066 -10.377493
181.14201 -170.07318 -2.2103541
181.17574 -170.1013 -4.0197558
181.16069 -170.01678 -4.534893
181.19524 -170.07437 -5.1240311
181.31345 -170.12772 -5.0015841
186.00943 -170.18245 -9.1103334
181.28117 -170.19839 -9.7708321
181.04944 -169.89175 -4.230762
181.14189 -169.83344 -4.5690961
181.04155 -169.81616 -6.196341
181.16412 -169.83801 -7.1807098
180.74963 -169.65836 -2.131757
180.87808 -169.77661 -2.284353
180.54381 -169.62918 -2.9663379
180.85641 -169.70544 -3.386518
181.13852 -169.76944 -5.0696559
181.01733 -169.78261 -5.535789
180.94431 -169.68939 -5.7536831
181.10503 -169.77769 -6.6962008
180.56775 -169.4915 -1.724326
180.55367 -169.4377 -2.216176
180.53555 -169.43167 -2.6741531
180.90878 -169.53819 -6.8160119
180.33699 -169.28012 -2.0624609
180.36562 -169.23192 -2.592948
180.39816 -169.20758 -3.3016169
180.48268 -169.34895 -3.471241
180.52141 -169.3627 -3.713757
180.66309 -169.34369 -4.6440392
180.55617 -169.25861 -5.5371881
180.69016 -169.39259 -5.7716708
180.68216 -169.24394 -6.5516481
180.1113 -169.03006 -1.776685
180.17328 -169.01399 -2.298342
180.49924 -169.09921 -4.5660472
180.49782 -169.14688 -5.7756019
180.06754 -168.85294 -3.412446
180.17181 -168.86525 -5.7644539
180.0218 -168.78879 -2.6817479
180.10445 -168.61313 -4.52004
180.07573 -168.72006 -5.6854348
187.1718 -168.61665 -8.6554079
180.17444 -167.23404 -3.2924299
180.04967 -167.22359 -3.7492731
180.03452 -167.20622 -4.0609961
180.13995 -167.05276 -3.4315979
180.34659 -166.86722 -2.6134629
180.19226 -166.99242 -4.541378
180.40747 -166.85257 -5.2531891
180.23965 -166.92368 -7.0788488
180.23433 -166.94963 -8.2618637
180.31854 -166.54858 -2.1385829
180.81819 -166.41322 -2.199497
180.39899 -166.57584 -3.0785749
180.38358 -166.59624 -3.3640299
180.55952 -166.56743 -3.4026041
180.8371 -166.4613 -3.651289
180.62921 -166.54718 -4.573472
180.55209 -166.59787 -5.820437
180.59509 -166.54697 -7.8030601
180.94365 -166.24016 -6.6089621
180.70198 -166.26849 -9.3854246
180.66759 -166.24721 -9.8703299
180.03072 -166.11472 -2.245311
181.1214 -166.10165 -2.571888
180.0412 -166.1035 -3.220845
181.04288 -166.1752 -4.5818748
181.03989 -166.18384 -5.8442001
180.99924 -166.12903 -6.8388281
180.06754 -165.81862 -2.7306991
181.39169 -165.90454 -3.815763
181.42784 -165.80048 -4.2236009
181.38504 -165.85953 -6.6254282
181.04601 -165.90898 -9.9077101
182.06131 -165.62306 -2.231122
181.99072 -165.72336 -3.0876031
181.45703 -165.72223 -3.8189039
184.39543 -165.63574 -4.7683802
181.76378 -165.7032 -5.3116331
181.50711 -165.73627 -5.6593418
181.45148 -165.74121 -8.0596247
181.77032 -165.51627 -5.7977591
181.80289 -165.51587 -6.4743671
182.11353 -165.23788 -7.979177
182.62918 -165.09897 -2.5957179
182.66887 -165.01225 -3.3074501
182.46129 -165.1555 -3.5155511
182.28336 -165.0551 -5.8371429
182.18449 -165.04858 -8.1320105
182.87152 -164.93268 -2.677851
182.82802 -164.91949 -2.9531989
182.35977 -164.86279 -5.5105829
182.43243 -164.88928 -6.5025969
182.06715 -164.95491 -9.2763338
182.93575 -164.60422 -2.2272999
182.85818 -164.66206 -3.317878
182.86046 -164.57069 -2.9620409
182.91086 -164.47542 -3.239773
182.93051 -164.43552 -6.5689712
182.88495 -164.4178 -8.2039604
183.25916 -164.21756 -3.00669
183.09363 -164.34364 -4.0544429
183.35042 -164.14426 -3.6997881
183.24457 -164.17168 -5.681891
183.50632 -163.83423 -6.3207989
184.17581 -163.53641 -3.127517
183.72589 -163.41656 -9.5097418
184.23752 -163.3904 -2.1554229
184.30713 -163.349 -3.356626
184.43726 -163.24861 -4.8249741
184.28488 -163.24208 -6.5365219
183.95175 -163.39417 -7.4462972
184.52675 -163.01291 -3.264009
184.47827 -163.05052 -3.74138
184.49307 -162.94354 -5.9289341
184.53156 -162.95334 -7.7680879
184.89465 -162.68629 -1.806533
184.68826 -162.77057 -4.8862391
184.97963 -162.5634 -3.765523
184.94456 -162.54256 -5.957736
184.9041 -162.53346 -8.0508518
185.3338 -162.26543 -3.7769461
185.31607 -162.26001 -6.583744
185.47595 -162.15497 -2.6516421
185.60037 -162.06958 -2.998198
185.4259 -162.1011 -4.5742669
185.42465 -162.18246 -5.037797
185.56583 -161.97304 -3.8992181
185.80553 -161.84836 -4.0893922
185.59613 -161.92839 -4.8081732
185.83197 -161.76556 -6.6085181
186.19006 -161.48918 -2.1974039
185.93143 -161.57924 -6.918982
186.45734 -161.26952 -4.1342969
186.47372 -161.205 -6.285387
186.13321 -161.27806 -9.7292395
186.37517 -161.17567 -1.555549
186.64691 -161.07196 -4.1422782
186.6376 -161.01239 -6.6259589
186.83508 -160.83981 -2.5127971
186.83044 -160.85287 -3.8879449
186.99248 -160.70514 -4.0881271
186.93634 -160.6273 -6.2904472
187.30472 -160.43153 -3.807044
187.02954 -160.51411 -8.3583698
187.0101 -160.44722 -8.757947
187.40941 -160.30322 -3.801367
184.72357 -179.72166 -2.431113
184.81094 -179.26318 -4.3866811
184.82086 -178.87123 -2.4410551
184.87552 -178.86514 -4.6717882
184.88095 -178.68622 -2.313982
184.89786 -178.7305 -4.3507361
186.59164 -178.61438 -9.2698078
186.42834 -178.44275 -5.6433892
186.33269 -178.24286 -5.0191488
186.46332 -178.28998 -8.2344666
185.04793 -178.13124 -2.498908
185.0685 -178.14145 -3.3088
185.06287 -178.19292 -4.548852
186.33649 -178.1955 -5.7184691
186.35202 -178.19382 -6.264905
186.43637 -178.08133 -9.3243399
180.64539 -177.90829 -3.0929
180.54532 -177.90836 -3.5273831
180.74582 -177.89316 -3.4926791
186.36266 -177.98441 -7.014183
186.44897 -177.8558 -9.3033056
180.24426 -177.79253 -2.2883749
180.2867 -177.79182 -2.6885159
180.22891 -177.72006 -3.5171609
181.32515 -177.63887 -3.529418
180.38452 -177.4453 -2.3625331
181.39346 -177.56866 -2.511878
180.19261 -177.42426 -3.006444
180.11304 -177.50635 -3.5374119
180.45837 -177.571 -3.7576621
187.02249 -177.49335 -4.709096
188.9832 -177.46809 -6.3211269
186.91774 -177.48837 -8.5884113
185.66069 -177.26086 -2.9447019
187.22998 -177.3269 -5.1956768
189.20174 -177.29555 -7.0296588
187.32437 -177.27313 -8.3026333
187.14697 -177.39059 -10.27285
185.81979 -177.12204 -2.470711
185.81506 -177.04578 -4.2364259
188.90109 -177.14598 -6.7155442
187.66019 -177.02702 -7.057014
182.10663 -176.85504 -2.0149939
182.19733 -176.92755 -3.497601
187.6456 -176.93799 -4.1442752
187.47752 -176.9541 -4.8758039
187.50275 -176.99339 -5.7342291
187.48154 -176.99448 -8.311017
187.45319 -176.99471 -9.3826752
187.4252 -176.90253 -9.7461824
187.46896 -176.90895 -10.084455
187.33786 -176.75122 -2.4585481
182.38196 -176.66936 -3.1129079
187.32236 -176.61069 -4.6787891
187.26114 -176.60747 -4.8831182
187.35677 -176.67036 -5.3399148
187.41643 -176.66202 -5.8159761
187.36337 -176.65041 -6.0562148
187.47783 -176.66089 -6.672853
187.46059 -176.71545 -7.1459708
187.54276 -176.71426 -7.4763851
187.64941 -176.67354 -8.3353186
187.32858 -176.70107 -9.5969372
182.86017 -176.46111 -2.6526639
187.14732 -176.49005 -3.365077
187.13222 -176.42197 -5.6986742
187.17972 -176.46796 -6.066422
187.36816 -176.49252 -7.8104668
187.05551 -176.43121 -9.7244244
187.24356 -176.51163 -9.6986237
187.14844 -176.44734 -10.061456
187.34029 -176.55638 -10.123017
182.76187 -176.27884 -2.194911
182.97148 -176.21768 -2.5889699
182.84885 -176.29077 -2.628958
186.96039 -176.29712 -3.0595951
186.94377 -176.2536 -4.706965
187.0383 -176.30197 -5.413218
187.23718 -176.36348 -6.4077702
187.18736 -176.3165 -6.6697898
187.177 -176.24028 -8.389596
186.71025 -176.09045 -3.0308321
186.71628 -176.06805 -3.336827
186.72415 -176.07639 -4.2952771
186.7477 -176.04707 -4.6943431
186.73679 -176.03125 -5.6996059
186.94327 -176.18712 -5.788157
186.901 -176.15503 -6.2574148
187.01939 -176.17487 -7.3618469
186.90057 -176.17361 -8.9060831
186.74898 -176.11966 -9.7204742
186.83475 -176.14061 -9.7532301
186.96246 -176.10486 -10.139191
186.59851 -175.86481 -3.0656719
186.52855 -175.9046 -3.3570819
186.53593 -175.82739 -4.7211332
186.66687 -175.87146 -4.994782
186.63161 -175.86874 -6.1487932
186.81239 -175.96327 -7.524498
186.62245 -175.85065 -8.9058876
186.52818 -175.85246 -9.7202702
186.25578 -175.63544 -3.0685811
186.34799 -175.68433 -3.3524759
186.32268 -175.65231 -4.3545122
186.50165 -175.77168 -4.2582059
186.36002 -175.60129 -4.7851138
186.38197 -175.65309 -5.7059202
186.51451 -175.7213 -5.7956252
186.54004 -175.69119 -6.6076269
186.54207 -175.64491 -7.4621449
186.71884 -175.6568 -8.2441463
186.87424 -175.74854 -8.2301636
186.38194 -175.6098 -10.058777
186.41199 -175.58887 -2.3168659
183.81604 -175.42287 -2.600826
186.25684 -175.47955 -3.093091
186.12958 -175.44858 -3.361732
183.47812 -175.56842 -3.840291
186.1869 -175.44406 -4.7317281
186.43256 -175.53961 -5.012465
186.51328 -175.56967 -6.7109318
186.19391 -175.4256 -9.8696823
184.06929 -175.21309 -3.4104781
185.93561 -175.24405 -3.4085481
183.80122 -175.34668 -3.754899
185.97275 -175.29457 -4.2085381
185.99292 -175.23293 -4.798111
185.95305 -175.22447 -5.6974549
186.18752 -175.382 -5.8848362
186.19113 -175.38449 -6.1440201
186.24521 -175.354 -6.640224
186.41528 -175.28011 -8.7147207
186.14476 -175.34085 -10.058613
185.80492 -175.11508 -2.651067
185.74232 -175.04846 -4.2110052
185.82053 -175.04752 -4.6961122
186.04337 -175.19901 -4.6861629
185.82812 -175.06844 -5.021296
185.85263 -175.08176 -5.3995552
185.89737 -175.0932 -6.1403689
186.08292 -175.12 -6.5566249
185.98253 -175.0806 -7.4470148
184.44635 -174.86317 -2.420609
184.21745 -174.98526 -3.521698
185.64189 -174.88919 -4.1743808
185.57739 -174.91084 -4.2026
185.75226 -174.89835 -4.6422491
185.56673 -174.96654 -5.3979959
185.58203 -174.85107 -5.7041531
185.81213 -174.94916 -6.157115
185.79572 -174.91899 -6.5428982
185.77605 -174.94267 -6.8877692
185.81685 -174.8913 -7.5192552
185.89929 -174.82782 -8.3931599
186.15036 -174.93195 -8.7195873
185.79222 -174.8896 -9.3540106
185.79089 -174.98846 -9.9198818
184.65344 -174.64468 -2.3500209
185.38135 -174.63545 -4.2770872
185.43318 -174.75449 -4.879168
185.45723 -174.68927 -5.104866
185.49887 -174.72086 -5.419889
185.57588 -174.7422 -7.3485141
185.72629 -174.73634 -7.7063751
185.8047 -174.69284 -8.7148209
185.55817 -174.76019 -10.081893
184.8222 -174.44592 -3.031204
185.34135 -174.56694 -4.738214
184.61798 -174.48665 -5.4828901
185.36165 -174.547 -5.7432809
185.38277 -174.5648 -6.1718459
185.36429 -174.47287 -6.5503139
185.52391 -174.59343 -7.509418
185.46835 -174.51462 -7.6552658
185.09659 -174.21983 -5.0306249
185.24936 -174.35783 -5.5919638
185.07507 -174.20537 -6.1605458
185.29558 -174.35338 -6.1149631
185.28168 -174.26537 -7.4927731
185.07758 -174.22623 -9.4288406
185.08099 -174.14948 -4.7238598
185.05984 -174.09975 -5.2891221
185.00391 -174.16313 -5.7313318
185.07315 -174.17937 -6.5159588
185.06421 -174.0793 -7.0201411
185.17407 -174.13292 -8.4886408
185.29047 -174.12857 -8.4256439
184.97069 -173.80618 -4.6523108
185.06735 -173.85645 -4.852345
185.0731 -173.91017 -5.0707288
184.84753 -173.92711 -6.144753
184.951 -173.89453 -7.3417969
184.67891 -173.81728 -8.9054747
184.65063 -173.71014 -3.682375
184.64883 -173.70624 -4.1072621
184.8614 -173.78754 -5.3228269
183.81487 -173.66158 -5.4705272
184.65262 -173.68958 -5.7277918
184.61121 -173.71452 -6.1879072
184.71402 -173.79456 -6.5647469
184.67644 -173.76376 -9.3753967
184.4754 -173.43127 -2.958729
184.29497 -173.41441 -3.711657
184.25359 -173.40057 -4.2251749
184.50514 -173.48065 -6.1882558
184.50494 -173.55116 -6.595479
184.31784 -173.42105 -8.953043
184.10808 -173.21436 -2.3930521
184.34442 -173.38329 -4.6335001
184.58482 -173.35294 -5.0445781
184.23715 -173.26062 -5.778008
184.27505 -173.34338 -6.2018361
184.28387 -173.34323 -6.588181
191.11949 -173.326 -9.0556602
184.28799 -173.3317 -9.3811321
184.11731 -173.09827 -3.731859
180.3042 -173.12193 -4.4478869
184.24261 -173.09674 -4.6469212
184.28293 -173.01416 -5.0547862
184.20747 -173.06209 -5.2497721
184.09842 -173.11905 -6.2048378
184.07918 -173.0657 -6.5472832
184.17607 -173.10941 -7.34407
184.4202 -173.17122 -8.3403072
184.16187 -173.13882 -9.3235569
183.48032 -172.87726 -1.8565969
183.83789 -172.85611 -5.0205951
183.9133 -172.94687 -6.2065482
183.8858 -172.91945 -6.624711
184.04855 -172.99922 -6.8921099
183.95901 -172.82848 -7.33183
183.96777 -172.87662 -7.8952918
183.95625 -172.93866 -9.3209343
183.48837 -172.64064 -4.2408161
183.74963 -172.76794 -4.2161288
184.1105 -172.69955 -5.104434
183.64948 -172.73618 -5.3256011
183.74104 -172.76596 -6.211442
183.75815 -172.70963 -7.151752
183.74896 -172.66727 -7.451653
183.77081 -172.65154 -7.9362879
183.77948 -172.65744 -8.6017551
183.69522 -172.71269 -9.3537092
183.45023 -172.59564 -5.081985
183.41191 -172.56873 -5.3506351
183.4982 -172.59991 -5.714016
183.43604 -172.55566 -6.204977
183.39853 -172.5881 -6.5350041
183.44513 -172.55171 -6.6571598
183.52081 -172.51921 -7.0966568
183.38815 -172.51721 -8.6396542
183.44647 -172.58728 -9.4712095
183.46211 -172.54779 -9.8644485
183.25203 -172.2652 -4.5711799
183.28357 -172.28584 -5.1031818
183.24306 -172.22171 -5.695045
183.39412 -172.3992 -6.505806
183.23517 -172.21902 -6.614491
183.30978 -172.23763 -7.0997429
183.33521 -172.25153 -8.221983
183.2648 -172.3559 -9.3586807
183.22733 -172.23534 -9.8512144
183.25504 -172.29872 -10.650854
183.13873 -172.15616 -3.819169
183.19157 -172.09601 -4.6743102
183.17706 -172.06726 -5.1509442
183.12112 -172.14809 -5.3706808
183.07529 -172.06403 -5.7401309
183.10315 -172.05235 -6.6014051
183.31161 -172.17998 -7.7145038
183.28781 -172.12799 -8.6654606
183.07529 -172.07504 -10.073595
182.96051 -171.86703 -7.1041169
183.18924 -171.88971 -7.6673908
188.17902 -171.93291 -7.7638292
182.94235 -171.87778 -9.9553909
182.65605 -171.79108 -2.0919819
182.73618 -171.73184 -5.5752578
182.72598 -171.66306 -6.62885
182.78323 -171.66768 -7.1693492
182.99992 -171.79448 -7.2949219
182.6929 -171.66788 -10.066087
182.32921 -171.54211 -2.0670021
182.49405 -171.4897 -2.659122
182.89958 -171.42473 -5.1471992
182.56604 -171.48709 -5.461926
182.53065 -171.46927 -5.7008419
182.51587 -171.45917 -6.6557961
182.58173 -171.53937 -10.072735
182.18077 -171.34457 -1.830876
182.28264 -171.32056 -3.895534
182.30049 -171.27226 -4.2604079
182.41037 -171.35202 -4.2515378
182.25815 -171.25552 -4.5291338
182.58575 -171.39003 -4.5437632
182.34109 -171.29465 -5.2863512
182.38 -171.33652 -5.6958919
182.36412 -171.29362 -6.2415929
182.39659 -171.30844 -6.7821808
182.5797 -171.32697 -7.3277268
182.15402 -171.13676 -3.1086359
182.09091 -171.11935 -3.3938019
182.16222 -171.0433 -4.2429662
182.11212 -171.03346 -4.6737881
182.2619 -171.12766 -5.1492949
182.10864 -171.01569 -5.6987338
182.18912 -171.08417 -6.6540399
182.18945 -171.03909 -7.0677009
182.28091 -171.07585 -7.4371209
181.91171 -170.95465 -2.5067999
181.91891 -170.8761 -3.030484
181.94171 -170.86069 -3.8270171
181.94859 -170.92311 -4.526474
181.93582 -170.8373 -5.0539198
181.84189 -170.80121 -5.2995729
182.08701 -170.96059 -10.0212
181.7235 -170.65521 -3.372227
181.7345 -170.65469 -4.256413
184.33693 -170.78578 -4.212245
181.75662 -170.71771 -4.500001
181.7749 -170.64069 -5.6987572
181.76552 -170.61293 -6.747623
181.31668 -170.43979 -2.1333499
181.55658 -170.48703 -4.1909962
181.46782 -170.46188 -4.5087109
181.58713 -170.51682 -5.1191578
181.56812 -170.47948 -5.6600771
181.6778 -170.53706 -6.240202
181.78033 -170.59018 -7.131372
181.82472 -170.52127 -8.3598747
181.3725 -170.30219 -4.267724
181.34912 -170.24496 -4.600677
181.39809 -170.23958 -5.708385
181.45471 -170.26195 -7.4972711
181.1752 -170.04213 -3.797158
181.14377 -170.03073 -4.5456858
180.49443 -170.08612 -5.3680739
181.35695 -170.1897 -6.704627
181.3737 -170.15637 -7.080214
181.07716 -169.94304 -4.2488208
181.08084 -169.82716 -4.5435238
181.06564 -169.85568 -10.225368
180.77841 -169.64792 -1.632017
180.74237 -169.73355 -2.0993519
180.91324 -169.72957 -3.18413
180.98077 -169.75273 -3.80879
185.47441 -169.78906 -5.2988191
180.79961 -169.6188 -5.7370019
181.06134 -169.78146 -6.7041059
180.55074 -169.46127 -1.842737
180.93132 -169.45148 -5.0748148
180.68481 -169.42596 -5.7669802
180.8951 -169.5517 -6.8661909
180.6794 -169.46811 -9.7195148
180.37279 -169.24484 -1.967448
180.56396 -169.34023 -5.550456
180.59636 -169.36844 -8.9534321
180.22632 -169.04169 -2.6500731
183.8578 -169.19395 -4.5314212
180.28003 -169.04579 -5.8422341
180.40865 -169.00143 -6.4900098
180.604 -169.18706 -7.2909632
180.2092 -169.02985 -8.9863338
180.04803 -168.93982 -2.154222
180.12671 -168.9805 -3.043673
180.27458 -168.93875 -3.8678811
180.20966 -168.85643 -6.5072422
180.28217 -168.95079 -7.0795169
186.91373 -168.8858 -8.6206741
180.06003 -168.78484 -10.064777
185.83035 -167.26408 -4.4536209
180.15829 -167.05321 -5.0129209
180.21411 -166.84052 -7.5893469
180.35291 -166.76578 -3.7149651
180.65045 -166.60754 -4.535542
180.35417 -166.53619 -2.128998
180.57649 -166.57474 -4.1548152
180.70441 -166.47101 -7.2658758
180.50494 -166.44299 -9.2851534
180.79823 -166.34842 -5.9144888
181.27432 -166.12653 -2.5768011
180.04611 -166.18008 -3.510874
180.9084 -166.06085 -9.0070467
180.80423 -166.09187 -10.164096
180.05597 -165.88046 -2.884171
181.54089 -165.80386 -2.872762
181.42326 -165.78925 -3.522599
181.9014 -165.64517 -3.5225799
182.01956 -165.68588 -3.896379
184.56674 -165.78763 -4.7727342
184.49658 -165.73836 -4.841639
181.64275 -165.60957 -5.889441
182.47824 -165.26764 -3.0218041
182.22063 -165.39114 -4.2636199
181.68642 -165.35423 -9.4385443
182.74191 -165.0177 -3.1000741
182.00201 -165.05217 -8.9915657
182.81087 -164.8468 -4.2878389
181.56792 -164.68803 -1.863313
182.85568 -164.71387 -3.402698
183.26494 -164.20854 -2.1056089
183.14268 -164.28741 -3.8915889
183.02995 -164.29704 -7.7295299
183.36472 -164.0871 -5.7663021
183.27515 -164.04694 -6.2199459
183.68527 -163.89545 -2.1606719
183.78455 -163.84113 -4.748632
183.51256 -163.84325 -6.8502808
184.01218 -163.59969 -4.7031112
184.44504 -163.28572 -3.055249
184.45547 -163.25468 -3.791245
184.06013 -163.20197 -9.3771629
184.55627 -163.02493 -2.704618
184.5256 -162.98776 -3.7478011
184.6059 -162.85577 -7.03545
184.95639 -162.6084 -2.238385
184.76651 -162.68478 -3.5685911
184.72128 -162.77937 -3.820715
184.94385 -162.60193 -4.9393291
184.55667 -162.68234 -9.6274862
184.98923 -162.5603 -3.27179
185.32286 -162.26102 -2.2639999
185.32898 -162.3129 -2.9226179
185.08444 -162.39168 -3.575613
185.01987 -162.26369 -9.7067432
185.61598 -162.01794 -3.916903
185.26595 -162.02106 -9.7499084
185.68579 -161.90486 -7.289577
185.73608 -161.77724 -1.57629
185.91386 -161.71889 -3.7803731
186.46729 -161.25513 -5.3602691
186.54358 -161.16263 -4.7388072
186.52666 -160.92683 -8.685667
186.54376 -160.8898 -9.800312
186.91176 -160.70593 -4.7903981
187.06177 -160.64684 -5.4188871
187.08862 -160.56146 -2.2194459
186.97684 -160.54709 -9.3915243
187.68779 -160.0031 -4.9547811
187.65637 -160.07158 -6.6409822
184.73743 -179.91162 -4.6437969
184.81276 -179.08192 -2.310421
184.86272 -179.073 -3.0501029
184.85677 -179.03487 -4.3280139
186.76007 -178.89873 -8.7413473
184.9436 -178.52312 -4.3131328
184.95193 -178.53322 -4.5151482
186.54308 -178.51474 -5.4728632
186.36737 -178.55042 -5.838141
186.49396 -178.44334 -8.1837196
186.25708 -178.3317 -4.9467549
186.29144 -178.29623 -5.736053
186.42142 -178.31741 -6.3132362
186.448 -178.26843 -6.9251909
186.47986 -178.37955 -10.400627
185.12442 -178.08261 -4.3316731
186.32451 -178.07932 -5.8726611
186.18227 -178.16089 -7.7237978
180.78133 -177.91447 -3.490561
186.34375 -177.97351 -8.0926828
180.95395 -177.76434 -2.4918909
185.28427 -177.74704 -2.483634
185.33063 -177.68359 -2.938906
186.92049 -177.64769 -3.9731741
186.67262 -177.78973 -5.8815908
186.60103 -177.77141 -6.3183579
189.09737 -177.61452 -6.317966
186.93062 -177.61896 -6.9950132
186.69589 -177.65158 -8.5349083
181.01968 -177.53142 -2.3531809
180.86681 -177.54439 -2.686887
187.10983 -177.4046 -5.4443741
187.10799 -177.47368 -5.6839862
187.1161 -177.45668 -7.0144429
186.99672 -177.49356 -8.1510487
187.16576 -177.40497 -9.3685989
181.82422 -177.20886 -3.0109529
181.85324 -177.25238 -3.499115
187.42311 -177.2238 -3.6000209
187.20343 -177.3085 -7.4408069
187.12903 -177.34306 -9.6804409
187.51881 -177.07153 -4.1955581
187.5295 -177.03163 -7.016974
186.02789 -176.86093 -3.4508171
182.19928 -176.82368 -3.953897
187.63354 -176.88126 -4.6758261
187.68207 -176.86099 -6.3643422
187.63004 -176.90233 -7.4472418
187.70837 -176.85376 -7.8327909
187.45618 -176.9278 -8.2284336
182.29681 -176.79007 -2.4963269
187.50606 -176.77914 -3.6085091
187.34062 -176.69113 -4.8751879
187.54684 -176.76088 -5.78335
187.33743 -176.61557 -5.8084059
187.34622 -176.68307 -6.0384231
187.65662 -176.76094 -6.3522558
187.66385 -176.78087 -7.0720201
187.44286 -176.69666 -7.4887099
187.3918 -176.57944 -4.7171679
187.0802 -176.53551 -5.7985859
187.17233 -176.45427 -6.1930141
187.31644 -176.5589 -7.0782681
187.13939 -176.4852 -9.5190229
187.25107 -176.55656 -9.726059
186.90314 -176.26901 -3.3455
186.94635 -176.26346 -3.76949
187.1031 -176.2101 -6.4027128
187.10268 -176.31534 -7.1080451
186.92699 -176.28241 -9.5155354
183.01486 -176.10184 -2.2646739
182.95586 -176.16324 -3.066834
186.7196 -176.08145 -3.3238289
186.76077 -176.15564 -4.2064581
186.92416 -176.19624 -6.2752929
186.88898 -176.18011 -6.5863781
186.98476 -176.05121 -7.786303
188.73825 -176.12064 -8.8338842
186.7529 -176.04988 -9.515337
186.52133 -175.84386 -3.105525
186.52829 -175.89215 -3.3338709
186.50121 -175.81552 -5.827764
186.61115 -175.89322 -6.2740841
186.58301 -175.82217 -6.6134291
186.66338 -175.84001 -7.031673
186.6299 -175.80232 -7.4524479
186.54219 -175.87164 -9.7688313
183.4342 -175.75311 -2.610379
186.31516 -175.71448 -2.697077
186.29976 -175.73843 -3.0298679
186.2433 -175.73384 -3.3593359
183.41426 -175.75827 -3.7707069
186.28047 -175.69905 -5.7789059
186.9424 -175.76642 -7.8816118
186.27583 -175.73256 -9.7457218
183.56342 -175.56204 -2.3721459
185.9501 -175.43225 -3.033448
186.13101 -175.45171 -3.3360381
186.21248 -175.45789 -6.3111558
186.45705 -175.54776 -6.2209139
186.15924 -175.40417 -7.6937799
186.18761 -175.55396 -9.3741112
185.91278 -175.274 -2.6451769
185.9527 -175.26556 -4.7561798
185.96584 -175.21173 -5.2449732
185.88403 -175.26837 -5.7833958
186.09528 -175.39648 -5.8206658
186.30768 -175.384 -7.4468441
183.98355 -175.13651 -1.92484
185.71866 -175.11331 -3.0792091
185.55988 -175.0213 -4.448873
185.76038 -175.06488 -4.658731
186.09225 -175.1825 -5.0245128
185.90309 -175.09128 -5.7806201
185.73247 -174.87831 -2.3564601
185.53226 -174.86478 -4.7080102
185.44385 -174.90536 -4.8705111
185.45535 -174.89919 -5.3702941
185.53976 -174.81216 -7.044147
185.78967 -174.90166 -10.036718
184.70792 -174.60158 -3.4999859
184.33237 -174.71552 -3.830451
185.29593 -174.71422 -4.5378079
185.42191 -174.70966 -4.866714
185.4743 -174.75465 -5.181056
185.70383 -174.75819 -5.0386658
185.36838 -174.66644 -5.3788309
185.5374 -174.73206 -5.9890819
185.50436 -174.74074 -6.1114058
185.7574 -174.7668 -6.4389219
185.44377 -174.62024 -7.6744938
185.67268 -174.74847 -8.279892
184.84076 -174.50108 -2.5365889
184.92648 -174.49905 -3.5254569
185.14923 -174.49982 -4.177052
185.16212 -174.55365 -6.0680742
185.15735 -174.4272 -7.6929359
185.36208 -174.59985 -9.5948839
185.24097 -174.3623 -4.614264
185.27606 -174.31198 -5.0537248
184.97017 -174.2493 -9.3768406
185.2847 -174.3822 -9.3234539
184.92981 -174.19556 -3.4089701
184.94778 -174.14557 -6.227581
185.16574 -174.09863 -7.690383
184.97044 -174.08504 -8.9377308
184.90083 -173.82016 -4.6810851
185.04126 -173.84207 -4.8561888
184.69724 -173.85532 -6.986444
184.59152 -173.84473 -8.9558182
184.27702 -173.79895 -2.086272
184.52788 -173.72916 -2.396126
184.61859 -173.73415 -2.575583
184.70587 -173.75099 -3.106297
184.62123 -173.73505 -3.4861979
184.72748 -173.7282 -4.6002111
184.70853 -173.79245 -5.4231458
184.38794 -173.69392 -5.7391829
184.77733 -173.69591 -7.2960281
191.39566 -173.72234 -8.7203064
184.35144 -173.63164 -10.067282
184.43318 -173.53252 -2.5700309
184.50128 -173.57144 -3.6292
184.51653 -173.43262 -4.7475619
184.60826 -173.5058 -4.8776622
184.88226 -173.57404 -5.056632
184.53479 -173.46532 -5.3256059
184.20155 -173.40149 -5.750669
184.4744 -173.4776 -5.75107
184.5002 -173.54294 -6.5999641
184.43036 -173.40889 -6.8993921
191.28012 -173.5843 -8.7210083
184.33026 -173.45871 -9.030611
184.29138 -173.45908 -9.4714975
184.465 -173.54019 -9.4005718
184.5005 -173.59419 -10.123777
184.24954 -173.38216 -2.63024
184.29807 -173.36836 -3.077122
184.46327 -173.37706 -4.8599801
183.94092 -173.29367 -8.8547878
184.22542 -173.37154 -9.8196898
184.08662 -173.15593 -2.9792249
180.41095 -173.03343 -4.069396
184.11829 -173.11108 -5.7187209
184.10065 -173.09932 -6.571898
184.11377 -173.14767 -9.4616823
184.00075 -173.08499 -9.7116394
183.84172 -172.87575 -4.2294278
183.74051 -172.89568 -4.8677101
184.11971 -172.88881 -5.122653
183.82352 -172.91824 -5.366982
183.81985 -172.85202 -5.6916518
183.84216 -172.96175 -6.1969929
183.79471 -172.98325 -7.003046
183.38202 -172.63094 -4.6591702
183.75769 -172.74467 -4.6455202
183.38086 -172.65552 -4.9853268
183.71185 -172.783 -5.1290441
183.89297 -172.63687 -5.1080441
183.46407 -172.61337 -5.2777381
183.72668 -172.71732 -5.7238121
183.70844 -172.74071 -6.3066769
183.64569 -172.68729 -6.590384
183.52798 -172.66254 -7.004025
183.78136 -172.69144 -7.9588389
183.7056 -172.67798 -8.5256062
183.35579 -172.58853 -1.586645
183.04047 -172.43573 -1.758201
183.41447 -172.54294 -3.887028
183.65964 -172.57375 -5.111815
183.44318 -172.55789 -6.2217612
183.46423 -172.56454 -8.0632334
183.46509 -172.58426 -9.5182667
182.76897 -172.2023 -1.576141
183.27594 -172.30701 -3.8907011
183.26901 -172.30988 -4.6227918
183.13181 -172.29916 -4.8962102
183.10677 -172.24506 -5.3228722
183.31894 -172.37939 -5.4773231
183.26813 -172.2597 -6.1975722
183.33824 -172.27301 -7.0907068
183.16779 -172.23445 -9.562294
183.01886 -172.11282 -5.7320099
183.07094 -172.18106 -6.2890348
183.09332 -172.1282 -7.0439701
183.3631 -172.1951 -7.2564459
183.28836 -172.17281 -8.279089
183.02657 -172.13487 -8.6557674
183.1537 -172.16747 -11.58515
182.86852 -171.93896 -2.116878
182.90224 -171.91371 -2.651629
182.69194 -171.8009 -2.977716
182.88278 -171.86806 -3.5221519
182.90868 -171.91212 -3.7784181
183.05984 -171.86209 -4.5805311
183.20886 -171.9398 -5.2411928
182.88908 -171.83832 -5.4848838
182.92354 -171.89009 -5.7020812
182.93422 -171.8717 -6.2824278
182.85983 -171.80385 -6.6237659
182.90256 -171.89694 -7.0112338
183.06828 -171.84218 -8.6276627
182.67749 -171.74539 -2.6923571
182.66618 -171.70866 -3.649797
182.93726 -171.76691 -4.2445922
182.90581 -171.63776 -5.053443
182.6582 -171.73245 -6.2385678
182.70621 -171.64426 -6.5257449
182.69885 -171.729 -7.0274282
182.70256 -171.76706 -10.05311
182.56863 -171.40237 -4.3161302
184.61011 -171.43495 -4.244453
182.52768 -171.44775 -4.6418152
182.51071 -171.49548 -6.295074
182.50665 -171.53522 -10.054844
182.27399 -171.35095 -2.90416
182.26273 -171.25949 -4.1685019
182.25623 -171.32436 -5.2666688
182.51047 -171.37314 -5.7839422
182.35019 -171.31213 -6.5147471
182.15768 -171.2236 -6.9080372
182.3681 -171.30106 -10.10829
182.0766 -171.04095 -2.551986
182.22334 -171.09898 -3.8445859
182.09622 -171.00922 -4.1924391
182.24614 -171.15997 -4.9967589
182.11478 -171.0596 -5.3843112
181.83621 -170.82637 -1.589216
181.86792 -170.92398 -4.7369738
181.92285 -170.94843 -4.9727001
181.98102 -170.89557 -5.7612162
181.85046 -170.94604 -6.197093
182.05554 -170.93639 -6.2734842
181.86925 -170.84137 -9.6026764
181.72662 -170.60768 -3.8064959
181.87161 -170.63393 -5.7821369
181.58069 -170.64513 -6.194571
181.75021 -170.6866 -7.0756421
181.89975 -170.67235 -7.8541441
181.84384 -170.61269 -8.4115753
180.93452 -170.41568 -2.9208701
181.53445 -170.5795 -4.6576319
181.50165 -170.4888 -4.9838152
181.70869 -170.56299 -6.28544
181.51038 -170.44937 -6.4038701
181.80371 -170.58167 -8.3164759
181.42789 -170.49275 -9.6742468
181.53706 -170.58173 -10.023481
180.71857 -170.22897 -2.903012
181.16115 -170.35536 -2.8123779
181.39417 -170.24036 -5.531456
181.34576 -170.24652 -6.1706152
181.48383 -170.20291 -7.399786
181.16547 -170.08325 -4.1328139
181.09073 -170.12231 -4.7188821
181.13501 -170.12727 -5.0381832
181.36725 -170.14836 -7.9260602
181.34972 -170.13068 -8.1609764
180.39369 -169.80998 -2.991154
181.09326 -169.87173 -4.2884879
180.9841 -169.93515 -4.564579
180.21266 -169.81496 -5.305275
181.02974 -169.86629 -5.5504088
180.79993 -169.70975 -3.72082
180.62224 -169.70195 -9.322566
180.93631 -169.51071 -4.619
180.80249 -169.43175 -5.8326969
180.56293 -169.41624 -10.037394
180.37349 -169.27975 -3.0071621
180.62553 -169.39548 -5.7396622
180.68555 -169.39549 -7.0823312
180.34982 -169.27223 -10.008915
180.36514 -169.16888 -5.567544
180.26834 -169.06432 -6.192183
180.40591 -169.15364 -10.019374
180.02071 -168.75876 -3.218327
180.24921 -168.73552 -4.5559959
180.10463 -168.75891 -8.8864899
186.95987 -168.28549 -8.8794765
186.25278 -167.7139 -8.6161165
185.86838 -167.34654 -4.2266669
180.23116 -167.01205 -4.522697
180.23389 -166.9191 -3.1057241
180.26379 -166.94275 -3.818871
180.50299 -166.67905 -2.5701339
180.33417 -166.62161 -3.088088
180.49039 -166.66969 -3.2689209
180.54721 -166.68546 -5.7239528
180.27763 -166.6076 -9.8372431
180.22531 -166.65918 -10.192549
180.27467 -166.47583 -1.916518
180.30577 -166.48108 -3.271471
180.70221 -166.47462 -3.693815
180.60315 -166.5782 -6.6709342
180.41983 -166.43855 -9.9538984
180.49347 -166.43979 -10.215908
180.09206 -166.24484 -2.136246
184.9743 -166.34607 -4.66044
180.6618 -166.29109 -8.9678917
181.04955 -166.19911 -2.2330379
181.42264 -165.83263 -2.7445321
181.28134 -165.91983 -3.752763
181.26236 -165.9059 -7.896143
181.45786 -165.78928 -4.546576
181.4761 -165.53894 -9.2643242
181.46126 -165.5361 -9.8931236
182 -165.33455 -5.593626
182.18762 -165.02437 -6.0850978
182.85118 -164.88751 -2.260679
182.72318 -164.93301 -5.1673102
182.85048 -164.64914 -4.7062688
182.48857 -164.60103 -9.1899643
182.87479 -164.57739 -3.0741479
182.81941 -164.46439 -3.5270309
182.58954 -164.49506 -9.9295712
182.50781 -164.55058 -10.087674
182.23886 -164.05148 -1.75026
183.6115 -164.00153 -4.8614039
182.90979 -164.1989 -9.9706488
183.72397 -163.83163 -3.5437419
183.70419 -163.95856 -3.7048631
183.85933 -163.83104 -3.7872131
183.52679 -163.84207 -7.7802448
183.63631 -163.71301 -6.637054
184.2377 -163.40015 -4.8750782
184.48972 -163.23975 -4.5982862
184.10611 -163.35275 -5.832787
184.3992 -163.13966 -6.7251382
184.50291 -162.97211 -6.2413921
183.63414 -162.73289 -1.82911
184.75516 -162.74332 -2.8305221
184.7438 -162.73598 -5.931335
185.07138 -162.52042 -4.1275411
185.1732 -162.39886 -2.491451
185.35812 -162.25838 -4.1353979
185.00381 -162.33173 -9.0682888
185.2392 -162.07903 -9.3601475
185.70273 -161.94048 -2.202534
185.70609 -161.81522 -4.5382552
186.04428 -161.62001 -4.1998701
186.06816 -161.48343 -1.565204
186.42926 -161.22382 -3.789624
186.21335 -161.36307 -4.6040401
186.42201 -161.32442 -4.6304789
186.53546 -161.03046 -8.3189735
186.86676 -160.84477 -4.9225612
186.64427 -160.91595 -7.1366401
186.55934 -160.87898 -9.1556511
186.71866 -160.71793 -9.8309917
187.15645 -160.45604 -4.8662429
187.40543 -160.26517 -4.9757791
187.7637 -160.03502 -3.816714
187.67834 -160.10883 -5.415832
184.76918 -179.84747 -3.4182291
184.74911 -179.66547 -3.109585
184.73471 -179.79446 -4.493793
184.75534 -179.49973 -4.3007078
184.7588 -179.2648 -2.4370251
184.77295 -179.28284 -3.051914
184.78754 -179.15942 -4.2157359
184.78476 -179.14005 -4.5105929
188.53525 -178.90988 -2.982724
184.84439 -178.98965 -3.0790851
184.93022 -178.56982 -3.0540309
184.92168 -178.43088 -3.4358079
186.50497 -178.4411 -6.93645
186.38141 -178.495 -7.2377648
186.32043 -178.2375 -5.3222108
186.46439 -178.30698 -5.8532019
186.14441 -178.2104 -6.1194749
186.35918 -178.21719 -8.6102562
186.35593 -178.24759 -8.9515457
180.86234 -178.04718 -2.26018
180.80727 -178.00278 -3.1882429
180.99641 -178.00206 -3.5119851
185.08084 -178.04996 -3.650383
186.34004 -178.11031 -6.9268131
186.4603 -178.19011 -9.3688335
180.62418 -177.88708 -2.3013079
181.23251 -177.82785 -3.189641
181.07338 -177.92627 -3.4814429
185.11171 -177.9231 -4.3340468
185.23654 -177.85606 -4.3337979
185.20753 -177.80626 -4.6902852
186.52637 -177.85448 -5.160346
180.06003 -177.70558 -2.6973209
185.33087 -177.62949 -3.3997941
180.42456 -177.66869 -3.5933559
180.72202 -177.75349 -3.589596
181.01143 -177.77985 -3.728884
185.24368 -177.73328 -4.3593268
186.76242 -177.68614 -5.1720052
186.61304 -177.77917 -5.4429469
186.82233 -177.64023 -5.7589769
186.85257 -177.63623 -8.1895771
186.87051 -177.62984 -9.3784981
180.06485 -177.48213 -2.5731189
185.50638 -177.44653 -2.522871
181.50937 -177.4429 -3.524416
187.09125 -177.46225 -5.8386168
187.04922 -177.54509 -6.9757152
187.26974 -177.26822 -5.080442
187.28116 -177.29282 -6.1692619
189.0032 -177.36987 -6.193727
181.88257 -177.09799 -2.0669811
187.63101 -177.0359 -3.603893
181.80551 -177.07986 -3.98457
187.49258 -177.05779 -5.3128848
188.06468 -177.14038 -6.0876222
187.41895 -177.00665 -6.5346971
187.68034 -177.00124 -6.5340939
188.76276 -177.00781 -6.4274278
188.86078 -177.13506 -6.5797839
181.8689 -176.9855 -4.0123549
187.48985 -176.84766 -4.6823969
187.66479 -176.96957 -5.7669649
187.44612 -176.96867 -5.8060532
187.67395 -176.86729 -5.8411918
187.56203 -176.85223 -6.011086
188.52065 -176.88205 -6.090045
187.50642 -176.96738 -7.886641
187.41594 -176.90742 -9.7485981
182.50769 -176.61496 -2.532743
187.40749 -176.70538 -5.90241
187.65186 -176.79022 -7.4463849
187.59258 -176.6795 -8.3482285
187.30792 -176.67343 -10.123632
182.53851 -176.52237 -2.333694
187.09294 -176.46661 -2.24174
186.98978 -176.46262 -2.993726
187.10776 -176.49075 -5.889617
187.14624 -176.52904 -10.092031
182.66635 -176.33815 -3.417249
182.70845 -176.30585 -3.911545
186.8819 -176.20322 -4.6116729
186.89516 -176.20135 -4.9056931
186.95023 -176.22958 -5.792542
186.9165 -176.20944 -6.6234698
187.02327 -176.23085 -7.4221649
187.10336 -176.28084 -8.6793556
186.97784 -176.30623 -9.0680046
186.72366 -176.13333 -2.6955891
186.61237 -176.05801 -3.0353241
186.79468 -176.10791 -5.3836651
186.50356 -175.8172 -4.1989059
186.50305 -175.9225 -4.6199379
186.54723 -175.86292 -4.9426298
186.60583 -175.8423 -5.3375912
186.38034 -175.80319 -6.5559769
186.63438 -175.89807 -6.6300988
186.83832 -175.95699 -10.125586
183.35811 -175.71362 -1.8039
183.38081 -175.76929 -2.2921889
186.65907 -175.70993 -8.1982431
186.35742 -175.68109 -10.08202
186.43378 -175.56975 -4.7220292
186.22626 -175.47801 -5.3711438
186.41757 -175.57387 -5.5301218
186.46164 -175.53033 -5.810039
186.12991 -175.41667 -10.080144
185.94661 -175.36636 -2.0568581
185.98228 -175.20572 -8.9225502
184.10965 -175.02547 -1.990091
185.71878 -175.05997 -3.317627
184.13077 -175.09148 -3.548229
185.55182 -175.01027 -4.972023
185.78568 -175.06201 -4.8768301
185.90076 -175.16988 -6.5188851
186.00494 -175.007 -7.7242589
185.89688 -175.14441 -9.5056658
185.90912 -175.10034 -10.057652
184.26164 -174.96678 -2.5219271
185.54579 -174.90651 -3.1242559
185.4471 -174.929 -3.440311
184.22559 -174.94727 -3.7305739
185.76123 -174.90263 -3.635582
185.58136 -174.90817 -4.1652079
185.77817 -174.927 -4.9817338
185.77161 -174.93021 -5.7924762
185.52727 -174.90533 -6.0699601
185.72818 -174.90033 -6.1984
185.82381 -174.88094 -7.874557
185.76309 -174.83044 -8.2102108
185.55753 -174.85449 -10.091957
184.37106 -174.78775 -1.987759
184.54797 -174.69394 -3.0589969
185.4003 -174.71452 -3.0778
185.37625 -174.64966 -4.2008619
185.40392 -174.66335 -5.7670312
185.6024 -174.68698 -6.2788572
185.73854 -174.73428 -6.9254742
185.79346 -174.79286 -7.4411821
184.98386 -174.51181 -3.0634811
185.06494 -174.44597 -5.3331118
185.45776 -174.50726 -6.9965868
185.48373 -174.54106 -8.335495
185.30708 -174.59268 -9.7427673
185.31766 -174.55069 -10.109375
184.68002 -174.3152 -2.059649
185.29272 -174.3394 -7.0762072
185.25104 -174.23502 -8.4564943
184.98021 -174.26343 -9.7143335
184.28404 -174.15634 -5.4773521
185.01062 -174.1953 -7.07621
185.14758 -174.13866 -7.3764572
184.7509 -174.09155 -8.7880058
184.7253 -174.08112 -9.7391462
184.79494 -173.82162 -4.9739032
185.38336 -173.99939 -7.7844
184.59273 -173.81393 -8.9535484
184.80707 -173.92833 -9.8142052
184.6552 -173.84608 -10.099863
185.0786 -173.74231 -4.738019
184.59576 -173.76099 -6.628119
184.34467 -173.43373 -5.469954
184.28606 -173.48364 -9.406044
191.13745 -173.27261 -8.7087536
184.03044 -173.07314 -4.1922469
184.42072 -173.02229 -4.7430172
184.21431 -173.05231 -4.8518052
184.07474 -173.12076 -6.195385
183.79732 -173.01186 -9.3499136
183.89456 -173.06613 -9.6966515
183.76131 -172.86714 -4.7155542
183.55345 -172.86057 -4.9772682
183.42119 -172.9559 -5.3760018
184.06619 -172.85828 -5.243567
183.76143 -172.89618 -5.4764819
183.85275 -172.97742 -6.6003819
183.94539 -172.86609 -7.939353
183.99834 -172.91277 -8.3494034
183.72704 -172.76239 -4.8865509
183.44461 -172.649 -5.4044518
183.68689 -172.67155 -7.1046972
183.72527 -172.76633 -9.6011124
183.42857 -172.58806 -3.8635211
183.33167 -172.59631 -5.0778761
183.45639 -172.58168 -6.7040191
183.52263 -172.4809 -7.823648
183.37692 -172.51401 -8.5408335
183.36972 -172.52945 -9.4330482
182.92102 -172.22501 -1.809759
183.07721 -172.28625 -5.326962
183.27786 -172.36678 -5.5036449
183.33273 -172.25305 -5.7792282
183.69505 -172.29773 -5.8437901
183.43671 -172.2357 -8.5364637
183.28169 -172.33421 -10.151779
182.84453 -172.08675 -1.5771281
183.02072 -172.11005 -2.6767831
184.0141 -172.03258 -4.272655
182.72342 -172.00787 -5.1932802
182.79483 -172.1597 -5.7528009
183.06071 -172.1438 -6.2363091
183.02652 -171.89917 -3.7827129
183.2814 -171.99243 -4.0654759
182.85056 -171.88458 -5.5069232
183.03023 -171.85713 -5.8073921
182.90558 -171.89633 -6.5318079
182.98657 -171.82094 -6.9235458
182.93674 -171.81949 -7.3686042
183.21805 -171.8642 -8.7152634
182.63684 -171.69058 -3.8238649
182.44385 -171.6899 -5.1665769
182.79108 -171.60193 -5.8113608
182.96387 -171.79448 -6.2206059
182.46086 -171.51691 -1.519763
182.42462 -171.50436 -3.0339041
182.43835 -171.51614 -3.3118169
182.27948 -171.40582 -3.778686
182.5829 -171.42871 -4.2461939
182.82864 -171.46393 -6.8213902
182.60568 -171.45981 -7.3853421
182.32112 -171.25798 -1.537805
182.19873 -171.33498 -2.2142041
182.30055 -171.33636 -2.7113211
182.3054 -171.31479 -3.359215
182.25459 -171.3042 -4.686367
182.24461 -171.36055 -5.0154681
182.84946 -171.36813 -5.7954731
182.56262 -171.39893 -6.1740208
182.34766 -171.32469 -6.4600801
182.26981 -171.28174 -6.973248
182.81564 -171.39574 -8.604373
182.44949 -171.06827 -4.7274098
182.15637 -171.10185 -5.069067
182.25195 -171.13589 -6.6060748
182.20877 -171.10242 -7.051899
181.8858 -171.02679 -9.32201
181.85956 -170.961 -1.8136441
181.89993 -170.98473 -2.1809599
181.89651 -170.92198 -3.352134
181.90445 -170.91492 -5.0553188
181.83946 -170.91414 -5.2573409
181.84703 -170.88484 -10.028919
181.75131 -170.68246 -6.2934289
182.19243 -170.62494 -7.7828121
182.01367 -170.67522 -8.0327206
181.82458 -170.61902 -8.4124527
181.43117 -170.52432 -4.6521478
181.72192 -170.55786 -4.9956808
181.44794 -170.58472 -5.0688872
181.90598 -170.5863 -8.211338
181.50894 -170.4902 -9.5843296
181.27672 -170.31793 -2.1585641
181.2802 -170.22957 -3.308881
181.09271 -170.21739 -5.0410562
181.32861 -170.22754 -5.5274668
181.38747 -170.25017 -8.2966337
181.14221 -170.15622 -1.7997659
181.08102 -170.10239 -2.0852959
181.05173 -170.00392 -3.2764421
181.33673 -170.19556 -3.782536
181.27243 -170.1897 -8.5794182
180.83276 -169.82111 -1.703706
180.94745 -169.87367 -3.3273129
180.98695 -169.89835 -4.180295
181.14056 -169.84344 -4.9561849
181.07901 -169.85852 -5.7341352
181.2677 -169.96024 -7.0479879
181.28226 -169.87796 -7.3516722
181.17581 -169.93091 -7.8224401
186.26083 -169.99797 -8.2502289
180.96317 -169.81052 -9.7195654
180.45146 -169.70493 -2.62731
180.98157 -169.73253 -6.4815698
180.59068 -169.73529 -7.622499
180.55353 -169.54156 -2.174135
180.47987 -169.40913 -3.348062
180.17752 -169.20175 -6.045115
184.6225 -169.01016 -5.0931058
180.19238 -169.01004 -5.542871
180.26633 -169.07007 -9.0219526
180.27319 -168.87915 -4.7190819
180.31299 -168.88075 -5.1404729
180.1628 -168.91406 -6.498313
180.07178 -168.71983 -6.5104589
180.08215 -168.7435 -7.0205441
186.35713 -167.66264 -7.9172931
180.12941 -167.14433 -2.2785571
180.2686 -166.94241 -3.376615
180.4234 -166.85913 -3.6518321
185.10229 -166.96323 -7.8301678
180.26404 -166.90361 -8.402215
180.32767 -166.68896 -7.6061668
184.99635 -166.68556 -7.7228889
180.27527 -166.67151 -8.9259872
180.6826 -166.54291 -3.823406
181.06322 -166.23331 -3.6077771
180.89294 -166.35762 -6.1408811
180.92612 -166.293 -7.4489951
180.92705 -166.23802 -7.8498578
181.24979 -166.0386 -3.6465189
181.11316 -166.17471 -4.5660572
181.21674 -166.02782 -4.6454711
181.45572 -165.87003 -3.6940739
181.42218 -165.8781 -5.8830981
181.1693 -165.80779 -9.0500603
181.38013 -165.65089 -9.7263489
184.22749 -165.53171 -4.6863761
184.24268 -165.47173 -4.8325238
182.52875 -165.24028 -3.6654739
181.81725 -165.3734 -8.2221756
182.75145 -165.01575 -3.761704
182.19379 -165.10449 -6.4833822
181.92525 -165.1138 -9.123085
181.78915 -165.1982 -10.013297
182.92155 -164.82326 -3.4109969
182.85623 -164.8728 -3.7606471
182.79347 -164.93478 -4.5005898
182.42229 -164.92136 -7.9558191
182.15126 -164.8907 -10.040374
182.78864 -164.61273 -2.626024
182.88945 -164.64421 -2.703407
182.88535 -164.6066 -4.1713338
182.52144 -164.67751 -7.6487842
181.73068 -164.52269 -1.862407
182.90594 -164.47726 -3.716511
181.90224 -164.3584 -1.807584
183.1039 -164.26871 -2.6721971
183.11115 -164.30002 -2.8248839
183.05562 -164.3324 -3.393414
183.09677 -164.39201 -4.5797672
183.08957 -164.26944 -5.7450299
183.19858 -164.23854 -6.0640402
182.68707 -164.35818 -10.123215
183.64667 -164.06152 -2.966918
183.64474 -164.03496 -3.7111909
183.37831 -164.06708 -4.831543
183.28471 -164.03175 -6.9430542
182.99664 -164.12538 -9.4282913
183.52246 -163.80748 -8.2707062
182.59222 -163.70268 -1.809894
184.00275 -163.71696 -2.972131
183.8598 -163.63272 -6.0957508
184.36992 -163.2961 -2.7307391
184.48404 -163.20963 -2.7066381
184.54617 -163.07571 -4.6793809
184.26344 -163.18515 -6.9673948
184.01962 -162.93016 -1.829066
184.94261 -162.64305 -2.5584199
184.85368 -162.6422 -3.4202881
185.03899 -162.52809 -6.699038
185.15527 -162.36693 -3.818244
185.09547 -162.37775 -7.0419421
185.53271 -162.04929 -5.9646292
185.84242 -161.8233 -5.4460139
186.28513 -161.36998 -6.2688522
186.27379 -161.26103 -8.2789145
186.60736 -161.06476 -3.85799
186.55057 -161.04161 -5.010148
186.83817 -160.90283 -3.4997311
186.72423 -160.94122 -5.3817258
186.839 -160.81903 -6.6596708
186.68787 -160.94139 -7.5853062
187.06711 -160.58441 -3.84814
187.02463 -160.371 -9.5389423
184.77612 -179.41489 -3.084985
184.80072 -179.26173 -3.0886891
184.77103 -179.35797 -3.3341849
184.7966 -179.18163 -3.4139531
184.85641 -178.97202 -3.317457
184.86847 -178.80667 -4.3128891
186.56261 -178.60905 -9.3093863
186.83585 -178.75816 -9.4148741
184.92813 -178.56583 -3.366205
186.51013 -178.57382 -8.7381516
186.64938 -178.58055 -10.429563
184.98531 -178.29871 -2.3160479
186.46996 -178.39059 -6.5101118
186.45065 -178.32227 -7.4126158
186.4968 -178.34346 -9.0346928
186.30403 -178.22571 -9.2697153
186.36597 -178.37547 -9.633173
181.08395 -178.02936 -3.1791351
180.94667 -177.93587 -2.313746
180.51837 -177.88623 -2.679414
185.21121 -177.80949 -3.6538169
185.14032 -177.86343 -4.705205
186.35422 -177.96886 -5.4758329
186.59363 -177.91867 -5.644506
186.47421 -177.85345 -6.697403
186.56169 -177.8298 -6.9704919
186.61252 -177.81232 -8.2224541
186.53224 -177.84515 -9.8391533
186.54095 -177.85303 -10.228371
180.27756 -177.73404 -2.5786779
180.58307 -177.73112 -2.5392399
181.5667 -177.6116 -2.4352181
180.16266 -177.74786 -3.3929231
180.15445 -177.69455 -3.743108
180.40102 -177.79436 -3.701479
185.19905 -177.73648 -4.53338
